# .PCD v0.7 - Point Cloud Data file format
VERSION 0.7
FIELDS x y z rgb
SIZE 4 4 4 4
TYPE F F F U
COUNT 1 1 1 1
WIDTH 1282
HEIGHT 1
VIEWPOINT 0 0 0 1 0 0 0
POINTS 1282
DATA ascii
2080.436 953.78845 2988.8264 6255757
2100.3145 954.74982 2991.8389 6321550
2123.1755 957.03949 2999.0137 6190477
2147.7827 960.07159 3008.5154 6190477
2179.1968 966.07123 3027.3159 6321551
2201.6157 968.0174 3033.4146 6321552
2217.3264 967.00647 3030.2468 6256016
2234.7048 966.73334 3029.3909 6255759
2254.5518 967.52399 3031.8684 6255760
2265.9299 964.69653 3023.0083 6256016
2289.8179 967.19757 3030.8455 6256016
2316.1516 970.68457 3041.7725 6321552
2338.3545 972.39978 3047.1472 6321552
2358.1655 973.10162 3049.3467 6321809
2376.3821 973.13977 3049.4663 6256016
2393.8728 972.88245 3048.6599 6321809
2415.7883 974.41364 3053.458 6256016
2439.0854 976.47516 3059.9182 6321552
2463.5884 978.98535 3067.7842 6256016
2482.2725 979.16339 3068.342 6190223
2503.1038 980.1795 3071.5264 6255759
2540.3003 987.54303 3094.6008 6255759
2568.5884 991.36237 3106.5693 6255760
2616.2185 1002.5391 3141.593 6190223
2646.4382 1006.9329 3155.3618 6255759
2653.0796 1002.3569 3141.0222 6255760
2661.4192 998.48193 3128.8794 6256016
2707.3508 1008.6663 3160.7937 6190223
2753.6851 1018.8592 3192.7344 6255759
2776.8665 1020.4048 3197.5776 6255759
2806.865 1024.4174 3210.1514 6321552
2820.637 1022.4934 3204.1228 6321552
2853.1326 1027.3374 3219.3018 6256016
2869.666 1026.4073 3216.3877 6256016
2882.8032 1024.283 3209.7305 6321809
2921.1284 1031.0771 3231.0212 6255759
2953.4507 1035.6777 3245.4375 6321552
2951.1348 1028.1508 3221.8508 6321295
2993.0703 1036.0385 3246.5679 6255502
3038.8752 1045.1558 3275.1382 6189709
3033.0698 1036.5198 3248.0762 6321295
3078.9033 1045.5284 3276.3062 6255501
3089.1726 1042.423 3266.5747 6255502
3122.8662 1047.2114 3281.5798 6255759
3157.7214 1052.3274 3297.6113 6387345
3164.0835 1047.9434 3283.8735 6452881
3173.4148 1044.5905 3273.3669 6387088
0 0 0 0
0 0 0 0
0 0 0 0
0 0 0 0
0 0 0 0
0 0 0 0
0 0 0 0
0 0 0 0
0 0 0 0
-2255.177 839.74188 2583.333 5730437
-2256.041 845.82214 2602.0378 5532803
-2264.0276 854.67499 2629.2725 2571861
-2247.5942 854.36835 2628.3291 4677237
-2226.3977 852.23413 2621.7637 5795462
-2228.9102 859.20941 2643.2217 5862025
-2209.6296 857.82306 2638.9568 5927563
-2198.6587 859.66595 2644.6262 6059149
-2186.9341 861.23853 2649.4641 5993356
-2172.2036 861.6416 2650.7041 5993355
-2157.0188 861.86896 2651.4036 5795976
-2136.6833 860.02673 2645.7361 5335425
-2122.5371 860.66663 2647.7048 5335425
-2098.5334 857.28925 2637.3147 5269632
-2087.8472 859.34229 2643.6306 5598597
-2058.739 853.78687 2626.54 5598597
-2046.2556 855.09344 2630.5598 5598598
-2029.1766 854.48517 2628.6885 5664391
-2013.6305 854.51788 2628.7891 5861769
-1988.2222 850.33319 2615.9155 6124941
-1979.0702 853.0899 2624.3962 6059405
-1970.511 856.14801 2633.804 6190734
-1962.84 859.6441 2644.5591 6190734
-1946.1117 859.19788 2643.1863 6124941
-1930.3026 859.15338 2643.0496 6256527
-1913.4207 858.62695 2641.4299 6190734
-1892.2233 856.13904 2633.7764 6190734
-1884.7145 859.85498 2645.2078 6125457
-1871.3153 860.92322 2648.4941 6059920
-1855.7888 861.02277 2648.8003 6125456
-1840.7504 861.35223 2649.814 6125456
-1827.1307 862.35724 2652.9055 6059917
-1818.0182 865.52533 2662.6516 6059918
-1798.6678 863.83234 2657.4434 6059663
-1785.1266 864.92383 2660.8013 6059663
-1770.981 865.73938 2663.3103 5993870
-1750.5016 863.44556 2656.2537 5993871
-1736.3066 864.23792 2658.6914 6059663
-1721.2139 864.59406 2659.7869 5928077
-1705.5969 864.69092 2660.085 5928332
-1686.67 863.09583 2655.1777 5993868
-1669.4005 862.32672 2652.8118 5993868
-1655.9235 863.52063 2656.4846 5928332
-1640.0603 863.48138 2656.3638 5993868
-1619.2595 860.81622 2648.165 6059661
-1602.2736 860.14697 2646.106 5994125
-1583.543 858.51837 2641.0959 5993868
-1565.8632 857.43256 2637.7556 5928075
-1549.0388 856.79797 2635.8035 5796746
-1532.8256 856.49188 2634.8618 5862282
-1515.6292 855.62445 2632.1934 5994125
-1497.7872 854.37079 2628.3364 6059661
-1479.3596 852.75305 2623.3599 5993868
-1464.9877 853.46356 2625.5457 5993868
-1451.3506 854.62207 2629.1096 5862285
-1435.3331 854.38879 2628.3921 5862284
-1416.4523 852.42731 2622.3577 5862284
-1394.6736 848.65887 2610.7646 5928077
-1379.5006 848.8703 2611.4153 5928077
-1363.4019 848.51044 2610.3081 5993870
-1349.1594 849.31097 2612.7708 5862541
-1336.9607 851.4314 2619.2942 5928334
-1322.7172 852.28448 2621.9185 5993870
-1312.6864 855.9046 2633.0552 5993870
-1292.7979 853.10718 2624.4492 6059663
-1284.6702 858.09698 2639.7996 5994127
-1269.7175 858.59503 2641.3318 6059663
-1253.9133 858.52258 2641.1089 6059663
-1240.4919 860.10034 2645.9626 5928334
-1227.6031 862.09277 2652.092 5993870
-1214.5737 864.03687 2658.0728 5993871
-1198.7759 864.03687 2658.0728 6059663
-1186.085 866.30615 2665.0537 6059920
-1176.9785 871.29034 2680.387 6125456
-1165.1697 874.38342 2689.9023 6059664
-1152.825 877.15466 2698.4277 6125457
-1136.2133 876.71179 2697.0652 6059920
-1124.3867 880.00128 2707.1848 6125456
-1109.2766 880.77911 2709.5776 6059663
-1093.8591 881.33228 2711.2793 5994127
-1077.6078 881.22003 2710.9341 5993870
-1061.0322 880.83521 2709.75 5862541
-1049.1749 884.41577 2720.7654 5862284
-1032.679 884.13708 2719.908 5796748
-1014.097 882.03522 2713.4417 5862284
-1001.8397 885.4552 2723.9629 5862541
-986.33893 886.07397 2725.8665 6059663
-967.03052 883.23553 2717.1345 6125456
-952.30212 884.55499 2721.1936 6125456
-935.15948 883.63879 2718.375 6125457
-916.20526 880.94849 2710.0986 6192019
-896.51178 877.43842 2699.3003 6191762
-885.09723 882.05072 2713.4895 6126226
-861.79651 874.76929 2691.0894 5994383
-851.77075 880.94202 2710.0786 5797004
-834.35071 879.55768 2705.8201 5862797
-820.21735 881.65186 2712.2625 5862797
-802.71021 880.13092 2707.5835 5928332
-782.04706 875.01636 2691.8496 5993868
-768.12628 877.38983 2699.1509 5993868
-752.02783 877.32391 2698.9482 5993868
-736.4649 877.89349 2700.7004 5993868
-720.79559 878.35889 2702.1321 5993868
-705.57623 879.40631 2705.3542 5993869
-689.07343 878.86554 2703.6909 6059662
-673.34827 879.31451 2705.072 6059918
-658.39648 880.82007 2709.7036 5993868
-642.12885 880.59662 2709.0164 6125454
-628.35913 883.87543 2719.1028 5993869
-612.82416 884.77863 2721.8813 5928076
-598.34357 887.29431 2729.6206 6191246
-584.69794 891.22296 2741.7065 6191247
-570.74384 894.89325 2752.9976 6322833
-556.22955 897.87598 2762.1733 6257299
-539.37036 897.13965 2759.9082 6322835
-524.90387 900.46191 2770.1284 6322835
-510.2005 903.57971 2779.72 6257043
-494.50003 905.08118 2784.3391 6257042
-478.3479 905.8313 2786.6467 6125454
-464.06546 910.30298 2800.4031 6125711
-449.05612 913.62817 2810.6326 6125455
-433.93567 916.97577 2820.9309 6257040
-419.45142 921.9906 2836.3584 6125711
-405.10489 927.74103 2854.0483 6125455
-388.11343 927.672 2853.8362 6059662
-370.27316 925.4751 2847.0779 5664903
-355.64005 931.46796 2865.5137 6191247
-340.47028 936.5871 2881.2622 6125711
-322.85425 935.16296 2876.8809 6125711
-306.28476 936.78027 2881.8564 6125454
-289.16443 936.80469 2881.9314 6257040
-271.30447 934.28516 2874.1807 6191504
-256.75476 943.59235 2902.8127 6125711
-239.39285 943.16113 2901.4858 6191247
-222.27882 943.71515 2903.1904 6191247
-205.02419 943.71515 2903.1904 6125711
-188.49088 947.3407 2914.3438 6125711
-170.7605 945.07465 2907.3728 6191247
-153.6853 946.33289 2911.2434 6191248
-136.38278 946.33289 2911.2434 6322833
-119.30196 948.09473 2916.6636 6257040
-102.43682 952.46112 2930.0959 6191504
-85.219833 954.67456 2936.9053 6191247
-68.00592 958.07153 2947.3557 6257040
-50.495544 958.20007 2947.751 6191247
-33.012966 959.27295 2951.0515 6257040
-15.51243 961.66467 2958.4094 6191504
2.0640893 958.72577 2949.3682 6191504
19.574472 957.80939 2946.5491 6191247
37.063202 957.19922 2944.6719 6125711
54.62289 958.22516 2947.8281 6059661
72.184471 958.77802 2949.5288 5993868
90.13916 963.31592 2963.489 5993868
108.247 967.7395 2977.0977 5993868
126.70306 973.59589 2995.1138 5993868
144.2132 971.63623 2989.0852 6059661
162.15894 972.71942 2992.4175 6125454
180.21935 974.20837 2996.998 6125454
196.72023 967.75745 2977.1526 6125454
214.10561 966.36334 2972.864 5928075
231.81787 966.5448 2973.4221 5928332
250.57307 970.74091 2986.3308 5928332
268.31308 970.70905 2986.2329 6059661
285.59152 969.11493 2981.3289 5994125
302.87363 967.71881 2977.0339 5928075
322.00696 972.06519 2990.4048 6191504
340.22525 973.33917 2994.324 6257295
362.0603 984.31921 3028.1023 6322317
375.20752 971.75842 2989.4612 2767430
392.84256 971.43115 2988.4543 1040
407.80777 964.8158 2968.103 397598
425.04398 963.89899 2965.2827 6257294
445.99994 971.15485 2987.6042 6191760
462.46875 968.45868 2979.3098 6322833
482.03763 972.21368 2990.8616 6388626
500.8038 974.14026 2996.7883 5796231
516.17029 969.54865 2982.6631 2571345
539.62909 979.95764 3014.6846 4545133
555.08508 975.63153 3001.376 5203321
574.12952 977.68561 3007.6951 5071994
589.64374 973.78558 2995.6973 6256525
606.104 971.63068 2989.0681 6190989
627.91315 977.92902 3008.4438 6190989
646.72314 979.33716 3012.7756 6190989
664.48364 979.12262 3012.116 6190989
682.50861 979.29907 3012.6587 6191246
700.62122 979.58899 3013.5505 6256782
718.43182 979.45264 3013.1311 6191246
739.82129 984.08356 3027.3772 6190989
756.04309 981.78375 3020.3025 6190990
772.52667 979.92273 3014.5774 6256526
793.21277 983.35602 3025.1392 6256526
816.57092 989.87628 3045.1978 6190735
834.40674 989.56451 3044.2388 6124941
852.25299 989.27832 3043.3582 6190734
865.55939 983.84351 3026.6389 6190734
893.67224 995.11725 3061.3208 6256784
912.66095 995.98407 3063.9873 6190991
931.59045 996.75348 3066.3542 6256527
949.79669 996.73444 3066.2957 6190735
972.6507 1001.5016 3080.9614 6124942
988.5481 999.06226 3073.457 6059148
1010.0725 1002.295 3083.4019 5927819
1031.1265 1004.9539 3091.5815 5862025
1050.4509 1005.8638 3094.3806 5664646
1072.0551 1008.8876 3103.6831 5269633
1095.028 1013.0754 3116.5662 5862026
1114.3761 1013.8263 3118.8762 6059405
1140.4456 1020.5672 3139.6138 6124941
1161.1655 1022.3812 3145.1941 6124941
1178.3976 1021.1153 3141.2998 6124942
1195.6602 1019.915 3137.6072 5927562
1214.4531 1020.0368 3137.9817 5927562
1225.3605 1013.6319 3118.2783 5927819
1253.1444 1021.1703 3141.469 6125198
1275.5006 1024.1294 3150.572 6190734
1285.3042 1017.0698 3128.8545 6124941
1306.7117 1019.2629 3135.6013 6059405
1324.6406 1018.7193 3133.9287 6124941
1337.5227 1014.3632 3120.5278 6256012
1355.8844 1014.225 3120.1028 6190219
1374.0391 1013.9379 3119.2195 6124426
1382.6077 1006.6786 3096.8877 5861254
1407.7245 1011.5007 3111.7219 5598083
1430.6782 1014.6635 3121.4519 5861767
1447.7103 1013.5996 3118.1787 5993097
1468.015 1014.8248 3121.9478 6059403
1487.0336 1015.1413 3122.9216 6059404
1510.2317 1018.2681 3132.5408 6256527
1532.8784 1020.9515 3140.7959 6190734
1532.1254 1008.1729 3101.4844 6125198
1557.7606 1012.8557 3115.8901 6256270
1587.4485 1020.0324 3137.9685 6321806
1605.6615 1019.7548 3137.1145 6321806
1617.1262 1015.2471 3123.2471 6256014
1632.9548 1013.5501 3118.0266 6256013
1652.402 1014.1121 3119.7554 6256013
1669.5764 1013.2822 3117.2024 6190477
1694.558 1017.1569 3129.1221 6124427
1712.3839 1016.6987 3127.7129 6190220
1708.8296 1003.6927 3087.7017 6321806
1738.7125 1010.3939 3108.3169 6321806
1747.0702 1004.577 3090.4224 6387599
1756.4186 999.44495 3074.6343 6321806
1774.4707 999.32025 3074.2507 6322063
1787.9309 996.63837 3066.0002 6321806
1794.9231 990.44153 3046.9368 6256269
1806.7042 986.98474 3036.3025 6256012
1816.6287 982.59204 3022.7891 6190476
1839.7935 985.37677 3031.3557 6190220
1855.115 983.94739 3026.9585 6124426
1863.7216 979.01807 3011.7942 6058633
1880.1279 978.24084 3009.4033 6058889
1878.8411 968.35919 2979.0039 6190475
1894.5515 967.3407 2975.8706 6190220
1914.8278 968.6507 2979.9006 6321806
1928.3103 966.53143 2973.3811 6321806
1945.6708 966.37671 2972.9053 6256013
1959.6249 964.54834 2967.2803 6256013
1972.8477 962.39563 2960.658 6322063
1988.8185 961.60974 2958.2402 6321806
2004.2078 960.55896 2955.0076 6322063
2019.925 959.68219 2952.3105 6387600
2036.0121 958.99475 2950.1956 6256015
2051.0476 957.82788 2946.606 6321552
2068.8647 957.96893 2947.0398 6321552
2090.1182 959.6853 2952.3201 6256016
2108.9688 960.27905 2954.1465 6255759
2126.4253 960.23346 2954.0063 6255760
2139.3391 958.15393 2947.6091 6321552
2157.3623 958.37811 2948.2986 6321552
2173.1355 957.60712 2945.927 6321552
2188.1121 956.50031 2942.5217 6255760
2205.5349 956.4718 2942.4341 6321809
2227.1384 958.24255 2947.8816 6321552
2246.9663 959.22784 2950.9126 6387345
2265.332 959.57831 2951.9907 6387345
2292.5103 963.62756 2964.4478 6387346
2321.9651 968.5647 2979.6362 6321553
2354.5576 974.72614 2998.5908 6321552
2369.2336 973.43384 2994.615 6387345
2401.9983 979.53717 3013.3911 6453138
2420.9783 979.9704 3014.7239 6321552
2447.6567 983.4906 3025.5532 6321552
2468.8367 984.76617 3029.4775 6321553
2492.6272 987.05719 3036.5251 6321552
2518.8379 990.26666 3046.3987 6321552
2545.5337 993.61963 3056.7136 6321809
2571.9814 996.82898 3066.5867 6256016
2592.9204 997.87311 3069.7988 6321553
2616.5195 999.91931 3076.0935 6321552
2652.5256 1006.6456 3096.7859 6321809
2668.7402 1005.8199 3094.2458 6321552
2696.9912 1009.5109 3105.6008 6321552
2732.3926 1015.8101 3124.979 6321552
2765.4414 1021.1553 3141.4229 6255760
2781.4512 1020.1794 3138.4207 6387347
2814.5913 1025.4576 3154.6584 6387603
2834.5393 1025.8915 3155.9932 6387345
2854.2502 1026.2345 3157.0481 6321553
2882.0291 1029.4547 3166.9548 6321809
2891.9963 1026.3123 3157.2876 6452881
2921.7163 1030.175 3169.1707 6321552
2933.9502 1027.8623 3162.0557 6255248
2953.1968 1028.0201 3162.5413 6255503
2972.8027 1028.3002 3163.4028 6255502
3003.0247 1032.226 3175.4797 6255502
3010.833 1028.4463 3163.8525 6255504
3039.0547 1031.6433 3173.6875 6255248
3052.3765 1029.7742 3167.9375 6321041
3065.2249 1027.7692 3161.7693 6321552
0 0 0 0
0 0 0 0
0 0 0 0
0 0 0 0
0 0 0 0
0 0 0 0
0 0 0 0
0 0 0 0
0 0 0 0
-2229.8064 845.47571 2554.2708 5072508
-2231.4854 851.91229 2573.7161 5138557
-2240.1973 861.1413 2601.5979 5533316
-2216.45 857.93427 2591.9092 5796488
-2193.8003 855.11029 2583.3777 5993866
-2196.6702 862.26361 2604.9888 6059403
-2182.824 862.91046 2606.9429 6190989
-2170.0762 864.00385 2610.2458 6059403
-2146.2275 860.66144 2600.1482 5862280
-2141.7412 865.09125 2613.5312 5928074
-2126.5393 865.22601 2613.9385 5730183
-2108.5393 864.21594 2610.8867 5467011
-2089.53 862.77411 2606.531 5335425
-2074.0386 862.77411 2606.531 5335426
-2054.2175 860.95953 2601.0488 5467012
-2034.9498 859.35114 2596.1897 5664647
-2017.4818 858.48395 2593.5698 5795976
-1998.979 857.15967 2589.5691 5927562
-1981.2783 856.1615 2586.5535 6059148
-1965.9056 856.1615 2586.5535 5993612
-1955.7861 858.46741 2593.5198 5993355
-1941.3378 858.89459 2594.8105 5993355
-1926.2322 859.03577 2595.2368 6059148
-1913.9387 860.4433 2599.4893 6124941
-1900.9694 861.56744 2602.8855 6124941
-1883.6428 860.71899 2600.3223 6124941
-1866.4789 859.93146 2597.9429 5993612
-1852.8744 860.78442 2600.5198 6059918
-1837.3478 860.75116 2600.4194 6059661
-1820.8423 860.25494 2598.9204 6059661
-1810.0717 862.48291 2605.6511 6125454
-1795.3717 862.86084 2606.793 6059662
-1776.9784 861.45477 2602.5452 6059662
-1770.6312 865.91528 2616.0208 5994127
-1757.8757 867.29303 2620.1829 5993871
-1736.8257 864.56641 2611.9456 5993870
-1721.3552 864.59308 2612.0261 5993870
-1707.3278 865.35175 2614.3181 5928334
-1695.4185 867.20776 2619.9253 5993868
-1678.9413 866.73993 2618.512 5928075
-1661.9879 866.01526 2616.3228 5862539
-1644.6517 865.07556 2613.4839 5862539
-1630.2307 865.66602 2615.2676 5862539
-1613.4972 865.02802 2613.3403 5862283
-1586.9908 859.08722 2595.3923 5928075
-1579.2275 863.2757 2608.0461 5928075
-1563.3693 863.07806 2607.4492 5862282
-1545.7225 861.87946 2603.8281 5928075
-1529.4957 861.4563 2602.5496 5928076
-1509.9148 859.11597 2595.4792 5994125
-1495.6851 859.80353 2597.5564 6059661
-1475.1909 856.86682 2588.6843 5994125
-1459.3923 856.62433 2587.9517 5928332
-1442.7202 855.85846 2585.6379 5862539
-1422.9188 853.19977 2577.6057 5928077
-1410.3176 854.84747 2582.5837 5862284
-1397.1102 856.15991 2586.5488 5928334
-1378.7396 854.30243 2580.937 5993870
-1361.7573 853.27295 2577.8269 6059663
-1345.8019 852.87085 2576.6121 6125713
-1333.3 854.67322 2582.0574 6059920
-1314.516 852.44385 2575.322 6125456
-1302.4813 854.59033 2581.8066 6059920
-1288.7086 855.63385 2584.9595 6059663
-1275.8492 857.31635 2590.0425 6059663
-1264.295 859.9278 2597.9319 6125456
-1247.6854 859.12268 2595.4995 6125456
-1233.0065 859.64355 2597.073 6059920
-1219.4987 861.00427 2601.1841 6059663
-1206.882 863.03741 2607.3262 6059920
-1195.2041 865.80347 2615.6829 6191249
-1181.678 867.28577 2620.1611 6257042
-1170.2125 870.34045 2629.3896 6257042
-1157.6771 872.67126 2636.4312 6191506
-1145.8633 875.61731 2645.3315 6191506
-1132.6683 877.57526 2651.2468 6257042
-1118.705 878.9848 2655.5051 6257042
-1105.4791 881.02252 2661.6611 6191249
-1090.4026 881.62286 2663.4749 6059663
-1076.202 882.95966 2667.5137 5993870
-1060.5496 883.12756 2668.0208 5862284
-1045.783 884.04926 2670.8052 5862541
-1030.4685 884.52905 2672.2549 5928077
-1013.3785 883.47607 2669.0737 5796491
-996.84723 882.88434 2667.2861 5862284
-982.60126 884.33032 2671.6545 5928334
-965.73328 883.42529 2668.9202 6059663
-950.11047 883.64795 2669.593 6125713
-935.13434 884.48999 2672.1367 6191249
-916.88019 882.20697 2665.2397 6322835
-899.11078 880.31842 2659.5339 6126226
-883.41199 880.42566 2659.8582 6191762
-870.44983 883.31403 2668.5842 6191762
-850.9173 879.51837 2657.1172 5994383
-834.57947 878.94373 2655.3809 5862795
-818.79755 878.94373 2655.3809 5928589
-804.61475 880.69397 2660.6687 5994638
-788.55139 880.41473 2659.825 6059918
-771.97101 879.53497 2657.1672 5993868
-757.88367 881.51831 2663.1589 5928332
-742.70087 882.28473 2665.4746 5994125
-727.1073 882.58618 2666.3853 6059662
-710.43829 881.56641 2663.3044 6125454
-695.02386 882.09247 2664.8938 6125454
-679.83698 882.93866 2667.4502 6125455
-664.62238 883.78839 2670.0171 6125454
-649.38605 884.64996 2672.6201 6059661
-635.9726 888.1004 2683.0442 6059661
-621.21796 889.80725 2688.2007 5862539
-605.46716 890.13971 2689.2051 5928076
-590.07922 891.03796 2691.9189 6191247
-574.81055 892.17157 2695.3438 6257297
-561.50159 896.49908 2708.4175 6323092
-547.53387 899.99915 2718.9915 6323091
-533.28522 903.23621 2728.7712 6322836
-516.61151 902.44025 2726.3665 6323092
-503.59067 908.18024 2743.7075 6257298
-489.50974 912.32867 2756.2405 6257042
-474.05655 914.11841 2761.6475 6191249
-458.24133 915.31329 2765.2571 6191249
-444.27405 920.4256 2780.7019 6257043
-429.32373 923.81757 2790.9495 6322835
-416.06427 931.26678 2813.4543 6059918
-399.93579 932.64929 2817.6311 5401732
-383.51602 933.44366 2820.031 4349043
-367.27655 934.76959 2824.0366 5928075
-352.37906 939.80151 2839.2388 6323090
-336.39124 942.28546 2846.7429 6191504
-319.27896 941.71582 2845.0222 6059661
-302.50305 942.13019 2846.2739 5862283
-284.98001 940.12891 2840.2278 6059662
-269.16916 943.8797 2851.5593 6191247
-252.21986 943.87402 2851.5422 6191247
-235.92082 946.47638 2859.4041 6191247
-219.13588 947.38208 2862.1404 6125454
-202.12968 947.40308 2862.2039 6125454
-185.54517 949.58606 2868.7988 6191247
-168.5977 950.16541 2870.5491 6125454
-151.32028 948.80627 2866.4429 5862282
-134.02071 946.9458 2860.8223 5993869
-117.22392 948.61328 2865.8601 6125454
-100.79118 954.29468 2883.0242 6125455
-83.804283 955.98193 2888.1213 6059918
-66.933517 960.20441 2900.8779 6125454
-49.664368 959.65881 2899.2297 6191248
-32.443806 959.97131 2900.1738 6125454
-15.196486 959.30304 2898.1548 6125711
2.0265989 958.52295 2895.7983 6125711
19.22086 957.70245 2893.3193 6125711
36.463894 958.93958 2897.0569 6059661
53.815189 961.31689 2904.239 6059661
71.155121 962.38586 2907.4685 6059661
88.873123 967.15143 2921.8657 6125454
107.0471 974.51013 2944.0972 6125711
124.66889 975.48035 2947.0283 6125711
142.05135 974.56964 2944.2769 6125454
159.79922 976.09076 2948.8723 6125454
176.938 973.95837 2942.4302 6125454
194.19957 972.82471 2939.0051 6125454
212.06755 974.66522 2944.5657 6191247
229.5742 974.6911 2944.6438 6059661
247.629 976.87555 2951.2434 5993868
265.27682 977.27179 2952.4404 6125454
282.74069 976.98328 2951.5688 6125454
300.10742 976.41248 2949.8442 5993868
317.44974 975.82947 2948.083 6059918
336.52853 980.36627 2961.7891 6191247
354.63657 981.76459 2966.0137 6190989
370.38571 976.80945 2951.0435 6256524
389.30612 980.28772 2961.5518 6717331
407.20047 980.9931 2963.6829 6520210
423.49136 977.93738 2954.4512 6125196
440.30811 976.29089 2949.4768 6191759
456.5459 973.53577 2941.1536 6191248
473.98834 973.45813 2940.9189 6257297
491.59222 973.70569 2941.6667 6388367
517.78687 990.36768 2992.0044 1384236
536.94434 992.91034 2999.686 528665
548.29089 981.30975 2964.6394 2701127
562.86487 976.02808 2948.6829 6059402
583.88214 981.90082 2966.4253 6256784
601.37561 981.67725 2965.7495 6257038
618.52594 980.92206 2963.4683 6125452
637.01807 982.27777 2967.564 5993610
654.6767 982.30981 2967.6609 6125196
672.6684 982.82697 2969.2231 6190989
690.35229 982.87927 2969.3811 6125196
710.93994 986.96021 2981.71 6125452
728.83337 987.19324 2982.4141 6190989
747.15082 987.97595 2984.7788 5664902
767.65295 991.54431 2995.5591 5467266
782.60065 987.9389 2984.667 5795976
800.35406 987.95685 2984.7209 5993354
814.83258 984.01917 2972.825 6190734
840.72845 993.74396 3002.2046 6190734
859.57587 994.90625 3005.7161 5993356
875.08484 992.23596 2997.6487 5993355
896.59064 996.33618 3010.0359 6124171
916.28699 998.30457 3015.9827 5203326
934.90924 999.04962 3018.2334 2371653
953.43182 999.66217 3020.084 4215918
972.11511 1000.4174 3022.3657 5268861
999.1662 1009.6005 3050.1086 5334911
1015.6023 1007.9216 3045.0364 5203324
1032.2816 1006.5385 3040.8579 5203324
1060.5283 1016.2879 3070.3123 5203839
1075.6876 1013.3783 3061.5217 6059148
1105.8468 1024.4612 3095.0046 6190734
1126.5992 1026.6096 3101.4954 6256527
1146.6106 1028.0247 3105.77 6256784
1164.2677 1027.3173 3103.6331 5993355
1183.4696 1027.9739 3105.6169 5927562
1200.4076 1026.6742 3101.6902 6190734
1220.756 1028.2864 3106.5608 6125198
1238.6421 1027.8074 3105.1138 6256527
1260.7128 1030.7639 3114.0454 6256527
1273.1949 1025.9084 3099.3767 6125198
1287.5079 1022.6458 3089.5198 6190734
1301.009 1018.839 3078.0193 6124941
1318.0454 1017.868 3075.0859 5927562
1337.6055 1018.8459 3078.04 5862025
1357.3093 1019.9054 3081.241 5862281
1367.8451 1014.1393 3063.821 5795719
1391.5266 1018.1432 3075.917 5796232
1408.2985 1017.053 3072.6238 6059148
1428.8021 1018.6516 3077.4529 6125196
1448.5714 1019.6926 3080.5981 6190734
1464.4792 1018.0234 3075.5552 6190734
1487.1722 1021.054 3084.7107 6190734
1503.3613 1019.5995 3080.3169 6190734
1512.4438 1013.4183 3061.6428 6190991
1533.8724 1015.5584 3068.1082 6190734
1552.8096 1016.0179 3069.4963 6322320
1573.0334 1017.299 3073.3665 6453649
1589.3824 1016.0733 3069.6638 6453136
1605.5305 1014.7487 3065.6619 6453392
1621.973 1013.6376 3062.3052 6387599
1638.5951 1012.6622 3059.3584 6322063
1654.0996 1011.0251 3054.4126 6387599
1673.5549 1011.8123 3056.7908 6387856
1688.1527 1009.6772 3050.3406 6453392
1705.9875 1009.5031 3049.8142 6387599
1719.8303 1006.9951 3042.2373 6387599
1722.3881 998.00037 3015.0635 6321806
1733.3945 994.03595 3003.0867 6256270
1746.0245 991.07391 2994.1382 6322064
1764.9476 991.70764 2996.0525 6322064
1775.5868 987.72058 2984.0073 6256527
1790.7681 986.31409 2979.7581 6387599
1800.9417 982.20398 2967.3408 6387599
1815.9932 980.80811 2963.124 6387599
1827.655 977.62598 2953.5105 6453393
1843.688 976.82019 2951.0762 6453649
1853.0476 972.52734 2938.1069 6453392
1872.4131 973.51703 2941.0967 6387856
1887.2811 972.17151 2937.0317 6453392
1902.0011 970.77509 2932.8132 6387599
1918.7065 970.40826 2931.7051 6321807
1933.7501 969.21515 2928.1003 6387599
1949.073 968.18201 2924.9792 6387600
1960.8619 965.42731 2916.6567 6453392
1977.6354 965.15332 2915.8291 6453392
1990.8274 963.15155 2909.7815 6453392
2009.3411 963.73657 2911.5491 6453393
2025.3074 963.10028 2909.6267 6453139
2042.3948 963.00336 2909.334 6453138
2057.3306 961.90216 2906.0071 6387346
2076.1816 962.63458 2908.2197 6518931
2092.0537 961.98505 2906.2576 6453395
2110.5447 962.54059 2907.9358 6519188
2125.8354 961.6394 2905.2134 6453139
2142.9241 961.55945 2904.9719 6518931
2162.8936 962.76331 2908.6086 6518931
2180.8003 963.03693 2909.4355 6453138
2194.3137 961.38165 2904.4346 6387602
2212.656 961.85126 2905.8533 6387345
2232.1387 962.80536 2908.7358 6387602
2254.9465 965.16821 2915.874 6453138
2281.98 969.28979 2928.3259 6453139
2307.6438 972.77167 2938.845 6453395
2327.7104 973.8595 2942.1313 6519188
2344.3018 973.48779 2941.0085 6518931
2367.637 975.90149 2948.3005 6518931
2385.5852 976.07562 2948.8267 6387602
2406.3728 977.40033 2952.8289 6453138
2430.4355 980.02667 2960.7632 6453139
2447.417 979.78027 2960.0188 6387345
2470.8994 982.12152 2967.0918 6321809
2523.2095 995.80652 3008.4358 6387345
2532.7122 992.52356 2998.5176 6321553
2568.1372 999.3739 3019.2131 6321552
2592.2947 1001.775 3026.467 6321552
2615.8323 1003.9051 3032.9023 6321552
2648.6064 1009.5266 3049.8853 6321553
2670.281 1010.8698 3053.9431 6321809
2689.7554 1011.3674 3055.4468 6321552
2717.0625 1014.784 3065.7686 6256016
2736.5225 1015.2436 3067.157 6255759
2761.564 1017.7543 3074.7422 6124430
2778.9077 1017.4135 3073.7129 6256016
2801.49 1018.9827 3078.4534 6255760
2828.8818 1022.2697 3088.3835 6255502
2870.8035 1030.7308 3113.9456 6123916
2877.5864 1026.5482 3101.3098 6057610
2888.3008 1023.8126 3093.0449 5794438
2922.7581 1029.4745 3110.1499 6057866
2942.9355 1030.0668 3111.9397 6057867
2963.8713 1030.9156 3114.5042 6058380
2970.4465 1026.79 3102.0403 6058636
2976.6736 1022.5957 3089.3684 6189966
2985.0144 1019.1744 3079.0325 6189966
0 0 0 0
0 0 0 0
0 0 0 0
0 0 0 0
0 0 0 0
0 0 0 0
0 0 0 0
0 0 0 0
0 0 0 0
-2211.1772 853.46619 2532.9307 4545651
-2207.1145 857.73779 2545.6079 5533059
-2166.9802 847.95306 2516.5688 5401473
-2187.7854 862.04431 2558.3889 3427940
-2174.8538 862.94647 2561.0664 5927817
-2165.4692 865.27875 2567.9883 5928073
-2149.9734 865.18481 2567.7095 5927818
-2139.439 867.10034 2573.3943 5862025
-2127.2776 868.37946 2577.1904 5927561
-2111.292 868.10455 2576.3748 5796231
-2091.4841 866.24261 2570.8489 5532805
-2071.4392 864.25427 2564.9478 5467012
-2060.4292 866.03406 2570.2297 5533061
-2047.0107 866.8205 2572.564 5664390
-2027.6002 865.06238 2567.3462 5730183
-2001.172 860.2608 2553.0959 5795976
-1985.189 859.91034 2552.0559 5796233
-1972.5707 861.02325 2555.3586 5796233
-1957.7798 861.19763 2555.8762 5927562
-1942.8105 861.29572 2556.1672 5862026
-1928.4342 861.66022 2557.249 5927820
-1914.3157 862.14673 2558.6929 5993357
-1899.9563 862.53156 2559.835 5993613
-1887.3563 863.72772 2563.3853 6059150
-1871.5684 863.47272 2562.6284 6059151
-1855.386 863.03003 2561.3145 6124944
-1838.0879 862.05676 2558.4258 6059661
-1826.9622 863.98608 2564.1519 6191247
-1810.4501 863.37921 2562.3508 6125454
-1796.3314 863.91321 2563.9355 6125454
-1783.1903 864.93054 2566.9548 6059664
-1767.7617 864.84619 2566.7046 6125456
-1753.9097 865.53851 2568.759 6059663
-1742.9432 867.67944 2575.113 5993870
-1727.0562 867.38696 2574.2451 6059663
-1710.5718 866.7865 2572.4631 6059663
-1692.8903 865.56342 2568.833 5928333
-1683.5984 868.64642 2577.9829 5928075
-1670.6909 869.90363 2581.7139 5928075
-1653.942 869.16534 2579.5229 5862282
-1635.1 867.30292 2573.9956 5862283
-1623.0231 869.02771 2579.1145 5730697
-1603.7006 866.86877 2572.7073 5796489
-1588.3849 866.85504 2572.6665 5862283
-1574.0872 867.40192 2574.2896 5928075
-1558.6707 867.33704 2574.0969 5993868
-1542.7501 866.98755 2573.0598 5993868
-1525.715 865.99854 2570.1245 6059918
-1508.6027 864.94531 2566.9985 6059661
-1493.6799 865.13861 2567.5723 5993868
-1473.4507 862.23065 2558.9421 5928075
-1454.3402 859.92365 2552.0952 5862282
-1441.2615 861.172 2555.8 5730697
-1423.8473 859.82892 2551.814 5730953
-1404.3468 857.18329 2543.9624 5862283
-1389.015 857.05243 2543.574 5928078
-1373.2832 856.66919 2542.4365 6059663
-1356.6185 855.6889 2539.5273 6125456
-1342.7466 856.46796 2541.8394 6059663
-1327.7911 856.56573 2542.1296 6125713
-1315.6908 858.52881 2547.9556 6125456
-1297.9565 856.81842 2542.8796 6125456
-1282.0232 856.27069 2541.2539 6059920
-1271.8673 859.61469 2551.1782 6125713
-1257.4314 860.11169 2552.6533 6059920
-1247.9711 864.06586 2564.3887 6125456
-1231.5883 863.26544 2562.0132 6059663
-1218.0686 864.47717 2565.6094 6059663
-1203.4758 864.94836 2567.0076 5993870
-1190.842 866.85754 2572.6738 6059920
-1176.2902 867.4021 2574.29 6191249
-1165.6383 870.87482 2584.5962 6191249
-1154.4557 874.03821 2593.9849 6191249
-1143.8293 877.71436 2604.8948 6191249
-1128.1798 877.58392 2604.5076 6191506
-1115.6252 879.89075 2611.354 6191249
-1100.0813 879.8717 2611.2976 6125457
-1088.0791 882.72546 2619.7668 5993870
-1073.7039 883.70898 2622.6858 5862284
-1056.2262 882.13037 2618.0007 5796491
-1046.0325 886.67889 2631.5 5928077
-1030.657 886.90643 2632.1753 5928077
-1012.0025 884.27582 2624.3682 5928077
-999.737 887.23291 2633.1443 5928077
-982.60181 885.89362 2629.1694 5928334
-968.60468 887.38599 2633.5984 6059663
-950.73627 885.32245 2627.4741 6125456
-936.61322 886.73584 2631.6689 6191249
-919.72595 885.53583 2628.1074 6191249
-904.14575 885.57452 2628.2224 6125457
-886.75311 883.80817 2622.9802 6125969
-871.72229 884.37482 2624.6619 6060433
-853.55054 881.71741 2616.7751 6060433
-839.86157 883.67816 2622.5942 6060176
-823.81714 883.18762 2621.1387 5994384
-809.14648 884.17944 2624.082 5928847
-795.40887 886.25006 2630.2271 5928590
-775.12512 880.96338 2614.5374 5994127
-760.80011 882.37146 2618.7163 5994126
-746.82904 884.25745 2624.3135 6059663
-731.89758 885.06256 2626.7029 5862282
-716.14575 884.88904 2626.188 6059661
-700.20569 884.47003 2624.9443 6191504
-685.78491 885.99475 2629.4695 6191247
-671.94934 888.3642 2636.5017 6191247
-656.72296 888.96429 2638.2825 6125454
-640.60303 888.35443 2636.4727 5994125
-624.49084 887.7251 2634.605 6059661
-611.40747 891.47974 2645.7478 6059918
-596.94159 893.3634 2651.3384 6257040
-582.4455 895.30298 2657.0945 6191250
-567.09827 896.00568 2659.1802 6257299
-553.44672 899.50464 2669.5645 6388628
-539.21686 902.24268 2677.6902 6322836
-523.82251 903.13928 2680.3513 6322836
-508.34821 903.95007 2682.7576 6257043
-495.32434 909.31189 2698.6704 6257299
-480.85645 912.29285 2707.5173 6257043
-466.7619 916.21307 2719.1519 6191505
-451.88272 918.81909 2726.8862 6257040
-439.09338 926.02643 2748.2761 6125711
-423.04892 926.66052 2750.158 5664903
-408.22449 930.12549 2760.4414 5270146
-395.92572 939.8761 2789.3794 5138816
-375.5932 930.5744 2761.7737 5204352
-363.11057 940.76038 2792.0039 6059661
-349.396 948.57733 2815.2031 6257040
-333.02798 949.61444 2818.281 6322833
-315.5806 947.52057 2812.0669 5993868
-298.06839 944.98712 2804.5479 5862539
-280.26498 941.17548 2793.2358 6059661
-265.86633 949.03766 2816.5693 6125711
-247.92557 944.46277 2802.9919 6257040
-231.62617 945.93201 2807.3523 6191247
-215.46359 948.23145 2814.1765 6191247
-199.10146 949.96558 2819.3232 6125711
-182.38931 950.19525 2820.0046 6125454
-166.07272 952.74054 2827.5588 5993869
-148.74144 949.38251 2817.5925 5862539
-132.95248 956.26544 2838.02 5928075
-116.24522 957.58392 2841.9331 5796490
-99.49559 958.94257 2845.9651 5928332
-82.63974 959.62415 2847.988 6125454
-65.950073 963.08374 2858.2556 6125454
-48.893326 961.72375 2854.2192 6257040
-32.045715 965.21753 2864.5881 6191247
-15.007303 964.37085 2862.0754 6257041
2.0012941 963.55042 2859.6404 6191504
18.999203 963.65588 2859.9534 6257040
36.179363 968.54065 2874.4507 6191247
53.19883 967.36981 2870.9758 6191247
70.238564 967.04675 2870.0171 6257040
87.674164 971.23535 2882.4478 6191504
104.86358 971.77313 2884.0439 6257040
122.18406 973.2038 2888.2898 6191504
139.15199 971.8197 2884.1824 6191247
157.01556 976.30823 2897.5034 6191247
173.88387 974.33282 2891.6406 6191247
191.17644 974.87616 2893.2532 6191247
208.9545 977.6012 2901.3406 5993869
226.19817 977.6012 2901.3406 5994125
243.81841 979.1134 2905.8286 6059661
259.62204 973.61316 2889.5046 6191247
277.86209 977.36536 2900.6406 6125454
294.95126 976.86731 2899.1626 6125454
312.96317 979.31189 2906.4175 6059661
330.73636 980.7926 2910.812 6125454
348.97653 983.4422 2918.6755 6190989
366.30621 983.39655 2918.54 6256783
383.8844 983.992 2920.3074 6190989
400.94876 983.27582 2918.1819 6190989
418.19214 983.03986 2917.4814 6060172
435.27234 982.45435 2915.7437 6125710
449.97964 976.76282 2898.8525 6191247
468.95758 980.41949 2909.7048 6191247
486.52884 980.9798 2911.3677 6125453
504.45975 982.20184 2914.9944 5928074
536.96057 1010.769 2999.7764 5928074
540.11932 984.04175 2920.4551 5862025
560.92566 990.13007 2938.5239 5927818
577.23315 988.14917 2932.645 6059404
594.14893 987.29498 2930.1101 6125197
609.66199 984.22528 2920.9995 6059405
630.49219 989.67151 2937.1631 6059405
647.26025 988.61987 2934.042 6124942
666.40222 991.15424 2941.5635 6190990
683.26575 990.25684 2938.9001 6190989
701.67737 991.59186 2942.8623 6190733
719.46814 992.00592 2944.0913 6059149
734.03937 988.06671 2932.4001 5927819
756.18378 994.26764 2950.8035 5730440
771.8623 991.8786 2943.7134 5730183
790.14227 992.86438 2946.6389 5795976
806.10931 990.96399 2940.999 5598854
827.43646 995.59375 2954.7393 6059148
842.1629 992.25397 2944.8274 6190734
865.01941 998.4342 2963.1692 6190734
882.0094 997.73151 2961.0837 5927817
902.13519 1000.5342 2969.4016 5795970
921.62817 1002.5411 2975.3574 3228243
943.11182 1006.5969 2987.3943 3292488
957.11188 1002.6631 2975.7197 3029061
977.54846 1005.4926 2984.1172 2041909
996.3725 1006.5921 2987.3804 5729402
1021.8021 1014.2097 3009.9878 783
1042.8081 1017.2499 3019.0107 5664128
1072.3018 1028.3268 3051.885 5533059
1090.0341 1027.944 3050.7485 6190734
1113.2979 1032.7045 3064.877 6190991
1130.5084 1031.7872 3062.1548 6256527
1148.4454 1031.5515 3061.4553 6124942
1165.6287 1030.6566 3058.7993 6059405
1186.8812 1033.3322 3066.7397 6190734
1203.2433 1031.7333 3061.9946 6124941
1220.0028 1030.5178 3058.3872 6256527
1242.5475 1034.1528 3069.1755 6256527
1254.5593 1029.0433 3054.0115 6190991
1265.7052 1023.3793 3037.2019 6124941
1284.1573 1023.6991 3038.1506 6125198
1301.4103 1023.0671 3036.2751 6059148
1319.4012 1023.0248 3036.1494 6059148
1339.517 1024.6086 3040.8503 5993611
1361.5952 1027.6317 3049.822 5269374
1365.1589 1016.7855 3017.6323 5730439
1393.4397 1024.3914 3040.2051 5862023
1406.5865 1020.8192 3029.6035 5927817
1425.8636 1021.7301 3032.3069 5927819
1445.4517 1022.8381 3035.5955 6059148
1465.2581 1024.0715 3039.2559 6125198
1483.2173 1023.9996 3039.0425 6125198
1503.9346 1025.8107 3044.4175 6190991
1515.0665 1021.1184 3030.4917 6256527
1530.6234 1019.4837 3025.6401 6322320
1555.7867 1024.2111 3039.6702 6322577
1569.0457 1021.0829 3030.3862 6388114
1582.976 1018.4576 3022.595 6322320
1596.2075 1015.4468 3013.6594 6387856
1612.8379 1014.6411 3011.2681 6453393
1628.6758 1013.3599 3007.4658 6387856
1640.6929 1009.7551 2996.7673 6387599
1650.6948 1005.0007 2982.6572 6453392
1664.7614 1002.7959 2976.1138 6387599
1684.4128 1003.9661 2979.5867 6387599
1694.1975 999.29211 2965.7153 6387599
1705.4626 995.57892 2954.6951 6322063
1722.1177 995.05554 2953.1418 6519185
1736.1506 993.04285 2947.1687 6453392
1751.8088 991.99091 2944.0466 6387599
1766.8647 990.62195 2939.9839 6453393
1783.0037 989.88116 2937.7854 6453393
1793.0791 985.82104 2925.7356 6387600
1809.9595 985.54431 2924.9143 6519185
1818.825 980.95007 2911.2795 6519185
1836.168 980.97162 2911.3435 6519185
1848.6266 978.40765 2903.7339 6453393
1864.4788 977.67047 2901.5461 6453392
1878.5801 976.03717 2896.699 6387602
1893.1208 974.65991 2892.6113 6453138
1907.3113 973.12854 2888.0667 6453139
1920.4637 971.09973 2882.0454 6453391
1939.4962 972.05365 2884.8765 6453392
1949.9043 968.70636 2874.9424 6453393
1964.1217 967.29321 2870.7485 6519187
1980.3853 966.90356 2869.592 6584723
1996.5393 966.46747 2868.2976 6518931
2012.9977 966.18481 2867.4587 6519188
2029.8258 966.0827 2867.156 6519188
2045.7261 965.54468 2865.5591 6584725
2063.0107 965.66333 2865.9114 6519188
2080.0439 965.66333 2865.9114 6584724
2095.4111 964.8963 2863.6348 6584981
2110.5647 964.04395 2861.1052 6584725
2129.4038 964.87518 2863.5723 6584724
2146.0383 964.70239 2863.0593 6518932
2160.7188 963.66052 2859.9673 6584725
2181.4536 965.31439 2864.8755 6453139
2198.4836 965.31567 2864.8794 6518931
2224.5396 969.24957 2876.5547 6518931
2250.3315 973.00952 2887.7134 6518932
2262.385 970.81708 2881.2065 6518931
2285.6829 973.44641 2889.01 6453138
2307.6509 975.47449 2895.0291 6584724
2325.45 975.72333 2895.7673 6453395
2343.9751 976.27081 2897.3923 6453395
2372.1794 980.81238 2910.8708 6518931
2393.6245 982.51367 2915.9199 6453139
2414.2234 983.8457 2919.873 6453138
2426.5168 981.79816 2913.7964 6518931
2455.96 986.66956 2928.2539 6518931
2485.1274 991.36237 2942.1812 6387603
2505.1414 992.36353 2945.1526 6321555
2530.856 995.59338 2954.738 6387346
2556.521 998.7594 2964.1343 6321552
2584.822 1002.9049 2976.4373 6189966
2609.0496 1005.4241 2983.9141 6255759
2648.5759 1013.7651 3008.6687 6387345
2672.0681 1015.8984 3014.9995 6321552
2699.6375 1019.5428 3025.8157 6452881
2727.6873 1023.3193 3037.0234 6387088
2754.8384 1026.7113 3047.0901 6057610
2765.5544 1023.9736 3038.9653 5860487
2782.2537 1023.4724 3037.478 5794438
2800.4705 1023.5323 3037.6558 5794181
2817.2812 1023.081 3036.3162 5794180
2832.3643 1022.0118 3033.1433 5004406
2862.8267 1026.4706 3046.376 4543342
2887.7776 1028.9095 3053.6143 5135480
2897.4551 1025.9102 3044.7126 5201785
2910.9907 1024.3055 3039.9504 5465215
2923.8628 1022.4886 3034.5581 5399423
2955.5422 1027.2307 3048.6321 5531523
0 0 0 0
0 0 0 0
0 0 0 0
0 0 0 0
0 0 0 0
0 0 0 0
0 0 0 0
0 0 0 0
0 0 0 0
-2176.5317 854.91199 2493.2439 5796231
-2162.4514 855.2038 2494.0947 5862025
-2159.0708 859.76038 2507.3835 5862280
-2149.8977 862.05768 2514.0833 5927817
-2121.9468 856.80487 2498.7642 5796231
-2125.6282 864.34064 2520.7415 5730438
-2108.647 863.52179 2518.3533 5467268
-2096.1108 864.52472 2521.2781 5598597
-2085.3899 866.2959 2526.4436 5598597
-2074.1538 867.8772 2531.0554 5532804
-2058.6021 867.6629 2530.4302 5467012
-2044.8052 868.19037 2531.9685 5664390
-2032.0073 869.15289 2534.7756 5664391
-2018.2743 869.72693 2536.4497 5664391
-1999.6094 868.16833 2531.9043 5730184
-1980.067 866.20215 2526.1702 5862026
-1960.9457 864.39154 2520.8899 5927563
-1944.903 863.92072 2519.5166 5927819
-1929.4048 863.68616 2518.8325 5927819
-1914.9329 863.91107 2519.4885 6059405
-1901.8594 864.77527 2522.0088 6124941
-1885.2585 864.03662 2519.8547 6124941
-1868.198 863.07379 2517.0466 6124941
-1852.4755 862.71851 2516.0105 6125198
-1841.7064 864.68304 2521.74 6256527
-1827.9377 865.26013 2523.4229 6190734
-1815.3566 866.41327 2526.7861 6059662
-1802.1698 867.29437 2529.3557 6125454
-1788.6201 868.01422 2531.4548 6191248
-1772.2444 867.36304 2529.5557 6125712
-1756.5046 867.01477 2528.54 6059662
-1742.1956 867.37262 2529.5837 6059663
-1727.5361 867.56085 2530.1326 6059663
-1717.5756 870.13281 2537.6335 5993870
-1701.941 869.85052 2536.8101 5994127
-1690.3848 871.66589 2542.1047 5993870
-1671.2799 869.58667 2536.0408 5993871
-1654.2506 868.5592 2533.0444 5862282
-1640.2631 869.12488 2534.6938 5796746
-1624.7456 868.88257 2533.9873 5796746
-1608.8484 868.43091 2532.6699 5928075
-1596.2062 869.74426 2536.5002 5862539
-1581.0471 869.69818 2536.366 5993868
-1565.449 869.40729 2535.5176 5994125
-1550.9082 869.7038 2536.3823 6125454
-1535.3357 869.42181 2535.5601 6125711
-1517.3088 867.73065 2530.6279 6059918
-1500.7145 866.83307 2528.0103 6059661
-1484.4755 866.12469 2525.9443 5993868
-1470.1613 866.53632 2527.1448 5796489
-1453.9052 865.79993 2524.9973 5796489
-1438.6929 865.67639 2524.637 5796746
-1424.1677 865.96808 2525.4875 5862283
-1407.0603 864.67908 2521.7283 5928333
-1391.7008 864.448 2521.0544 5928077
-1373.8944 862.67548 2515.8853 5928334
-1358.934 862.67059 2515.8708 5993871
-1343.8127 862.56238 2515.5554 6059663
-1324.5471 859.76166 2507.3875 6059920
-1309.4547 859.63684 2507.0234 6059663
-1295.4398 860.22467 2508.7378 6059663
-1280.1072 859.94092 2507.9102 6059920
-1265.9219 860.43042 2509.3376 6059663
-1255.3313 863.40393 2518.0095 6059663
-1241.4917 864.18762 2520.2949 6059663
-1229.1689 866.05908 2525.7532 5993870
-1213.3768 865.50232 2524.1292 5993870
-1199.0925 866.02039 2525.6401 5928334
-1183.8959 865.88446 2525.2437 6059663
-1173.2284 869.10004 2534.6216 6059663
-1163.7178 873.26758 2546.7756 6059920
-1152.1479 875.97913 2554.6836 6125457
-1139.5154 877.9444 2560.415 6125456
-1126.5166 879.67688 2565.4675 6125456
-1113.0659 881.09918 2569.6157 6125456
-1099.6984 882.62787 2574.0737 5664905
-1087.6497 885.27313 2581.7883 5928334
-1073.5835 886.32843 2584.866 5796748
-1059.7764 887.63135 2588.6658 5862284
-1042.6521 886.15344 2584.3557 5796491
-1027.5243 886.35339 2584.939 5862541
-1014.4493 888.35724 2590.7827 5796748
-998.97479 888.28918 2590.5842 5796748
-984.71008 889.31152 2593.5657 5862284
-967.99786 888.12079 2590.0933 5928077
-952.90515 888.40155 2590.9119 6125456
-937.52783 888.42175 2590.9709 6125456
-924.30182 890.51544 2597.0769 6125713
-909.22711 890.86865 2598.1072 6125456
-894.95483 892.03406 2601.5056 6059920
-877.82239 890.33942 2596.5635 6125969
-863.7453 891.73853 2600.6438 5994384
-844.54132 887.79919 2589.1553 5994383
-828.98706 887.6214 2588.6367 5928334
-814.01801 888.07538 2589.9607 5862541
-799.8316 889.41711 2593.8738 5665675
-783.81104 888.73193 2591.8755 5731212
-769.05786 889.48517 2594.0723 5928078
-753.64044 889.48517 2594.0723 5993868
-741.34723 893.24976 2605.051 5993870
-724.58441 891.67438 2600.4568 5993871
-708.10992 890.39294 2596.7197 6059661
-689.88727 886.80725 2586.2625 6191247
-676.52997 889.45483 2593.9836 6191504
-661.04285 889.36035 2593.7083 6257040
-647.34186 891.7218 2600.5952 6191247
-632.12836 892.06439 2601.5942 5994125
-615.19324 889.93359 2595.3801 6059662
-602.0661 893.34351 2605.3247 6059918
-589.15601 897.2641 2616.7585 6125455
-574.42798 898.55353 2620.5188 6125713
-560.75714 901.61444 2629.4458 6059663
-547.01807 904.73822 2638.5559 6125457
-533.20905 907.92719 2647.856 6191249
-518.58356 909.87756 2653.5439 6191250
-504.27731 912.52802 2661.2737 6191249
-489.71515 914.87201 2668.1096 6059920
-477.52319 921.94904 2688.749 5796747
-463.65366 926.1651 2701.0447 5599110
-448.8443 928.73895 2708.5508 5533318
-435.21054 934.02722 2723.9734 5664903
-419.59106 935.29785 2727.6792 5862282
-406.0015 941.37738 2745.4092 6059661
-390.44717 943.21954 2750.7817 6257297
-374.08865 943.19519 2750.7107 6322834
-358.98242 946.47028 2760.262 6257040
-343.61343 949.33307 2768.6111 6257040
-327.05234 949.02466 2767.7117 6322833
-310.33359 948.20178 2765.312 6125711
-294.05634 948.71143 2766.7983 6125454
-277.44421 948.13708 2765.123 6059662
-261.18289 948.76465 2766.9534 6191247
-244.71576 948.67865 2766.7026 6257040
-229.00198 951.71106 2775.5464 6191504
-211.51466 947.27161 2762.5991 6191247
-196.08165 952.05939 2776.5623 6125711
-179.63228 952.33881 2777.377 6191249
-163.40561 953.97485 2782.1482 6191249
-146.90013 954.16827 2782.7124 6191250
-130.88431 957.99493 2793.8723 5994127
-114.5298 960.09424 2799.9949 6125456
-97.822731 959.44958 2798.1147 6059918
-81.352417 961.33856 2803.6235 6257040
-65.032425 966.43451 2818.4854 6257297
-48.21735 965.15649 2814.7581 6322834
-31.474583 964.73682 2813.5342 6322834
-14.77156 965.96509 2817.1162 6323092
1.9682744 964.36798 2812.4585 6388628
18.762835 968.45331 2824.3728 6257040
35.600609 969.85779 2828.4688 6191503
52.435829 970.3139 2829.7991 6191247
69.436127 972.86151 2837.2288 6191247
86.613976 976.41498 2847.592 6191504
103.68968 977.84357 2851.7585 6191504
120.6603 978.01892 2852.2698 6257040
137.5614 977.65704 2851.2144 6125454
154.6349 978.46533 2853.5718 6125711
171.70065 979.06976 2855.3345 6257040
188.69162 979.17725 2855.6479 6191505
205.86623 980.14142 2858.46 6125455
223.07672 981.11639 2861.3032 6059919
240.02744 980.89166 2860.6479 6059918
257.30499 981.94403 2863.7168 6059661
274.67422 983.19391 2867.3621 6059918
290.99094 980.75024 2860.2354 6125454
308.7923 983.30414 2867.6836 6125454
326.24838 984.54877 2871.3135 6125455
343.73798 985.76587 2874.8628 6191246
360.10217 983.79303 2869.1094 6190990
377.07333 983.58191 2868.4937 6125454
395.09119 986.00122 2875.5491 6125453
412.02036 985.61554 2874.4243 5994125
427.78586 982.58777 2865.5942 5993868
444.28766 981.41821 2862.1836 6125454
461.77353 982.42871 2865.1304 6059662
480.02805 984.94452 2872.4673 6059148
497.96799 986.664 2877.4822 6058892
515.79602 988.05511 2881.5391 6059148
535.11157 992.11456 2893.3782 5993612
550.34094 988.58136 2883.0737 5993355
568.48993 990.34753 2888.2246 5862026
586.4104 991.62378 2891.9468 5730184
600.90057 987.19202 2879.022 5927819
618.99628 988.76483 2883.6091 6256784
639.39905 993.83905 2898.4072 6388113
656.51746 993.67584 2897.9312 6388113
674.93213 995.4328 2903.0552 6322321
693.52332 997.35608 2908.6641 6322577
711.39392 998.17456 2911.0513 6322320
726.84784 995.64392 2903.6709 5993355
745.74701 997.84045 2910.0769 5861769
762.46191 997.08105 2907.8623 5730183
779.52148 996.79614 2907.0312 5927562
797.95532 998.2428 2911.2502 5927819
815.06232 998.0033 2910.5518 5927562
834.21484 1000.2264 2917.0352 6124941
852.91309 1001.8254 2921.6982 6059148
871.93158 1003.7292 2927.2505 5598597
893.39087 1008.3134 2940.6196 5927817
912.48712 1010.1057 2945.8467 6321805
933.54999 1013.9665 2957.1064 6124939
949.12061 1011.8296 2950.8745 5598337
967.33563 1012.5381 2952.9409 4808050
983.26929 1010.8762 2948.0938 3097430
1022.8627 1033.1704 3013.1121 593690
1024.7683 1017.2849 2966.7842 790296
1042.8669 1017.7397 2968.1104 5532284
1080.5427 1036.967 3024.1846 5993096
1094.7025 1033.3668 3013.6848 5796488
1115.1658 1035.7368 3020.5969 5993356
1131.3934 1034.1602 3015.999 5927562
1150.7494 1035.4478 3019.7539 5927563
1173.1185 1039.3652 3031.179 5861770
1193.6537 1041.5641 3037.5913 5664390
1210.6495 1040.6549 3034.9399 5598597
1226.9615 1039.1934 3030.6775 5532805
1223.1411 1020.9694 2977.5293 6125198
1253.2317 1031.1672 3007.2703 6190734
1269.67 1030.0032 3003.8752 6256527
1288.2153 1030.557 3005.4905 6190734
1304.152 1029.0372 3001.0583 6256270
1324.2799 1030.821 3006.2605 5005945
1337.5643 1027.3013 2995.9956 4281710
1349.9305 1023.178 2983.9707 5268604
1362.328 1019.1849 2972.3254 6058120
1379.4391 1018.7755 2971.1313 4939895
1396.8352 1018.5842 2970.5735 5927047
1416.2555 1019.8553 2974.2805 5532289
1436.7329 1021.847 2980.0889 5400703
1447.7704 1017.1578 2966.4136 5268604
1471.7468 1021.5626 2979.2598 4940152
1489.8358 1021.8249 2980.0244 6321806
1504.3638 1019.6672 2973.7317 6322063
1512.3912 1013.2047 2954.8848 6322577
1532.1678 1014.6713 2959.1621 6322320
1545.1283 1011.642 2950.3274 6453137
1567.5034 1014.7755 2959.4658 6453393
1579.3457 1011.0964 2948.7361 6453392
1599.2134 1012.5795 2953.0613 6453392
1612.7535 1010.0676 2945.7356 6387599
1630.2612 1010.0676 2945.7356 6387599
1648.4548 1010.4882 2946.9622 6453392
1656.4994 1004.744 2930.2102 6453392
1675.0369 1005.4175 2932.1746 6453392
1689.4827 1003.6467 2927.01 6519185
1703.5098 1001.6655 2921.2322 6519185
1710.4073 995.57465 2903.469 6519185
1729.8724 996.84741 2907.1809 6519186
1743.3177 994.66046 2900.8027 6519185
1758.5364 993.51825 2897.4717 6519186
1770.921 990.8125 2889.5808 6519185
1790.5244 992.15875 2893.5071 6584978
1800.6726 988.29004 2882.2244 6584979
1815.4194 986.99432 2878.4453 6584978
1820.4629 980.49652 2859.4956 6584978
1839.4153 981.5412 2862.542 6519185
1858.9136 982.8551 2866.374 6519185
1875.0055 982.36053 2864.9316 6519185
1882.1024 977.20459 2849.895 6453139
1903.8657 979.68768 2857.1365 6453138
1917.3864 977.92291 2851.9897 6519188
1932.5905 977.03992 2849.4148 6519187
1945.1434 974.84387 2843.0103 6519187
1956.3088 971.99597 2834.7048 6584979
1974.9307 972.87006 2837.2537 6518932
1991.8983 972.9212 2837.4031 6518931
