# .PCD v0.7 - Point Cloud Data file format
VERSION 0.7
FIELDS x y z rgb
SIZE 4 4 4 4
TYPE F F F U
COUNT 1 1 1 1
WIDTH 1295
HEIGHT 1
VIEWPOINT 0 0 0 1 0 0 0
POINTS 1295
DATA ascii
515.80145 907.94672 3754.1016 6125711
541.41956 913.52509 3777.1667 6257039
564.50714 914.55975 3781.4448 6322575
587.40027 915.21204 3784.1418 6322575
610.83466 916.62854 3789.9985 6190990
633.36725 916.6391 3790.0422 6256783
655.09869 915.52936 3785.4539 6190990
677.9765 916.0423 3787.5745 6190990
700.38147 915.90375 3787.0017 6256782
723.15509 916.24091 3788.396 6191246
746.01984 916.66974 3790.1692 6191246
769.05371 917.27521 3792.6726 5730437
784.29077 908.81146 3757.6772 4216942
816.27515 919.68524 3802.6375 6190989
832.88232 913.11481 3775.4705 6125453
859.72601 917.81708 3794.9131 6125196
883.35297 918.9328 3799.5261 6190989
909.64893 922.7002 3815.1033 6190989
935.13519 925.48291 3826.6091 6124683
977.91016 944.83759 3906.635 5927559
1012.9814 956.02393 3952.8872 5993353
1035.1105 954.7655 3947.6841 5861768
1040.2075 938.20111 3879.1951 5664645
1054.567 930.52808 3847.4692 5796231
1079.0653 931.93701 3853.2947 6059403
1107.9795 937.02197 3874.3198 6125196
1130.0242 936.20862 3870.9565 6125453
1151.1116 934.65039 3864.5142 6191246
1177.4165 937.30682 3875.4976 6190989
1204.2555 940.27814 3887.783 6125453
1227.9307 940.71387 3889.5845 6059403
1247.3761 937.95288 3878.1689 5927817
1269.9301 937.58716 3876.6567 5927817
1291.5906 936.58673 3872.52 5993610
1313.7449 935.97302 3869.9824 5796232
1335.4431 935.0611 3866.2119 5927562
1358.9011 935.3913 3867.5774 5862026
1382.0784 935.52045 3868.1116 5993355
1403.7568 934.64764 3864.5024 5927562
1426.9614 934.80255 3865.1431 5993610
1449.6504 934.62012 3864.3889 5927817
1473.5833 935.23285 3866.9224 5993610
1498.9435 936.71881 3873.0662 5993610
1520.3748 935.74158 3869.0259 5927817
1541.271 934.46918 3863.7646 5862024
1560.7371 932.3797 3855.1252 5862024
1587.1212 934.42377 3863.5769 5862281
1614.8118 937.16772 3874.9224 5861767
1638.2117 937.37946 3875.7976 5861252
1662.8154 938.26447 3879.457 5795202
1684.026 937.23682 3875.208 5663871
1703.3876 935.22174 3866.8762 5597308
1720.6084 932.10071 3853.9717 5268597
1759.8346 940.82593 3890.0481 4873580
1764.5374 931.1076 3849.8655 4215649
1781.0167 927.77283 3836.0771 3161929
1826.0184 939.1925 3883.2942 1712935
1816.1655 922.46533 3814.1321 66052
1828.416 917.23901 3792.5227 2
1850.4944 917.01013 3791.5764 2
1861.261 911.24847 3767.7539 65538
1881.7006 910.30353 3763.8464 65536
1921.1444 918.46643 3797.5977 65536
1925.7864 909.99463 3762.5693 65536
1943.9615 908.0387 3754.4822 0
1968.2875 908.96771 3758.3235 0
1983.1725 905.56506 3744.2544 0
1997.244 901.87048 3728.978 0
2009.2727 897.34467 3710.2654 0
2033.1958 898.17145 3713.6841 0
2047.5699 894.80756 3699.7751 0
2049.2756 886.03766 3663.5142 0
2069.8684 885.53259 3661.4255 0
2090.6707 885.12659 3659.7471 1
2106.2898 882.55725 3649.1238 2
2058.0388 853.55078 3529.1899 2
2064.7334 847.68774 3504.9482 2
2077.7571 844.5144 3491.8271 2
2091.6531 841.75482 3480.4172 2
2108.4768 840.21606 3474.0547 4
2212.6736 873.18701 3610.3806 4
2226.71 870.2865 3598.3877 4
2249.9702 871.01184 3601.3867 260
2266.6541 869.20172 3593.9023 265
2294.5315 871.67773 3604.1396 1188139
2233.1123 840.49854 3475.2227 2900302
2268.1362 845.8573 3497.3796 3756386
2422.3877 895.17853 3701.3091 4152172
2429.9033 889.87482 3679.3799 4678517
2462.1404 893.63837 3694.9409 5006710
2495.4565 897.72357 3711.832 5268853
2533.5398 903.43707 3735.4558 5663609
2578.395 911.44519 3768.5669 7
2589.2659 907.40558 3751.8643 11
2614.1382 908.29974 3755.5615 11
2644.0769 910.92432 3766.4133 268
2665.3704 910.55145 3764.8716 265
0 0 0 0
2687.8042 903.05292 3733.8674 6059402
2771.9902 923.7113 3819.2839 6191246
2848.0251 941.34003 3892.1738 6190734
2908.7458 953.66364 3943.1284 6387600
2960.3042 962.81036 3980.9475 6453394
3015.835 973.09381 4023.4666 6453138
3077.7344 985.25427 4073.7466 6321809
3130.8435 994.43268 4111.6968 6387345
3179.7664 1002.1498 4143.605 6321553
3218.2749 1006.4911 4161.5552 6256016
3257.0879 1010.8608 4179.6226 6321552
3295.4941 1015.039 4196.8979 6321553
3325.1064 1016.4662 4202.7993 6255759
3361.0645 1019.7975 4216.5732 6256016
3389.2559 1020.7405 4220.4722 6321809
3428.5872 1025 4238.0835 6255760
3463.5044 1027.8872 4250.0215 6256014
3498.2603 1030.6852 4261.5903 6124427
3531.2502 1032.9263 4270.8569 6124170
3570.6514 1036.9973 4287.6895 6123657
3618.4094 1043.4207 4314.248 5926534
3665.572 1049.5831 4339.728 5794948
3704.3826 1053.2845 4355.0322 5663362
3742.5903 1056.7644 4369.4209 5597569
3780.9578 1060.2411 4383.7959 5465984
3826.3923 1065.6384 4406.1123 5466494
3859.6357 1067.5903 4414.1826 5334651
3911.8982 1074.741 4443.7485 5400445
3967.0308 1082.579 4476.1567 5202552
4044.3689 1096.3319 4533.0215 4544622
4078.6895 1098.3192 4541.2378 3754849
4108.5103 1099.0764 4544.3687 3359834
4093.2449 1087.8413 4497.915 4807279
4127.0386 1089.7058 4505.624 4939378
4153.0332 1089.5001 4504.7734 4939378
4185.3901 1090.9554 4510.791 5004659
4223.5356 1093.8916 4522.9312 5070710
4267.271 1098.2292 4540.8657 5136502
4299.896 1099.6708 4546.8267 4873329
4292.9961 1091.0493 4511.1792 4873328
4323.0146 1091.8594 4514.5283 4807534
4353.2578 1092.7157 4518.0693 4609900
4225.9702 1054.2621 4359.0742 4017763
0 0 0 0
0 0 0 0
0 0 0 0
0 0 0 0
0 0 0 0
0 0 0 0
0 0 0 0
-2859.5417 800.79303 3231.6372 5861769
-2819.1948 794.83276 3207.5845 5795976
-2801.7378 795.28882 3209.425 5795976
-2782.0823 795.12286 3208.7554 5795976
-2764.8799 795.66058 3210.925 5730183
-2741.0359 794.28113 3205.3584 5730183
-2722.4766 794.42444 3205.9368 5795976
-2701.842 793.95996 3204.0623 5927561
-2683.0784 794.0426 3204.3958 5862024
-2664.4836 794.17676 3204.9373 5927562
-2645.1907 794.10321 3204.6404 5861769
-2631.0139 795.57568 3210.5825 5927562
-2611.7134 795.50903 3210.3135 5927562
-2597.0364 796.85999 3215.7654 5927562
-2579.717 797.41425 3218.0022 5993355
-2562.396 797.97626 3220.27 5993612
-2545.2634 798.60583 3222.811 6124941
-2528.8662 799.47748 3226.3286 6256784
-2511.0464 799.90924 3228.0708 6388114
-2493.0762 800.29932 3229.645 6322577
-2475.2937 800.75635 3231.4893 6388113
-2453.5537 799.93011 3228.155 6388113
-2437.3193 800.89996 3232.0691 6388113
-2422.2695 802.27771 3237.6289 6322320
-2402.6724 802.15924 3237.1506 6125198
-2390.8555 804.65741 3247.2322 5993612
-2375.834 806.10876 3253.0894 5927562
-2357.2893 806.37885 3254.1792 5861769
-2341.8022 807.70801 3259.5432 5927562
-2329.4104 810.13586 3269.3408 5927562
-2313.6895 811.43701 3274.5916 5927562
-2302.1829 814.25067 3285.9463 5862026
-2289.1313 816.56146 3295.2715 5927819
-2277.6819 819.48865 3307.0842 6059148
-2263.0447 821.30963 3314.4331 6059148
-2248.6812 823.26294 3322.3157 5927562
-2239.0732 827.00732 3337.4265 5927562
-2222.7002 828.29767 3342.6335 5927819
-2208.1548 830.29846 3350.7078 5861769
-2192.7585 832.01276 3357.626 5862026
-2177.2771 833.72601 3364.5398 5928075
-2159.8203 834.70758 3368.501 5928075
-2139.1084 834.43781 3367.4124 5796746
-2120.1003 834.83368 3369.0103 5862282
-2106.3467 837.32611 3379.0681 5928075
-2085.1611 836.88348 3377.2822 5928075
-2071.9165 839.65039 3388.4482 5993868
-2052.9041 840.11139 3390.3083 5993868
-2034.1185 840.67517 3392.5837 5928075
-2014.5352 840.9173 3393.5605 5796746
-1983.5145 836.34174 3375.0957 5730696
-1960.8625 835.23737 3370.6392 5467781
-1943.1584 836.23956 3374.6836 5467524
-1919.2087 834.54688 3367.8525 5467524
-1895.2217 832.802 3360.811 5467525
-1872.0162 831.36719 3355.0208 5599110
-1849.4642 830.19464 3350.2891 5467525
-1827.7771 829.38916 3347.0383 5533317
-1807.1041 829.03113 3345.5935 5599111
-1785.2822 828.1322 3341.9658 5796489
-1762.8474 826.92554 3337.0964 5862282
-1742.8079 826.82782 3336.7019 5730953
-1723.5927 827.12341 3337.895 5796489
-1703.3591 826.93146 3337.1204 5796489
-1682.4541 826.40527 3334.9968 5664904
-1663.0713 826.62305 3335.8757 5599110
-1645.4895 827.75214 3340.4321 5664903
-1627.4851 828.6936 3344.2314 5730697
-1608.8297 829.32275 3346.7703 5862282
-1590.0632 829.90967 3349.1389 5862282
-1570.2096 829.93695 3349.249 5730696
-1551.0021 830.31073 3350.7573 5928075
-1530.2869 829.87659 3349.0054 5862539
-1511.5856 830.5376 3351.6729 5928075
-1491.797 830.61084 3351.9685 6059918
-1467.4769 828.12885 3341.9524 6257296
-1448.9778 828.90863 3345.0994 6060172
-1428.6538 828.65179 3344.0627 5862537
-1405.6222 826.79504 3336.5698 5862538
-1388.6772 828.5166 3343.5171 5796488
-1367.7672 827.888 3340.9805 5796490
-1348.1494 828.03473 3341.5725 5730953
-1329.0209 828.49078 3343.4128 5730696
-1310.4639 829.32227 3346.7686 5665160
-1290.5598 829.3139 3346.7349 5664904
-1272.0199 830.19556 3350.2927 5533318
-1254.4821 831.76971 3356.6453 5467779
-1232.0164 830.07465 3349.8047 5401730
-1210.8268 829.19763 3346.2656 5467779
-1190.2565 828.72253 3344.3484 5467779
-1170.6393 828.90631 3345.0898 5401986
-1148.0232 826.93622 3337.1394 5336449
-1127.0281 826.0849 3333.7041 4151658
-1115.2723 832.09668 3357.9648 3032403
-1093.4562 830.68469 3352.2666 3690073
-1075.0498 831.85876 3357.0046 4084575
-1066.9171 841.17712 3394.6094 4414566
-1042.6217 837.86621 3381.248 4810095
-1028.4144 842.69135 3400.7202 4810353
-1006.7809 841.50299 3395.9243 4613489
-988.02155 842.71747 3400.8252 4678769
-971.26031 845.72235 3412.9519 4743795
-944.33966 839.82062 3389.135 4743538
-931.48541 846.44373 3415.8628 4875125
-908.90021 844.32245 3407.3022 5072503
-883.11597 839.06488 3386.0854 5401215
-862.28845 838.38159 3383.3279 5599108
-843.02783 839.22546 3386.7332 5533572
-824.68115 841.04266 3394.0667 5468037
-807.45532 844.12268 3406.4963 5731465
-791.26965 848.47656 3424.0664 5862793
-771.7959 849.44153 3427.9604 5862794
-754.43304 852.84491 3441.6951 5928330
-737.49878 856.93597 3458.2048 6125709
-717.36469 857.43701 3460.2268 6125966
-697.14764 857.86566 3461.9565 6125708
-679.21478 861.21661 3475.4792 5928586
-660.79034 864.13489 3487.2561 6060172
-641.00653 865.40674 3492.3889 5994123
-618.72833 863.28357 3483.8208 5797001
-604.84314 873.12909 3523.553 5928330
-581.50153 869.54053 3509.071 5797001
-560.53333 869.36584 3508.366 5994380
-539.0816 868.39886 3504.4636 6059917
-518.88177 869.45184 3508.7131 6060173
-498.09689 869.57166 3509.1965 6059916
-478.62308 872.09076 3519.3625 5994380
-457.8172 872.30212 3520.2156 6125709
-437.74899 874.00647 3527.0935 6060173
-414.79132 869.82312 3510.2114 6125709
-394.47229 871.02283 3515.053 6257551
-382.51285 891.84753 3599.0923 6191759
-355.77792 878.64905 3545.8291 6125966
-338.12173 887.62158 3582.0378 5994380
-315.2988 883.32489 3564.6987 5994123
-294.16037 883.46857 3565.2783 5994123
-273.3157 884.58514 3569.7844 5862536
-252.4725 885.89496 3575.0701 5533571
-232.23549 889.76788 3590.6992 5665413
-210.66446 888.79633 3586.7788 5994124
-189.55183 889.75781 3590.6589 5994124
-168.67543 892.21289 3600.5664 5928587
-147.34338 892.62097 3602.2131 5928330
-125.93062 892.5957 3602.1111 5927817
-104.63039 893.521 3605.8455 5862280
-83.490288 896.6427 3618.4431 5598852
-61.708263 892.6449 3602.3098 5467010
-40.289299 892.44116 3601.4878 5598853
-18.913046 893.79419 3606.948 5533316
2.5291355 895.50958 3613.8704 5664902
23.939131 892.95508 3603.5615 5796744
45.610153 897.95203 3623.7271 5928330
66.956734 895.40485 3613.4478 6191502
88.370804 894.77808 3610.9185 6125966
109.98431 896.02118 3615.9348 6059916
131.6153 896.97687 3619.7915 6059660
153.19002 897.33441 3621.2346 6059404
175.14297 899.54663 3630.1619 6059660
196.9028 900.39038 3633.5671 6125196
218.56537 900.66663 3634.6819 6059660
240.2072 900.81531 3635.282 6059404
262.35074 902.66577 3642.7495 6190989
283.96817 902.56183 3642.3301 6190989
306.40601 904.89563 3651.748 6256782
328.55856 906.13367 3656.7446 6190989
350.84143 907.55536 3662.4817 6191246
373.14859 908.87006 3667.7874 6256782
395.24554 909.55585 3670.5549 6322575
418.29498 912.24725 3681.416 6322832
439.87778 911.63147 3678.9309 6323088
462.67938 913.48022 3686.3918 6257039
485.31726 914.85333 3691.9331 6257040
509.52771 918.94373 3708.4399 6322320
532.13403 919.92188 3712.3872 6322577
555.09302 921.40753 3718.3828 6322320
578.40259 923.33905 3726.1772 6322320
600.9281 923.92261 3728.5322 6256527
624.52844 926.05841 3737.1514 6124685
646.04236 925.05988 3733.1221 6190478
667.11407 923.51569 3726.8901 6256271
690.46631 925.12628 3733.3899 6256527
712.35052 924.73077 3731.7939 6256271
735.30792 925.71033 3735.7468 6322575
762.35626 931.63184 3759.6433 6322832
782.31934 928.80402 3748.2317 6125197
805.66296 930.03522 3753.2002 6125197
820.97046 922.17346 3721.4736 6191246
844.26758 923.46307 3726.6782 6257039
870.15826 927.45129 3742.7725 6059660
895.57843 930.75146 3756.0908 5993610
920.61383 933.50122 3767.1873 5730695
944.65625 935.13721 3773.7896 5796488
968.78406 936.77997 3780.4192 5928074
996.49359 941.73309 3800.4077 5927818
1021.3063 943.78979 3808.7075 5993610
1043.0681 942.99908 3805.5164 5993610
1065.6575 942.97418 3805.416 5928073
1090.1021 944.5578 3811.8069 6059403
1113.6973 945.35608 3815.0283 5993610
1136.7062 945.63464 3816.1523 5993610
1159.6074 945.81451 3816.8782 6125196
1185.2408 948.1731 3826.3965 6190990
1209.6147 949.45435 3831.5671 6125196
1227.4241 945.63086 3816.137 6059916
1248.9352 944.74609 3812.5667 5993610
1270.5581 943.97607 3809.4592 5927817
1292.5491 943.50165 3807.5447 5927817
1316.0946 944.15875 3810.1963 5927563
1337.7253 943.44312 3807.3086 5730440
1359.6887 942.98218 3805.4482 5664391
1380.7688 941.93359 3801.2168 5795976
1402.5676 941.40143 3799.0688 5862024
1425.6548 941.73694 3800.4229 5862025
1449.2695 942.40503 3803.1191 5927817
1470.8842 941.77203 3800.5647 5927817
1494.8606 942.64746 3804.0977 5862025
1515.0865 941.16711 3798.1235 5664902
1538.943 941.95239 3801.2925 5796231
1563.4478 943.10602 3805.948 5861511
1587.2285 943.7962 3808.7332 5861255
1611.0348 944.48181 3811.5002 5861253
1635.8771 945.74756 3816.6082 5795459
1655.8922 944.22607 3810.468 5729409
1678.7703 944.35602 3810.9924 5663617
1693.9088 940.18683 3794.1675 5532027
1717.9355 940.99579 3797.4319 5334390
1745.4398 943.66376 3808.1987 5202547
1758.7842 938.70581 3788.1909 4479081
1791.193 943.91998 3809.2329 4347236
1803.781 938.68909 3788.1233 4674653
1821.0188 935.97717 3777.1792 593682
1846.5709 937.55261 3783.5371 3
1854.4186 930.20935 3753.9028 65536
1878.4222 931.04846 3757.2891 65536
1898.4598 929.92517 3752.7561 65536
1924.881 931.91852 3760.8003 65536
1938.4922 927.73535 3743.9189 65536
1959.0255 926.92242 3740.6384 0
1974.7629 923.88403 3728.3767 0
1989.8809 920.62653 3715.231 0
2003.3257 916.67474 3699.2834 0
2021.0889 914.76343 3691.5703 0
2040.0073 913.4104 3686.1101 0
2043.0703 905.06238 3652.4211 0
2063.2095 904.37494 3649.6467 0
2083.8586 903.92285 3647.8225 1
2102.4062 902.578 3642.3953 2
2047.7108 870.13727 3511.4792 2
2059.7859 866.43781 3496.5498 2
2068.7925 861.5343 3476.7615 3
2080.3291 857.771 3461.5747 3
2102.6841 858.49841 3464.5103 4
2206.2446 892.04547 3599.8906 4
2221.9866 889.78149 3590.7544 4
2243.0952 889.68939 3590.3826 4
2263.5117 889.32697 3588.9199 6
2285.0073 889.3913 3589.1799 776
2325.1453 896.64355 3618.4465 464417
2370.5872 905.78955 3655.3555 1715260
2391.9082 905.63647 3654.738 2440527
2436.7522 914.3125 3689.7502 3229531
2460.292 914.91125 3692.167 3229533
2467.6116 909.52112 3670.4146 3887202
2534.7434 926.07788 3737.2302 4610923
2587.3845 937.09888 3781.7058 461075
2587.4368 929.0473 3749.2136 10
2614.5371 930.76233 3756.1348 11
2644.1194 933.3244 3766.4739 267
2669.4453 934.35364 3770.6272 265
0 0 0 0
2676.1189 921.22211 3717.6345 5664644
2744.2102 936.92609 3781.0085 5927561
2803.2405 949.30646 3830.97 6124427
2864.3872 962.1983 3882.9956 6190223
2914.2703 971.13055 3919.0422 6189967
2964.3125 979.97388 3954.73 6321551
3014.7168 988.79681 3990.3352 6387345
3060.0581 995.83435 4018.7356 6453138
3109.4209 1004.0615 4051.9365 6387345
3140.9873 1006.4597 4061.6145 6321552
3180.8284 1011.4525 4081.7632 6387345
3219.3164 1015.9426 4099.8838 6387345
3256.9192 1020.0883 4116.6133 6387345
3287.5935 1022.0181 4124.4014 6387345
3322.4038 1025.1956 4137.2241 6321553
3354.5491 1027.5101 4146.5645 6321553
3384.4111 1029.0966 4152.9668 6321806
3415.3206 1030.9763 4160.5527 6256269
3443.9014 1032.1311 4165.2129 6256270
3479.6958 1035.416 4178.4692 6256270
3517.3049 1039.1903 4193.7007 6190220
3564.9565 1045.8578 4220.6074 6189963
3595.1267 1047.3394 4226.5864 5992327
3631.8782 1050.7043 4240.166 5992584
3661.0461 1051.8441 4244.7656 5926534
3697.2271 1054.9695 4257.3779 5794949
3743.1353 1060.809 4280.9438 5597569
3779.416 1063.8596 4293.2549 5598080
3841.8179 1074.1727 4334.874 5334651
3882.1118 1078.2085 4351.1602 5334651
3889.1279 1073.0093 4330.1787 5268859
3925.6479 1075.9651 4342.1069 5334651
4016.5979 1093.7034 4413.6904 5400444
4030.0771 1090.2533 4399.7676 5203065
4048.0928 1088.0671 4390.9453 4874357
4109.9136 1097.6078 4429.4468 4873330
4156.4722 1102.9767 4451.1138 4741744
4158.6831 1096.5841 4425.3159 5005173
4176.9321 1094.474 4416.8008 5071222
4190.4302 1091.1537 4403.4009 5071479
4221.1895 1092.3408 4408.1919 4939894
4238.832 1090.1403 4399.3115 5136759
4228.8926 1080.9166 4362.0889 4939636
0 0 0 0
0 0 0 0
0 0 0 0
0 0 0 0
0 0 0 0
0 0 0 0
0 0 0 0
-2784.4775 798.47437 3146.8052 5862026
-2764.5334 798.11603 3145.3928 5862026
-2741.812 796.94537 3140.7795 5927562
-2721.5134 796.46777 3138.8972 5927562
-2704.9048 797.07098 3141.2744 5927563
-2683.6924 796.31647 3138.3008 5862026
-2663.9778 795.99896 3137.0496 5993355
-2645.301 795.98932 3137.0115 6059148
-2626.4719 795.93329 3136.7908 6059148
-2609.3047 796.38373 3138.5659 6124941
-2590.2273 796.25342 3138.0525 6256527
-2573.7671 796.93158 3140.7251 6124941
-2555.2029 796.96356 3140.8511 6125198
-2539.3428 797.8454 3144.3267 6190734
-2522.1453 798.31714 3146.1858 6124941
-2506.8662 799.40765 3150.4834 6190734
-2492.6392 800.85266 3156.1782 6256527
-2475.4907 801.37378 3158.2319 6256527
-2457.2129 801.53455 3158.8655 6190734
-2427.8694 798.0603 3145.1733 6059148
-2420.8447 801.92548 3160.4062 6059148
-2405.6694 803.13007 3165.1533 5993612
-2391.4607 804.67877 3171.2571 5993355
-2372.6846 804.70306 3171.3528 5993355
-2358.4783 806.29016 3177.6074 5993355
-2343.8596 807.76068 3183.4028 5927819
-2325.7275 808.03442 3184.4817 5861770
-2312.24 809.93964 3191.99 5927562
-2295.3435 810.67236 3194.8777 5927562
-2283.907 813.36182 3205.4768 5993355
-2267.0686 814.15637 3208.6082 5927819
-2254.3906 816.47125 3217.7317 5993355
-2244.2039 819.73584 3230.5972 6059148
-2231.9607 822.29907 3240.6992 6059148
-2222.5017 825.94165 3255.0544 6059148
-2209.8271 828.44269 3264.9111 5993868
-2198.5464 831.5152 3277.0198 5993868
-2183.5439 833.22247 3283.7483 5993868
-2168.8298 835.07141 3291.0352 5928075
-2151.6235 835.9859 3294.6392 5928076
-2136.8467 837.86963 3302.063 5928332
-2120.9539 839.34668 3307.884 5862282
-2102.0842 839.66241 3309.1282 5796490
-2084.4053 840.46411 3312.2878 5796746
-2066.6213 841.2384 3315.3394 5665160
-2046.1072 840.90546 3314.0273 5665160
-2025.5098 840.53162 3312.554 5730696
-2003.8695 839.7135 3309.3293 5599110
-1982.8971 839.16156 3307.1545 5599110
-1963.2533 839.16656 3307.1743 5664903
-1946.1615 840.27362 3311.5371 5599110
-1925.9535 840.04407 3310.6323 5599110
-1904.7167 839.35632 3307.9219 5664903
-1879.6335 836.94165 3298.4055 5664904
-1861.1851 837.4613 3300.4536 5664903
-1837.4705 835.59741 3293.1079 5664903
-1812.8673 833.28479 3283.9939 5862282
-1791.0323 832.20813 3279.751 5796489
-1766.5935 829.88464 3270.594 5796746
-1744.6907 828.71399 3265.9805 5796489
-1721.9272 827.10364 3259.6338 5730953
-1701.6924 826.685 3257.9841 5664904
-1682.7515 826.89264 3258.8022 5664903
-1665.1157 827.75378 3262.1963 5664903
-1645.652 827.71588 3262.0469 5664904
-1631.7567 830.51123 3273.0632 5730953
-1610.9652 829.82172 3270.3459 5796489
-1591.3226 829.71442 3269.9231 5993868
-1574.6718 831.18365 3275.7134 6191247
-1558.5515 832.97327 3282.7661 5928075
-1539.4862 833.21423 3283.7158 5862539
-1518.2867 832.29163 3280.0798 5993869
-1508.0737 837.44574 3300.3923 5335425
-1483.3672 834.5813 3289.1035 3888236
-1462.0597 833.57825 3285.1506 1187886
-1445.4714 835.27521 3291.8381 5532546
-1418.8351 831.13257 3275.5122 5006714
-1402.7853 833.16254 3283.512 5664902
-1378.7469 830.43805 3272.7749 5994124
-1362.2946 832.27008 3279.9951 5994123
-1347.2936 835.05511 3290.9707 5928075
-1320.3877 830.43463 3272.7612 5928075
-1298.23 828.70685 3265.9524 5928075
-1278.2904 828.3642 3264.6016 5796490
-1258.9193 828.38489 3264.6833 5730696
-1241.4976 829.70905 3269.9019 5730696
-1225.4872 832.03363 3279.063 5730953
-1205.4364 831.64575 3277.5344 5730697
-1184.6532 830.73157 3273.9316 5796744
-1165.795 831.1593 3275.6174 5665415
-1147.1254 831.73822 3277.8989 5796744
-1127.7616 831.8252 3278.2417 5797001
-1109.2423 832.54907 3281.0945 5862537
-1097.7499 838.66724 3305.2063 5796229
-1081.797 841.53864 3316.5227 5730946
-1062.0922 841.54376 3316.5425 5533568
-1032.5789 833.63025 3285.3555 5533310
-1009.02 830.31165 3272.2769 5533310
-989.98315 830.65692 3273.6375 5402239
-969.99097 830.19824 3271.8298 5401725
-950.39026 830.06287 3271.2961 5467776
-932.62134 831.55505 3277.1768 5533570
-915.41388 833.62219 3285.3235 5599363
-897.28265 834.9198 3290.4375 5533827
-880.32202 837.38879 3300.168 5665157
-862.21625 838.85614 3305.9509 5665415
-846.19922 842.47156 3320.1992 5928330
-826.35559 842.35889 3319.7551 5928588
-808.31885 844.12762 3326.7258 5928845
-791.31372 847.08942 3338.3984 5928588
-774.41437 850.31964 3351.1287 5862795
-756.98303 853.12091 3362.1685 5862796
-739.56812 856.09308 3373.8818 5994125
-722.40222 859.52716 3387.4158 6059661
-706.39136 864.57178 3407.2969 5862283
-685.76123 864.09381 3405.4131 5862283
-667.36938 866.4928 3414.8674 5862282
-648.69672 868.66632 3423.4331 5928075
-629.9408 870.86536 3432.0996 6059661
-611.03094 872.99164 3440.4797 6059917
-590.02594 872.16833 3437.2346 6191503
-570.21802 873.11877 3440.9807 6059917
-550.72522 874.64044 3446.9775 5994124
-530.46613 875.01562 3448.4563 6059661
-510.10818 875.25153 3449.3857 6059661
-489.9425 875.85077 3451.7473 6191246
-470.5596 877.96277 3460.071 6191503
-449.96628 877.90643 3459.8486 6125710
-430.76364 880.68781 3470.8103 6060173
-409.94278 880.27411 3469.1799 6059916
-389.71979 881.16852 3472.7046 6191503
-369.74136 882.74664 3478.9243 6257552
-349.90225 884.8642 3487.2695 6257295
-329.25571 885.078 3488.1121 6191502
-309.57944 888.10382 3500.0369 6191502
-288.82401 888.2467 3500.6003 6059660
-270.02258 894.88788 3526.7732 5665157
-250.89311 901.46796 3552.7053 3362659
-227.6647 893.17645 3520.0283 3954795
-207.76881 897.60406 3537.4775 5796487
-185.70663 892.61609 3517.8198 5796745
-165.83348 898.21912 3539.9016 5862537
-144.5856 896.92242 3534.7913 5928330
-123.6946 897.77521 3538.1521 5862794
-102.73692 898.39398 3540.5908 5928331
-81.741714 898.91913 3542.6604 5927817
-60.827011 901.00116 3550.8655 5664645
-39.599403 898.19781 3539.8176 5730439
-18.575771 898.9104 3542.626 5928330
2.4778233 898.38385 3540.5508 5928330
23.544987 899.31769 3544.2312 5862794
44.729984 901.74512 3553.7976 5928587
65.979088 903.49329 3560.6873 5928587
86.890625 900.89233 3550.4368 6125710
108.03738 901.27008 3551.9255 5994124
129.42805 903.22668 3559.6362 6059403
150.65381 903.64417 3561.2817 6125196
171.92059 904.17462 3563.3723 5993867
194.23174 909.47888 3584.2764 5664645
215.78239 910.52557 3588.4016 6059660
236.32585 907.51624 3576.542 6190990
258.11969 909.40906 3584.0012 6191246
279.44284 909.48126 3584.2859 6191502
300.99521 910.23639 3587.262 6190989
322.51736 910.8064 3589.5081 6190989
344.84286 913.43359 3599.8621 6190989
366.57358 914.27032 3603.1597 6190989
387.81848 913.86987 3601.5815 6257039
410.21915 916.09241 3610.3406 6191502
431.74194 916.23096 3610.8867 6191245
453.61118 917.05682 3614.1414 6191246
477.34198 921.40131 3631.2632 6125197
498.16208 919.99451 3625.7188 6124942
520.74615 921.8269 3632.9404 6190734
542.99194 922.93848 3637.3213 6322320
565.34894 924.14679 3642.083 6256527
587.62299 925.13531 3645.979 6322320
609.42932 925.34344 3646.7991 6322320
630.96497 925.14026 3645.9983 6256527
651.95801 924.18152 3642.2197 6256527
672.96118 923.29816 3638.7385 6190990
694.84308 923.63794 3640.0779 6191246
717.53961 925.00745 3645.4749 6256782
739.37781 925.22241 3646.3223 6322831
770.89929 937.19745 3693.5161 6322575
782.16742 924.56866 3643.7456 6322320
805.03369 925.96069 3649.2317 6322576
825.56812 924.66791 3644.137 6256783
850.56293 928.30945 3658.488 6125196
879.24341 935.69153 3687.5811 6125196
904.53802 939.19891 3701.4041 6256782
926.18524 938.84277 3700.0002 6190989
953.22131 943.83881 3719.6897 6059660
974.4859 943.02319 3716.4753 6059660
999.21362 945.52069 3726.3184 6124941
1022.5045 946.5799 3730.4924 6124940
1044.9572 946.83453 3731.4961 6059148
1068.4755 948.02405 3736.1841 6059403
1093.1261 950.14954 3744.5605 6059403
1115.7949 950.50189 3745.9492 5993610
1137.8134 950.29718 3745.1426 5927817
1160.5499 950.68872 3746.6853 5796488
1183.442 951.19037 3748.6626 5862024
1205.1274 950.72168 3746.8154 5928073
1225.7451 949.44293 3741.7756 5993610
1249.5463 950.63159 3746.4604 5927817
1272.1357 950.87299 3747.4116 5927817
1293.9081 950.5058 3745.9646 5862026
1312.8591 948.11359 3736.5369 5795976
1333.2092 946.79456 3731.3384 5664390
1354.7369 946.34137 3729.5522 5203839
1376.9717 946.38855 3729.7383 5532802
1400.6552 947.41412 3733.7803 5796231
1422.0076 946.85565 3731.5793 5862024
1444.9309 947.3443 3733.5049 5796488
1466.0033 946.62292 3730.6621 5796231
1485.5132 944.92926 3723.9871 5795975
1510.2277 946.54712 3730.3635 5795974
1531.5603 946.02954 3728.3232 5795975
1555.4961 947.11145 3732.5874 5927047
1579.5154 948.21332 3736.9297 5795460
1599.0759 946.64484 3730.7485 5861252
1624.0907 948.30408 3737.2874 5729666
1643.1796 946.50519 3730.198 5795202
1664.5178 946.03247 3728.335 5729406
1686.0631 945.68842 3726.979 5728637
1709.5181 946.41034 3729.8245 5597306
1728.7611 944.81213 3723.5256 5531511
1744.3265 941.26965 3709.5645 5136754
1765.0668 940.57312 3706.8196 4479592
1800.1223 947.42822 3733.8357 4675939
1859.181 966.59552 3809.3745 2963263
1861.651 956.23505 3768.5437 66308
1872.7561 950.50354 3745.9558 0
1895.2963 950.64227 3746.5024 65536
1905.3997 944.61218 3722.7378 65536
1933.4738 947.5274 3734.2266 65536
1946.6224 943.14502 3716.9556 65536
1962.7181 940.27283 3705.6362 65536
1978.9613 937.53424 3694.8433 0
1994.4427 934.49878 3682.8806 0
2009.943 931.53809 3671.2122 0
2028.3446 929.97107 3665.0366 0
2034.1409 922.71936 3636.4575 0
2051.2871 920.71466 3628.5569 0
2070.6685 919.74432 3624.7329 1
2087.0657 917.48224 3615.8179 2
2042.8406 888.88806 3503.1277 2
2052.5818 884.11584 3484.3203 2
2058.6626 877.87811 3459.7373 2
2075.4424 876.28113 3453.4434 4
2101.291 878.5069 3462.2151 4
2200.1331 910.91046 3589.9185 4
2217.0999 909.11884 3582.8574 4
2238.4541 909.14319 3582.9536 4
2229.8757 897.12469 3535.5884 4
2284.626 910.57098 3588.5806 7
2319.9504 916.0979 3610.3621 6
2355.1858 921.48853 3631.6069 8
2354.5789 912.88507 3597.7002 264
2384.6887 916.23828 3610.9155 132881
2414.9695 919.59686 3624.1516 133397
2455.5942 926.79999 3652.5393 660000
2491.1145 931.96716 3672.9036 396052
2573.074 954.26752 3760.7898 988703
2605.9709 958.14465 3776.0696 10
2612.8616 952.47565 3753.7275 11
2641.1011 954.61896 3762.1746 13
2663.5073 954.63556 3762.24 270
2652.6409 942.82568 3715.697 1583417
2694.4526 949.77979 3743.1033 4019300
2728.2231 953.80872 3758.9812 4940664
2767.8132 959.7901 3782.5542 5203324
2814.5706 968.1405 3815.4634 5663877
2856.7527 974.79633 3841.6941 5795462
2884.3972 976.42529 3848.1138 5926794
2927.2102 983.12311 3874.51 6058380
2963.2961 987.47461 3891.6594 6124173
2993.9631 989.96692 3901.4817 6256016
3027.7449 993.44293 3915.1807 6321809
3065.2034 998.06305 3933.3887 6387345
3100.9219 1002.051 3949.1052 6321809
3137.0049 1006.0959 3965.0464 6387346
3174.1028 1010.4036 3982.0232 6387345
3203.7778 1012.3022 3989.5056 6387346
3240.9739 1016.5318 4006.1743 6387345
3270.5132 1018.3156 4013.2046 6321552
3301.3982 1020.4895 4021.772 6321809
3334.377 1023.2749 4032.7493 6255759
3364.5532 1025.1665 4040.2039 6189966
3397.0459 1027.7321 4050.3152 6189966
3433.6233 1031.4888 4065.1201 6321293
3479.7947 1038.0548 4090.9971 6255757
3513.8401 1040.9375 4102.3579 6189707
3547.1616 1043.5677 4112.7236 6189964
3581.7168 1046.5222 4124.3672 6123915
3618.2407 1050.0078 4138.1045 6123915
3656.3574 1053.9056 4153.4653 5860741
3698.9719 1059.0388 4173.6953 5663361
3725.084 1059.4103 4175.1597 5466238
3753.8403 1060.524 4179.5488 5532030
3790.4797 1063.8354 4192.5991 5597823
3819.2251 1064.9026 4196.8047 5532030
3852.8022 1067.2943 4206.231 5597823
3896.0022 1072.304 4225.9736 5597822
3989.269 1090.9409 4299.4224 5531775
4033.4495 1096.0024 4319.3701 5136502
4036.7361 1089.9584 4295.5503 4741744
4087.0393 1096.6053 4321.7461 4215402
4111.8164 1096.363 4320.7915 5070453
4073.0515 1079.2864 4253.4917 5268088
4116.9702 1084.1948 4272.8359 5202295
4146.1177 1085.177 4276.7065 4939123
0 0 0 0
0 0 0 0
0 0 0 0
0 0 0 0
0 0 0 0
0 0 0 0
0 0 0 0
-2733.4702 802.20752 3089.1606 5993355
-2712.0107 801.29169 3085.634 5927562
-2691.4053 800.61749 3083.0378 5862026
-2670.6826 799.89899 3080.271 5927562
-2652.4636 799.92548 3080.373 5861769
-2628.4993 798.20776 3073.7583 5861769
-2612.6077 798.93451 3076.5571 5730183
-2593.6177 798.71747 3075.7212 5927562
-2575.416 798.7417 3075.8147 5993355
-2558.5168 799.17334 3077.4766 5993612
-2540.0251 799.10992 3077.2327 5993355
-2523.1165 799.54742 3078.9172 5993355
-2507.4514 800.38824 3082.1548 5927562
-2494.0068 801.95532 3088.1897 5993355
-2475.4768 801.89838 3087.9702 5927819
-2458.1287 802.22626 3089.2332 5927562
-2444.0989 803.65021 3094.7163 5927562
-2425.0457 803.43146 3093.874 5993355
-2410.9133 804.85211 3099.3447 5927819
-2390.0825 804.04144 3096.2227 5927562
-2381.1577 807.25427 3108.5947 5993355
-2364.4578 807.86084 3110.9309 5927563
-2351.9521 809.92145 3118.8657 5927562
-2334.5813 810.32605 3120.4238 5861769
-2317.9138 810.98315 3122.9543 5861769
-2302.9241 812.2428 3127.8047 5927819
-2286.4272 812.98688 3130.6702 5861769
-2269.2524 813.50018 3132.6467 5927562
-2255.2964 815.18536 3139.1362 5993355
-2239.7161 816.3067 3143.4543 5993612
-2222.6072 816.88519 3145.6819 6190734
-2207.0139 818.0351 3150.1101 6124941
-2193.6047 820.0213 3157.7585 6256527
-2183.0774 823.1283 3169.7229 6256784
-2172.3115 826.19867 3181.5464 6322833
-2157.4563 827.75397 3187.5356 6257297
-2142.8162 829.42004 3193.9517 6257041
-2132.9087 832.96423 3207.5996 6125454
-2122.1812 836.24915 3220.2493 6125454
-2107.5227 838.03088 3227.1101 6125454
-2094.9392 840.67786 3237.3035 6059662
-2078.6179 841.86011 3241.8562 5928332
-2064.3281 843.89508 3249.6921 5796489
-2046.681 844.58295 3252.3411 5664903
-2027.8168 844.77686 3253.0879 5664903
-2003.7548 842.78833 3245.4302 5730696
-1983.7262 842.47418 3244.2205 5664904
-1960.3658 840.72485 3237.4844 5665160
-1937.251 839.04724 3231.0242 5730696
-1917.9163 838.98969 3230.8025 5730953
-1900.0939 839.59924 3233.1497 5796746
-1877.9106 838.27454 3228.0486 5862282
-1854.6256 836.4256 3220.9287 5730696
-1835.3997 836.38782 3220.7832 5730696
-1812.7944 834.79321 3214.6426 5796489
-1796.0284 835.88214 3218.8357 5730696
-1775.3083 835.1344 3215.9563 5796490
-1752.9214 833.5777 3209.9619 5796490
-1732.6566 833.00714 3207.7649 5796746
-1710.3756 831.44366 3201.7441 5862282
-1690.2123 830.88611 3199.5969 5993868
-1667.8701 829.23254 3193.2295 5862539
-1647.5164 828.54089 3190.5662 5862539
-1627.0892 827.79584 3187.697 5796746
-1610.7416 829.13318 3192.8467 5730696
-1598.9585 832.88 3207.2751 5730953
-1580.8185 833.36597 3209.1465 5862282
-1560.5768 832.74237 3206.7451 5928332
-1541.6813 832.83063 3207.085 5993868
-1525.3262 834.31061 3212.7839 6059918
-1507.3046 834.90491 3215.0728 6059918
-1487.9132 834.74615 3214.4612 6059918
-1473.4688 837.39453 3224.6599 6059661
-1460.6509 841.04944 3238.7341 5862539
-1444.8875 843.08325 3246.5659 6323090
-1414.4926 836.5191 3221.2886 6191247
-1394.7786 836.1781 3219.9756 6125710
-1371.151 833.44879 3209.4656 6125709
-1349.8589 832.08215 3204.2026 6059917
-1331.1553 832.29468 3205.0212 5994124
-1312.6605 832.646 3206.374 5993868
-1291.8903 831.54297 3202.1262 5928075
-1271.411 830.59705 3198.4839 5862282
-1250.9655 829.64478 3194.8169 5862282
-1236.1105 832.42798 3205.5344 5730953
-1216.4349 832.00134 3203.8914 5730696
-1198.567 832.81696 3207.0322 5796489
-1181.0771 833.92596 3211.3027 5862282
-1166.2152 836.95734 3222.9761 5862794
-1143.3353 834.23962 3212.5107 5928330
-1124.0182 834.07343 3211.8706 5928330
-1107.3008 835.86377 3218.7651 5994123
-1087.8329 835.60437 3217.7664 5862538
-1066.0072 833.49219 3209.6326 5862792
-1047.7942 834.17926 3212.2783 5796999
-1029.0089 834.42767 3213.2351 5730436
-1010.0101 834.50916 3213.5486 5862022
-991.77411 835.23608 3216.3481 5862022
-972.62994 835.21185 3216.2546 5796742
-953.35889 835.07544 3215.7292 5796999
-934.66241 835.44696 3217.1602 5862535
-916.75519 836.55432 3221.4243 5862537
-899.01764 837.86707 3226.4792 5862793
-880.63739 838.62482 3229.3975 5928330
-863.64093 840.76361 3237.6335 6059916
-846.27008 842.62708 3244.8093 6060173
-829.98303 845.6817 3256.5723 6059916
-812.25214 847.37604 3263.0969 6060174
-794.15515 848.76184 3268.4333 6060174
-777.43848 851.72943 3279.8611 6060174
-759.83527 853.85352 3288.0405 5928588
-743.07324 857.05988 3300.3877 5797002
-725.01819 858.90833 3307.5056 5862282
-708.19873 862.36432 3320.814 5796490
-691.10211 865.67133 3333.5486 5664903
-672.01538 866.60718 3337.1526 5664904
-655.36157 870.8327 3353.4246 5664903
-637.5296 873.70886 3364.4998 5796489
-618.36749 874.88916 3369.0452 5862538
-599.30048 876.28754 3374.4299 5862538
-579.56024 876.7644 3376.2661 5862793
-556.46368 872.01575 3357.98 5468036
-538.52264 875.2934 3370.6018 5073279
-518.03815 874.5307 3367.6646 5533573
-501.60846 880.82684 3391.9099 5665159
-482.03644 881.90118 3396.0471 5796744
-462.76309 883.63989 3402.7424 5665415
-440.26233 879.09308 3385.2336 5467779
-418.95584 876.60974 3375.6707 5533572
-400.33261 879.77332 3387.853 5599366
-382.26416 884.55573 3406.2693 5665158
-362.60437 885.98462 3411.7717 5862538
-342.66382 886.85638 3415.1287 5993868
-323.30161 889.42883 3425.0347 5994125
-305.12421 895.82544 3449.667 6059918
-283.82315 893.31232 3439.9893 6191245
-264.18292 896.04205 3450.5012 2636107
-245.88913 904.18231 3481.8479 792357
-223.46457 897.23328 3455.0881 1385529
-199.85449 883.63611 3402.728 5598594
-182.14432 896 3450.3394 5928587
-161.67798 896.2229 3451.1975 6060173
-141.51152 898.41461 3459.6372 5994380
-121.08189 899.39636 3463.418 6059916
-100.79091 902.02148 3473.5266 5994123
-80.157425 902.14386 3473.998 5862537
-59.501549 902.01178 3473.4895 5797001
-38.87862 902.50433 3475.3862 5927817
-18.218084 902.25104 3474.4106 6059660
2.4299946 901.67914 3472.2087 5994123
23.09926 902.95874 3477.136 6059916
43.859146 904.89954 3484.6096 5797001
64.612007 905.49683 3486.9099 5731208
85.330963 905.44427 3486.7075 5796744
106.1261 906.06262 3489.0889 5862794
127.30233 909.20062 3501.1726 6125453
147.95461 908.2406 3497.4756 6059404
168.92297 909.21838 3501.241 5993610
190.01501 910.5744 3506.4626 6125196
210.95221 910.99347 3508.0767 5993867
233.2482 916.67755 3529.9648 6059660
254.20341 916.58899 3529.6235 6125197
274.98288 915.92834 3527.0798 6190989
295.81818 915.53418 3525.562 6190989
318.87164 921.60321 3548.9326 5072506
340.68689 923.56244 3556.4773 4020077
362.21313 924.55499 3560.2996 5466752
385.34689 929.31476 3578.6284 5993352
406.93488 930.0437 3581.4355 6322574
425.75012 924.67822 3560.7739 5927816
448.02142 926.9715 3569.605 5993611
469.0509 926.60425 3568.1909 6125196
490.1387 926.37897 3567.3232 6125198
511.61475 926.87567 3569.2361 6190991
533.28723 927.67468 3572.3127 6190991
555.42993 929.1991 3578.1831 6125198
577.04333 929.75824 3580.3362 6124941
597.79163 928.93329 3577.1594 6190734
619.17352 929.11578 3577.8623 6256527
640.20172 928.77289 3576.542 6256783
660.00446 926.73157 3568.6809 6256783
682.25073 928.14142 3574.1101 6388113
704.16486 929.02802 3577.5242 6322320
726.39447 930.26654 3582.2937 6322320
747.80292 930.4129 3582.8574 6322577
769.5152 930.91876 3584.8052 5927818
790.28668 930.28986 3582.3833 6059403
813.41492 932.39539 3590.4915 6322575
835.86023 933.63055 3595.248 6454161
859.0271 935.5899 3602.7932 6322832
882.38245 937.65442 3610.7429 6322832
907.24866 941.18811 3624.3506 6322832
929.27856 941.68384 3626.2595 6388368
951.76306 942.60724 3629.8154 6322319
976.3092 945.48627 3640.9021 6190990
1002.2316 949.54443 3656.5293 5796231
1024.3555 949.90771 3657.9285 5401474
1045.8113 949.64935 3656.9336 5862024
1069.1038 951.03528 3662.2705 5993611
1091.8068 951.85205 3665.4158 5993611
1114.6443 952.75189 3668.8809 5927817
1133.6842 950.43341 3659.9529 5862281
1157.0548 951.76459 3665.0789 5796232
1177.6937 950.841 3661.5225 5862025
1199.7477 951.07263 3662.4143 5993354
1222.2736 951.66364 3664.6899 5927817
1243.2854 951.0755 3662.4253 5862025
1268.3151 953.52832 3671.8708 5664390
1288.6191 952.40558 3667.5474 5730183
1307.7836 950.49194 3660.178 5730183
1330.1511 950.93073 3661.8679 5795976
1350.149 949.68866 3657.085 5730438
1370.6687 948.84711 3653.8442 5598852
1394.1448 950.04645 3658.4626 5598852
1416.0507 950.15552 3658.8826 5664645
1436.6482 949.39648 3655.9597 5927047
1456.2495 948.0116 3650.627 5860997
1480.2158 949.46729 3656.2324 5861254
1498.2533 947.13281 3647.2429 5927047
1520.7675 947.65472 3649.2524 5729668
1544.9142 949.16479 3655.0676 5663874
1564.4421 947.83472 3649.9456 5861252
1587.3264 948.54669 3652.6873 5861252
1608.0013 947.93689 3650.3391 5663617
1629.5344 947.84259 3649.9761 5729408
1650.4995 947.4248 3648.3669 5795200
1671.8423 947.23175 3647.6238 5663614
1692.9651 946.92065 3646.4255 5532285
1716.009 947.67822 3649.343 5532283
1744.0775 951.15729 3662.7402 5531769
1765.0577 950.73248 3661.1042 5202802
1782.7819 948.58545 3652.8364 4544101
1806.7561 949.77557 3657.4197 4214361
1876.7067 974.81897 3753.8574 1580835
1892.684 971.56805 3741.3386 131844
1895.2322 961.57916 3702.873 1
1925.5734 965.75879 3718.9683 0
1937.301 960.6142 3699.1572 0
1950.967 956.53528 3683.45 0
1964.8365 952.64557 3668.4714 0
1981.3485 950.1084 3658.7012 0
1993.7546 945.67883 3641.6438 0
2015.5601 945.75482 3641.9363 0
2019.3376 937.45978 3609.9937 0
2038.3883 936.35522 3605.74 0
2056.4597 934.82843 3599.8606 0
2073.1787 932.72461 3591.759 2
2040.6235 908.72101 3499.3257 2
2051.9778 904.55817 3483.2952 2
2131.7715 930.3468 3582.6025 2
2064.7312 892.1778 3435.6206 4
2087.0447 892.98822 3438.7415 4
2191.8984 928.75732 3576.4819 4
2211.8572 928.21283 3574.3853 4
2230.5872 927.16791 3570.3616 4
2250.9453 926.81311 3568.9951 4
2275.8677 928.32672 3574.8237 5
2303.8704 931.05713 3585.3379 5
2333.4683 934.37622 3598.1191 5
2360.4585 936.6004 3606.6841 5
2384.0125 937.43329 3609.8916 6
2411.0598 939.61267 3618.2839 7
2450.1179 946.39301 3644.3938 9
2488.8909 952.94525 3669.6252 9
2547.3713 966.86365 3723.2227 521
2607.9568 981.33447 3778.9473 7
2600.9038 970.32416 3736.5483 11
2629.7852 972.79285 3746.0549 524
2652.9468 973.12213 3747.323 524
2668.2217 970.57709 3737.5225 1648691
2677.5632 965.93347 3719.6409 3361115
2708.241 969 3731.4495 4545905
2719.3342 965.06641 3716.3018 5532290
2758.2859 971.00323 3739.1636 5729670
2791.8225 974.9541 3754.3777 5926793
2818.4421 976.44586 3760.1223 5861002
2848.4963 979.09485 3770.323 5992588
2878.6538 981.73761 3780.4995 6058380
2909.2834 984.49921 3791.134 6124173
2941.6038 987.78607 3803.7913 6124430
2974.9026 991.34894 3817.511 6189966
3007.1189 994.49982 3829.6448 6189966
3040.8835 998.11157 3843.553 6256016
3077.7327 1002.6743 3861.1233 6255759
3106.1226 1004.4341 3867.9001 6387345
3142.2417 1008.649 3884.1309 6321552
3175.1968 1011.7943 3896.2427 6321553
3208.5442 1015.0182 3908.6572 6321552
3237.6951 1016.8776 3915.8176 6256016
3264.2354 1017.8964 3919.741 6321552
3305.1958 1023.3656 3940.802 6124430
3327.5771 1023.0458 3939.5703 6255500
3363.1382 1026.7543 3953.8508 6189707
3400.0347 1030.8159 3969.4919 6321294
3428.874 1032.3959 3975.5759 6321550
3457.178 1033.7942 3980.9602 6321550
3493.5706 1037.5756 3995.522 6189707
3523.4478 1039.3839 4002.4858 6123914
3561.5068 1043.5654 4018.5881 5926535
3590.1685 1044.9561 4023.9431 5926534
3611.8508 1044.3104 4021.4568 5860742
3639.4744 1045.3798 4025.5745 5729412
3668.199 1046.7491 4030.8479 5663363
3697.6089 1048.2953 4036.8015 5597569
3775.6384 1063.5164 4095.4153 5531776
3763.0579 1053.1831 4055.6238 5465983
3805.7224 1058.3447 4075.5002 5334397
3838.9119 1060.8228 4085.0425 5334654
3891.092 1068.4843 4114.5459 4873847
3926.4475 1071.4591 4126.0015 5136504
3948.917 1070.9025 4123.8579 5202296
3969.0315 1069.7179 4119.2964 5268089
4025.5862 1078.309 4152.3789 5202296
0 0 0 0
0 0 0 0
0 0 0 0
0 0 0 0
0 0 0 0
0 0 0 0
0 0 0 0
-2690.9709 807.80939 3041.1311 5862026
-2669.9441 806.91718 3037.772 5730183
-2647.0508 805.44482 3032.229 5664391
-2627.3806 804.93982 3030.3279 5598597
-2607.9092 804.48901 3028.6309 5664390
-2590.8462 804.78015 3029.7268 5664390
-2569.5791 803.76044 3025.8877 5730183
-2553.2104 804.2691 3027.803 5795977
-2534.9919 804.19824 3027.5364 5861770
-2516.8904 804.16382 3027.4065 6059148
-2501.2852 804.93219 3030.2993 6059148
-2483.9197 805.14124 3031.0862 6059149
-2465.6558 805.05988 3030.78 6059148
-2449.0989 805.53876 3032.5828 5927819
-2430.2776 805.27448 3031.5879 5993355
-2414.5222 806.02972 3034.4312 5993355
-2399.1045 806.90991 3037.7446 5993355
-2383.2634 807.65997 3040.5684 5927819
-2366.3223 808.04584 3042.021 5927562
-2350.7476 808.90784 3045.2661 5993355
-2336.7991 810.34711 3050.6846 5927819
-2324.573 812.41095 3058.4541 5861769
-2309.9941 813.67853 3063.2263 5861769
-2292.1001 813.78925 3063.6431 5927562
-2276.9021 814.86658 3067.6987 5861770
-2261.2402 815.79401 3071.1902 5993355
-2242.8501 815.74414 3071.0024 5927562
-2228.0537 817.01129 3075.7729 5927562
-2215.3281 819.06506 3083.5046 5993355
-2201.3562 820.68848 3089.6162 5993355
-2186.073 821.84613 3093.9744 5927819
-2171.4297 823.26611 3099.3201 6059405
-2156.5278 824.61145 3104.385 6125198
-2147.6465 828.30206 3118.2788 6256784
-2136.0576 831.0036 3128.4492 6191246
-2130.4036 836.0816 3147.5664 6125454
-2106.752 834.12402 3140.1965 6191247
-2091.1748 835.35681 3144.8376 5993868
-2081.7109 839.07593 3158.8389 5928075
-2064.1897 839.58539 3160.7571 5862282
-2050.1707 841.54205 3168.123 5730953
-2038.129 844.35394 3178.7087 5730953
-2021.1721 845.16315 3181.7554 5796489
-2002.421 845.23041 3182.0083 5730696
-1983.6545 845.29224 3182.2412 5730696
-1959.4646 843.02203 3173.6946 5796489
-1937.864 841.83258 3169.2166 5796489
-1915.1829 840.14569 3162.8662 5862283
-1895.2948 839.66278 3161.0481 5796489
-1878.468 840.53998 3164.3503 5796490
-1858.9136 840.20203 3163.0781 5796489
-1838.8187 839.61047 3160.8513 5599111
-1818.2477 838.78705 3157.7512 5730696
-1802.6562 840.26752 3163.3247 5730696
-1778.4167 837.70557 3153.6799 5796489
-1769.0793 842.18341 3170.5374 5862282
-1738.5978 836.58344 3149.4556 5796746
-1716.7079 835.04071 3143.6475 5796490
-1697.2802 834.6748 3142.2703 5928075
-1676.6135 833.68475 3138.543 5928075
-1654.681 832.03595 3132.3359 5862282
-1635.21 831.60138 3130.6997 5928332
-1616.5529 831.57556 3130.6025 5928075
-1596.2262 830.68036 3127.2322 5928075
-1577.6501 830.68555 3127.252 5928075
-1558.9824 830.64227 3127.0889 5862282
-1542.3586 831.70001 3131.071 5993868
-1526.0438 832.95227 3135.7854 5993868
-1508.3893 833.49518 3137.8291 5993868
-1490.9884 834.1936 3140.4585 5993868
-1475.0775 835.75391 3146.3325 5862283
-1458.8636 837.18048 3151.7031 5928075
-1441.9259 838.22327 3155.6289 5862282
-1425.0283 839.3172 3159.7473 5862282
-1403.0221 837.39142 3152.4973 5928075
-1384.6383 837.60468 3153.3003 5993868
-1370.7936 840.6073 3164.604 5993868
-1350.7781 839.85675 3161.7783 5994125
-1329.7349 838.43695 3156.4333 5993868
-1311.7343 838.92242 3158.2612 5993868
-1292.0012 838.29803 3155.9104 5862282
-1271.9937 837.47449 3152.8101 5928075
-1252.1346 836.72552 3149.9905 5862282
-1232.8932 836.37286 3148.6626 5928075
-1214.3506 836.49048 3149.1057 5796746
-1196.1844 836.87543 3150.5547 5796489
-1178.2186 837.41486 3152.5857 5862282
-1159.9602 837.7605 3153.8867 5928332
-1140.3253 837.10687 3151.426 5993868
-1122.4385 837.73621 3153.7954 6059661
-1103.9626 837.93982 3154.562 5993868
-1085.3257 838.026 3154.8865 5994125
-1067.3934 838.66901 3157.3071 5994380
-1047.6569 837.89191 3154.3816 5994123
-1028.9017 837.88586 3154.3586 5862794
-1011.0863 838.65887 3157.269 5797258
-994.12317 840.18158 3163.0012 5797258
-974.73505 839.67383 3161.0898 5928844
-956.65851 840.29834 3163.4409 5928587
-938.35431 840.74384 3165.1179 5862794
-920.4386 841.56281 3168.2009 5993868
-902.43842 842.3371 3171.116 6125198
-884.23608 842.95166 3173.4297 6059918
-865.76782 843.33398 3174.8689 6059917
-848.88928 845.31635 3182.332 5994638
-831.242 846.6062 3187.1877 6060174
-814.70441 849.11279 3196.6243 6126224
-797.23822 850.74811 3202.7808 6125967
-779.99792 852.71039 3210.168 6060174
-762.67249 854.67554 3217.5664 5862796
-746.21838 857.74347 3229.116 5797002
-731.01953 862.45428 3246.8506 5797002
-712.27509 863.12402 3249.3718 5862539
-693.88245 864.26935 3253.6836 5994125
-676.69287 867.02173 3264.0454 6125454
-659.83435 870.37335 3276.6631 6059661
-641.70715 872.20435 3283.5562 5993868
-622.78033 873.02924 3286.6616 5928075
-605.85913 876.81018 3300.8958 5928332
-588.30652 879.89978 3312.5271 5928075
-568.67236 879.9823 3312.8379 5994379
-545.43256 874.2912 3291.4126 5665415
-529.93988 881.05676 3316.8826 3163475
-511.24081 882.80823 3323.4763 2966871
-490.97183 881.88055 3319.9841 4216939
-471.89072 883.09839 3324.5686 2901593
-449.27863 877.52588 3303.5898 5138555
-431.73145 881.78882 3319.6387 5204607
-412.41418 882.67169 3322.9622 6125709
-393.82446 885.27875 3332.7771 5862793
-374.65338 886.78595 3338.4512 5730951
-355.25757 887.90009 3342.6453 5335938
-337.49368 893.46637 3363.6006 5993868
-318.08395 895.10229 3369.7593 6059661
-298.70139 897.03955 3377.0522 6191502
-277.89734 894.67938 3368.1672 6191759
-258.05661 895.29498 3370.4849 6191246
-235.6405 886.32739 3336.7249 5796488
-217.56116 893.52277 3363.8127 5928074
-197.47495 893.09796 3362.2139 5993867
-178.72478 899.30023 3385.5632 5862537
-159.21953 902.79492 3398.7195 5796489
-139.04482 902.95752 3399.3315 5730696
-118.94522 903.74622 3402.301 5533829
-98.769615 904.16229 3403.8672 5204607
-78.828453 907.49158 3416.4006 5664645
-58.518414 907.41107 3416.0977 5730695
-38.186195 906.71826 3413.4897 5862281
-17.921488 907.87549 3417.8459 5994123
2.3919067 907.85931 3417.7852 6191502
22.736418 909.11615 3422.5168 6059916
43.282951 913.44958 3438.8308 5796744
63.594818 911.63928 3432.0154 5862537
84.036697 912.11926 3433.8225 5862794
104.46939 912.33148 3434.6216 5928587
124.97796 913.02863 3437.2461 6059660
145.25194 912.05688 3433.5876 6191246
165.91374 913.45978 3438.8691 6256782
186.6837 915.08514 3444.9878 6190989
207.39169 916.11548 3448.8667 5927817
227.74907 915.5509 3446.7415 5730438
248.58611 916.84863 3451.627 5927817
269.28241 917.46906 3453.9626 6125453
289.96475 917.95734 3455.801 6256524
310.76117 918.71838 3458.6658 6257038
335.17764 929.42303 3498.9653 3492959
349.88153 913.51813 3439.0886 5861507
373.67972 921.80298 3470.2783 5006198
394.93539 923.2771 3475.8281 5203322
416.01859 924.22168 3479.384 6191244
437.85724 926.67548 3488.6218 6191246
459.02133 927.54449 3491.8933 6190991
479.10562 926.25061 3487.0225 6124941
500.11523 926.77881 3489.011 6190734
521.38196 927.72253 3492.5635 6124941
542.67554 928.63983 3496.0168 6059405
564.39771 930.19586 3501.875 6059148
585.1698 930.13116 3501.6311 6059405
606.2583 930.5564 3503.2322 6124941
627.19611 930.72986 3503.8853 6256527
647.88336 930.53235 3503.1416 6256527
668.09167 929.6806 3499.9351 6257040
691.16602 932.74811 3511.4832 6322833
712.0152 932.72095 3511.3809 6257041
735.16364 935.6214 3522.3003 6322575
757.20508 936.99152 3527.4583 6387599
782.10614 941.73096 3545.3005 1384752
