# .PCD v0.7 - Point Cloud Data file format
VERSION 0.7
FIELDS x y z rgb
SIZE 4 4 4 4
TYPE F F F U
COUNT 1 1 1 1
WIDTH 1296
HEIGHT 1
VIEWPOINT 0 0 0 1 0 0 0
POINTS 1296
DATA ascii
-1784.0961 934.43683 2193.0078 5138302
-1771.6045 934.72296 2193.6792 5072508
-1758.8464 934.87152 2194.0281 5204094
-1741.4795 932.55444 2188.5901 5335681
-1728.8418 932.75391 2189.0583 5664646
-1716.4683 933.10022 2189.8708 5533318
-1703.4525 933.09985 2189.8701 5533574
-1692.0995 934.01727 2192.0232 5467524
-1679.8662 934.45941 2193.0608 5401731
-1666.5581 934.30579 2192.7002 5401731
-1653.7502 934.43237 2192.9973 5270146
-1641.1823 934.69757 2193.6199 5401731
-1629.3203 935.37244 2195.2036 5401731
-1615.3937 934.86334 2194.0088 5467524
-1603.2827 935.40521 2195.2805 5467524
-1590.8042 935.73993 2196.0659 5467524
-1578.5366 936.20496 2197.1575 5401731
-1566.1434 936.60291 2198.0913 5467781
-1553.5348 936.8775 2198.7358 5401988
-1542.6208 938.18744 2201.8101 5467525
-1529.7131 938.29694 2202.0669 5664903
-1516.0857 937.96301 2201.2832 5664904
-1502.8951 937.89575 2201.1255 5599110
-1490.1384 938.10065 2201.6062 5599110
-1478.6813 939.1344 2204.0325 5467524
-1466.1121 939.47412 2204.8296 5204609
-1455.0806 940.81415 2207.9746 5467524
-1440.3827 939.7865 2205.5627 5467524
-1427.061 939.64618 2205.2334 5599111
-1416.6031 941.40613 2209.364 5664903
-1401.5349 940.10681 2206.3145 5533319
-1394.9911 944.55475 2216.7532 5467525
-1377.891 941.87158 2210.4563 5533318
-1366.4474 943.04065 2213.2 5467524
-1356.8202 945.49817 2218.9673 5467525
-1347.5944 948.28638 2225.511 5401731
-1336.0103 949.45392 2228.251 5665160
-1322.689 949.39789 2228.1196 5730696
-1309.8326 949.67792 2228.7766 5862282
-1299.9762 952.16083 2234.6038 5928077
-1285.9436 951.60468 2233.2986 5928077
-1273.8508 952.4873 2235.3701 5993870
-1261.7465 953.37994 2237.4648 5862284
-1249.2535 953.99463 2238.9075 5796491
-1236.2878 954.25781 2239.5251 5928077
-1222.993 954.26984 2239.5535 5730955
-1210.2185 954.69257 2240.5457 5664905
-1197.9619 955.53784 2242.5293 5533319
-1186.2893 956.87323 2245.6633 5599369
-1172.6508 956.63525 2245.1047 5599112
-1160.4487 957.57697 2247.3149 5467527
-1147.3676 957.80701 2247.8547 5467526
-1135.3905 958.97485 2250.5955 5401733
-1123.3772 960.13959 2253.3289 5335940
-1111.2485 961.23267 2255.8943 5335940
-1098.3922 961.71539 2257.0271 5401733
-1086.3209 962.90576 2259.8208 5401733
-1075.7014 965.42896 2265.7424 5665162
-1062.906 966.03845 2267.1729 5797004
-1049.5669 966.16315 2267.4656 5928590
-1038.912 968.79419 2273.6404 5994383
-1027.2249 970.51923 2277.6887 5994640
-1014.5115 971.30792 2279.5398 5928847
-1001.6794 972.00269 2281.1702 5862797
-988.96545 972.83276 2283.1184 5797004
-974.68311 972.12164 2281.4495 5862797
-961.86993 972.87653 2283.2209 5862798
-949.96881 974.58856 2287.239 5928591
-936.91058 975.14606 2288.5474 5862798
-924.74268 976.66028 2292.1011 5862797
-912.13501 977.74829 2294.6545 5731468
-898.88507 978.17059 2295.6455 5731211
-886.2373 979.27118 2298.2285 5731211
-872.31409 978.97498 2297.5332 5468039
-859.03271 979.40082 2298.5327 5533832
-845.99725 980.12555 2300.2336 5731211
-833.26392 981.2298 2302.8252 5862798
-822.11163 984.26379 2309.9456 6060176
-808.61206 984.54297 2310.6006 5862797
-799.85797 990.70941 2325.0728 5797002
-788.03339 993.2229 2330.9714 5731466
-775.59418 995.03766 2335.2305 5928589
-764.57172 998.76929 2343.988 5534087
-749.24158 996.90778 2339.6194 5467780
-744.66486 1009.5546 2369.2998 4875899
-725.65991 1002.7512 2353.3333 5401730
-707.86285 997.38232 2340.7332 5533572
-696.76764 1001.4305 2350.2336 5467779
-683.48737 1002.4395 2352.6016 5401472
-671.09406 1004.8187 2358.1853 5335423
-657.62268 1005.6508 2360.1382 5334909
-644.474 1007.0234 2363.3594 5072248
-631.86005 1009.3113 2368.7288 4874612
-618.94958 1011.2191 2373.2063 3821409
-603.52264 1009.0086 2368.0186 3360601
-589.41064 1008.9434 2367.8655 3426137
-572.75348 1004.4118 2357.2305 3163223
-556.05896 999.58575 2345.9043 4742769
-539.48688 994.73724 2334.5254 4677490
-528.13507 999.51221 2345.7317 4809591
-511.19095 993.67554 2332.0337 5533573
-495.34454 989.70685 2322.7197 5928075
-484.23523 995.2467 2335.7212 6059661
-470.71692 996.0163 2337.5271 5796490
-458.55862 999.79785 2346.4021 3428197
-445.4682 1001.7206 2350.9146 5204864
-431.10989 1000.8245 2348.8115 5533572
-416.32559 998.84637 2344.1689 5664645
-401.69397 997.11023 2340.0945 5467525
-386.96832 995.00769 2335.1602 6059662
-374.24219 998.08148 2342.374 6060174
-360.81412 999.44836 2345.5818 5863054
-347.17047 1000.304 2347.5898 5928591
-333.84979 1002.2008 2352.0415 5994640
-320.6637 1004.6851 2357.8718 6191763
-307.02441 1005.9116 2360.7502 6257556
-293.491 1007.6191 2364.7576 6257811
-279.88098 1009.222 2368.5195 6191762
-266.44495 1011.6555 2374.2305 6125969
-252.8206 1013.606 2378.8081 6191248
-238.96289 1014.7966 2381.6023 6059661
-225.16353 1016.4006 2385.3667 6059661
-211.23846 1017.6145 2388.2156 6125454
-197.04739 1017.6296 2388.251 6125457
-183.27829 1019.9955 2393.8032 6191249
-169.43913 1022.3367 2399.2979 6191506
-155.29733 1023.1144 2401.123 6257043
-141.2417 1024.6747 2404.7849 6191506
-127.00658 1025.1377 2405.8713 6060433
-112.79209 1025.9055 2407.6736 6125969
-98.559311 1026.7063 2409.5527 6060433
-84.245796 1026.795 2409.761 5994640
-69.932213 1026.9192 2410.0525 5862797
-55.657429 1027.824 2412.1758 5665161
-41.203995 1024.9126 2405.3433 5401732
-26.880283 1023.8489 2402.8469 4546165
-12.706416 1032.5503 2423.2681 4743028
1.701966 1036.2419 2431.9319 4414063
16.099298 1032.6194 2423.4302 5532803
30.436321 1030.3763 2418.166 5795976
44.885815 1032.1584 2422.3484 6059661
59.610657 1037.869 2435.7505 6191247
74.288139 1040.6846 2442.3579 6125713
88.734673 1039.873 2440.4536 6125712
103.52892 1042.792 2447.304 6190991
118.25241 1044.3669 2451 6191246
132.43375 1041.3331 2443.8804 6191758
146.40315 1037.3975 2434.6438 6323344
161.27266 1039.9742 2440.6912 6192271
174.79515 1034.1562 2427.0369 6455442
0 0 0 0
206.02473 1046.2432 2455.4036 6520722
221.00578 1048.082 2459.719 6257294
235.70706 1048.4482 2460.5784 6191246
250.28568 1048.2578 2460.1316 6191503
265.23883 1049.5706 2463.2124 6257040
280.10071 1050.4036 2465.1675 6191247
295.0199 1051.3582 2467.4077 6191504
310.04825 1052.5929 2470.3054 6191504
325.93195 1056.4885 2479.448 6125711
340.59354 1056.2571 2478.905 5861769
360.39075 1071.3113 2514.2351 5730695
371.87515 1061.4396 2491.0674 5400961
386.27606 1060.3295 2488.4622 4808821
404.35635 1069.0289 2508.8787 4414316
416.91 1063.0178 2494.7715 4741995
432.85892 1065.7794 2501.2527 2766919
448.23364 1066.991 2504.0959 726560
462.97794 1066.672 2503.3474 518
478.7608 1068.6913 2508.0864 518
490.72101 1062.3134 2493.1182 66569
506.57404 1064.4894 2498.2251 2832447
524.13605 1070.0305 2511.2295 791320
540.7644 1073.4115 2519.1641 262
556.47876 1074.8448 2522.5281 260
571.67487 1075.2283 2523.428 260
586.42114 1074.7677 2522.3469 259
602.29883 1076.3518 2526.0647 257
617.01343 1075.8311 2524.8425 258
633.18091 1077.8082 2529.4827 4
648.91162 1078.9673 2532.2029 260
664.03461 1079.0862 2532.4822 260
680.87555 1081.9298 2539.1558 67080
696.63995 1082.9766 2541.6123 725784
712.35156 1083.8986 2543.7761 133392
727.02405 1083.234 2542.2166 3092
739.50336 1079.3951 2533.2073 2307142
749.01294 1071.4615 2514.5879 5861511
769.57422 1079.3384 2533.0737 5928075
787.19788 1082.8719 2541.3667 5993355
803.51257 1084.5056 2545.2007 5927819
820.1189 1086.4653 2549.8 5927563
836.0686 1087.5 2552.228 5927562
852.55695 1089.1858 2556.1846 5927562
868.80017 1090.5049 2559.2803 5796233
885.29718 1092.0918 2563.0044 5795976
901.50098 1093.2692 2565.7678 5861769
915.74957 1092.0759 2562.9673 5861769
933.94904 1095.5562 2571.135 5730183
944.14465 1089.6866 2557.3599 4940667
961.61444 1092.2657 2563.4126 5335426
979.72205 1095.4774 2570.9502 5532804
995.73676 1096.2863 2572.8484 5598597
1010.5634 1095.7823 2571.6658 5664390
1026.3181 1096.2849 2572.8452 5598598
1043.7842 1098.5739 2578.217 5598597
1056.9023 1096.2865 2572.8491 5598598
1071.5212 1095.5991 2571.2356 5598598
1086.9442 1095.7413 2571.5696 5795976
1110.3281 1103.7939 2590.468 5072253
1118.7843 1096.9891 2574.498 5532804
1134.8301 1097.7095 2576.1887 5730183
1147.6973 1095.3771 2570.7146 5730440
1163.2311 1095.6174 2571.2786 5730184
1179.3965 1096.4387 2573.2061 5927563
1196.0009 1097.6416 2576.0293 5927562
1210.4901 1096.8977 2574.2834 5861769
1225.6205 1096.7461 2573.9277 5795978
1240.4365 1096.3203 2572.9285 5795978
1254.5646 1095.3043 2570.5439 5861772
1268.9294 1094.517 2568.6963 5993357
1284.978 1095.1835 2570.2603 5993357
1300.0614 1095.0212 2569.8796 6059407
1314.7064 1094.4979 2568.6514 6125200
1328.0814 1092.9414 2564.9983 6124943
1343.0293 1092.7 2564.4316 6124943
1358.2427 1092.6775 2564.3789 6190993
1375.4633 1094.2524 2568.0752 6124944
1391.657 1094.9847 2569.7937 5993358
1407.1057 1095.1213 2570.1145 6059150
1420.6268 1093.7709 2566.9451 5993613
1433.873 1092.2397 2563.3518 6124427
1452.5155 1094.8082 2569.3796 6124428
1467.2169 1094.3835 2568.3831 6058893
1475.7828 1089.4385 2556.7773 5993357
1494.9585 1092.3464 2563.6021 6124428
1507.5945 1090.4656 2559.188 6059405
1526.6169 1093.1954 2565.5947 6190220
1538.4982 1090.8082 2559.9922 6190221
1554.0762 1091.0631 2560.5903 6190221
1567.4562 1089.7849 2557.5906 6321806
1584.891 1091.3234 2561.2012 6387599
1600.4639 1091.5625 2561.7625 6453392
1615.2302 1091.2524 2561.0347 6387599
1634.2438 1093.7908 2566.9917 6387856
1649.5385 1093.816 2567.051 6387346
1664.62 1093.7008 2566.7808 6387345
1681.3962 1094.691 2569.1047 6387345
1697.3542 1095.1356 2570.1479 6387345
1711.448 1094.38 2568.3748 6387345
1727.6852 1094.9963 2569.8213 6453138
1740.3136 1093.3347 2565.9214 6453138
1759.1788 1095.5862 2571.2053 6453138
1772.8188 1094.5726 2568.8267 6387345
1793.1129 1097.6497 2576.0481 6453139
1803.6926 1094.7783 2569.3096 6518931
1823.1864 1097.3204 2575.2754 6453139
1837.6893 1096.8412 2574.1506 6518931
1856.1011 1098.6836 2578.4746 6518931
1874.4149 1100.4386 2582.5933 6321552
1890.8369 1101.0632 2584.0593 6124174
1903.5249 1099.5209 2580.4397 6255759
1918.8535 1099.5164 2580.4292 6518931
1934.3064 1099.5826 2580.5847 6453395
1949.2717 1099.3728 2580.0923 6387856
1962.2559 1098.0577 2577.0059 6452623
1968.072 1092.7827 2564.6262 3356750
1988.3384 1095.551 2571.1228 275
2005.7141 1096.6964 2573.8108 198170
2024.4299 1098.5514 2578.1646 989234
2034.6893 1095.8243 2571.7644 4148325
2049.218 1095.4202 2570.8157 2833234
2073.8213 1100.3676 2582.4268 4675439
2111.6555 1112.2109 2610.2217 3688288
2109.8237 1103.1418 2588.9375 3688033
2127.0354 1104.0889 2591.1602 3688546
2165.2607 1115.8517 2618.7661 2964823
2176.2217 1113.4965 2613.2385 4215659
2198.446 1116.8967 2621.2185 5070711
2205.3606 1112.5259 2610.9607 5597311
2229.7634 1116.9767 2621.4062 5860997
2252.6865 1120.6298 2629.9795 4480115
2261.5791 1117.3008 2622.1667 3426401
2276.1978 1116.8269 2621.0547 2768471
2282.0002 1112.0631 2609.8748 3820902
2299.8789 1113.209 2612.564 4544882
2298.6528 1105.1542 2593.6604 4939641
2304.269 1100.4744 2582.6775 5795205
2310.3865 1096.0945 2572.3984 6189709
2315.9312 1091.5021 2561.6206 6124172
2328.0447 1090.0455 2558.2021 5992330
2343.47 1090.1483 2558.4434 6124173
2356.509 1089.1469 2556.093 6189709
2373.6353 1090.0352 2558.178 6123917
2390.8992 1090.9751 2560.3838 5861001
2410.8518 1093.1223 2565.4229 5992330
2428.2417 1094.0876 2567.6885 5992330
2457.5027 1100.3563 2582.4004 6058380
2470.3928 1099.2626 2579.8335 6123916
2495.3281 1103.5092 2589.7996 6058124
2515.397 1105.5647 2594.6238 6124173
0 0 0 0
0 0 0 0
0 0 0 0
0 0 0 0
0 0 0 0
0 0 0 0
0 0 0 0
0 0 0 0
0 0 0 0
0 0 0 0
-1893.1936 943.38116 2183.5425 5532805
-1882.1052 944.32904 2185.7363 5730184
-1868.3491 943.94238 2184.8413 5730184
-1851.5299 941.99176 2180.3264 5730183
-1838.1167 941.75873 2179.7871 5927562
-1823.3788 940.83893 2177.6582 5861769
-1807.1251 939.11816 2173.6753 5796233
-1792.9978 938.48572 2172.2114 5795977
-1781.093 939.01581 2173.4382 5467012
-1762.3059 935.89862 2166.2234 5269887
-1752.4976 937.53906 2170.0203 5138302
-1742.877 939.30487 2174.1074 4875129
-1725.5989 936.93945 2168.6323 4809338
-1706.969 933.79877 2161.363 5467011
-1694.3589 933.92859 2161.6636 5467524
-1682.7688 934.62701 2163.28 5335938
-1671.3223 935.41656 2165.1074 5335939
-1660.3802 936.50281 2167.6218 5336195
-1647.4069 936.45135 2167.5027 5335938
-1634.7744 936.59454 2167.834 5335938
-1623.6569 937.61469 2170.1953 5335938
-1611.2189 937.88257 2170.8154 5401731
-1596.4844 936.80719 2168.3264 5467525
-1584.6893 937.45325 2169.8218 5533317
-1572.4434 937.841 2170.719 5533317
-1561.3353 938.91931 2173.2151 5533317
-1549.6921 939.69122 2175.0017 5335938
-1537.2169 939.96741 2175.6409 5335938
-1525.3048 940.59546 2177.0945 5467524
-1514.9666 942.21313 2180.8389 5401731
-1501.5151 941.90576 2180.1274 5467524
-1484.8716 939.57318 2174.7285 5401988
-1471.8311 939.49963 2174.5581 5467524
-1461.7688 941.34253 2178.8237 5401732
-1450.5269 942.45209 2181.3918 5533317
-1442.5905 945.7486 2189.022 5204609
-1424.1221 942.13763 2180.6641 5270402
-1412.7743 943.21423 2183.156 5335938
-1400.5981 943.75275 2184.4023 5401732
-1386.8456 943.22906 2183.1904 5533318
-1374.127 943.40533 2183.5984 5335938
-1362.87 944.59808 2186.3591 5335938
-1354.1013 947.55511 2193.2034 5401731
-1342.0709 948.26483 2194.8462 5072766
-1322.1311 943.34528 2183.4592 4612216
-1314.0645 946.88361 2191.6489 5599110
-1306.563 950.90399 2200.9546 5730696
-1296.2096 952.90924 2205.5959 5862283
-1282.6467 952.5719 2204.8152 5730955
-1270.8495 953.55231 2207.0845 5664905
-1255.2294 951.65497 2202.6929 5270148
-1246.5645 955.04633 2210.5425 5796491
-1234.5659 955.92859 2212.5845 5862284
-1222.5388 956.8075 2214.6189 5796748
-1209.6334 957.01074 2215.0894 5730699
-1198.0623 958.28564 2218.04 5665162
-1185.0182 958.39758 2218.2993 5664905
-1171.3328 957.98761 2217.3503 5664905
-1159.3682 958.99164 2219.6743 5599112
-1147.178 959.83014 2221.615 5401733
-1134.3494 960.14783 2222.3503 5270147
-1120.4548 959.56 2220.9897 5138562
-1110.3363 962.23053 2227.1709 5270147
-1098.0375 963.0531 2229.075 5401990
-1086.3276 964.41888 2232.2361 5467783
-1075.2568 966.3927 2236.8047 5599625
-1061.9402 966.37225 2236.7573 5731468
-1051.9137 969.38324 2243.7266 5863054
-1039.2106 969.97321 2245.092 5928590
-1028.1227 972.10577 2250.0281 5862797
-1016.6061 973.88385 2254.1436 5797004
-1004.3769 975.0177 2256.7681 5862797
-992.52893 976.55731 2260.3315 5665418
-979.60736 977.06836 2261.5144 5599625
-966.20166 977.104 2261.5969 5665418
-953.86133 978.23328 2264.2107 5665675
-940.07001 977.8855 2263.4058 5797261
-925.76166 976.98199 2261.3145 5797261
-912.50226 977.17505 2261.7615 5797003
-902.52124 980.93719 2270.4692 5665416
-889.27356 981.20917 2271.0989 5599624
-878.61377 984.38898 2278.4587 5468295
-864.41095 983.63666 2276.7175 5468295
-852.44958 985.4516 2280.9182 5402501
-840.53906 987.38477 2285.3928 5336451
-826.57507 986.92975 2284.3396 5467780
-811.90631 985.604 2281.271 5467779
-798.64874 985.9754 2282.1306 5336196
-787.38715 988.86633 2288.822 5467780
-777.74933 993.93396 2300.5515 5599622
-765.99457 996.42914 2306.3269 5533829
-753.01825 997.39746 2308.5681 5336194
-743.88031 1003.58 2322.8782 5533829
-732.83032 1007.368 2331.6458 5599366
-721.46027 1010.8536 2339.7136 5598850
-704.07672 1005.885 2328.2134 3952997
-688.57202 1003.4552 2322.5894 1516598
-667.98859 993.37335 2299.2539 989223
-660.4519 1002.6776 2320.7893 2370622
-652.35767 1011.5143 2341.2427 3555408
-640.63586 1014.9886 2349.2844 2765891
-627.69897 1016.65 2353.1299 1514793
-608.45758 1007.9433 2332.9773 7
-592.09827 1003.7161 2323.1931 197898
-577.63403 1002.5762 2320.5549 132108
-560.19214 996.08624 2305.533 523
-547.58386 998.08069 2310.1494 1977144
-536.39709 1002.8354 2321.1548 4610408
-521.17212 1000.0923 2314.8054 4677231
-507.14795 999.56708 2313.5898 4611440
-491.52191 995.76733 2304.7949 5138556
-475.96246 991.88855 2295.8171 5599109
-463.50302 994.43182 2301.7039 5928330
-453.73706 1003.0842 2321.7305 4415093
-439.99805 1003.2206 2322.0461 5204352
-426.08105 1002.947 2321.4128 5467524
-411.43246 1000.8752 2316.6177 5796489
-397.4115 1000.2398 2315.1467 5994125
-382.80774 998.03918 2310.0532 6125967
-369.58624 999.41266 2313.2324 6060175
-356.46359 1001.1699 2317.2998 6060433
-343.02817 1002.1548 2319.5793 5994640
-329.73367 1003.6512 2323.0427 6060433
-316.4848 1005.4229 2327.1438 6126226
-303.14886 1007.0677 2330.9507 6126226
-289.66931 1008.3699 2333.9648 6125969
-276.23782 1009.9789 2337.689 6191762
-262.81235 1011.7815 2341.8611 5994640
-249.36987 1013.7165 2346.3398 5993870
-235.86104 1015.5951 2350.688 5796492
-222.18851 1016.961 2353.8496 5928333
-208.67632 1019.2936 2359.2485 6059662
-195.0592 1021.4128 2364.1538 5993870
-181.21538 1022.5817 2366.8594 6125456
-167.54796 1025.0267 2372.5186 6125456
-153.42902 1024.9049 2372.2363 6191249
-139.43912 1025.7075 2374.0942 6125713
-125.4674 1026.8397 2376.7148 5994383
-111.47086 1028.0303 2379.4705 6060176
-97.430565 1029.1046 2381.9573 6060176
-83.312187 1029.5795 2383.0562 5994383
-69.195335 1030.2714 2384.6577 5994381
-54.916176 1028.2806 2380.05 5599366
-40.894104 1031.3927 2387.2529 4085613
-26.685728 1030.616 2385.4553 4216683
-12.615942 1039.4982 2406.0139 5137786
1.6891676 1042.7948 2413.6443 5203323
15.999412 1040.5266 2408.3943 5532288
30.476788 1046.1375 2421.3811 4940665
44.527321 1038.1967 2403.0015 5532803
59.013783 1041.8086 2411.3616 6125455
73.332161 1041.6213 2410.9282 6059919
87.750542 1042.6837 2413.3872 6191249
102.19577 1043.7218 2415.7898 6059920
116.91737 1046.9789 2423.3289 6125455
131.30656 1046.8713 2423.0798 6191247
145.95778 1048.6676 2427.2375 6257295
160.52449 1049.5883 2429.3684 6257552
175.00348 1049.8308 2429.9297 6257552
189.17125 1048.3115 2426.4133 6191502
203.9017 1049.9048 2430.1011 6191502
218.59203 1051.0945 2432.8547 6125709
233.00452 1050.8833 2432.366 6125711
247.55782 1051.2949 2433.3186 6191248
262.29431 1052.396 2435.8672 6257041
276.9631 1053.1245 2437.5535 6191248
291.78653 1054.3395 2440.3655 6191504
306.7738 1056.0032 2444.2163 6125711
321.90796 1057.9993 2448.8364 5797001
339.91098 1068.8439 2473.9373 4940921
353.18448 1064.5338 2463.9612 4742513
371.91901 1076.3717 2491.3611 3951967
387.25488 1077.8436 2494.7681 1911100
395.30414 1059.6741 2452.7129 198163
414.76562 1072.3013 2481.9397 790806
428.09286 1068.7467 2473.7124 1054495
443.92816 1071.4817 2480.043 1383719
458.07394 1070.0942 2476.8313 2503742
476.0239 1077.4032 2493.7488 1253674
489.5719 1074.6085 2487.28 67342
499.81613 1064.9385 2464.8979 2043446
522.00739 1080.5492 2501.0305 2372926
539.86816 1086.5798 2514.9888 859168
554.92401 1086.7921 2515.4802 1844265
568.09583 1083.4004 2507.6296 262
585.09174 1087.2883 2516.6287 3
598.83594 1085.0903 2511.5413 259
613.54651 1084.7079 2510.656 258
630.02032 1087.3867 2516.8564 2
644.86804 1087.2 2516.4241 258
663.72479 1093.6273 2531.3008 258
675.41992 1088.231 2518.8103 258
691.16925 1089.4591 2521.6531 257
706.26788 1089.6312 2522.0515 514
720.82477 1088.9778 2520.5391 262
733.52563 1085.604 2512.7302 332831
743.25635 1078.0569 2495.2617 6059404
760.85333 1081.9915 2504.3687 6059405
776.40887 1082.9277 2506.5356 6124941
792.34772 1084.3531 2509.835 5993612
810.0647 1088.1145 2518.541 5993612
824.72491 1087.7078 2517.5996 5993356
840.87836 1089.25 2521.1692 5993355
856.92151 1090.5978 2524.2886 5861769
873.02209 1091.9709 2527.467 5598597
888.04352 1091.9707 2527.4666 5598597
905.62256 1095.0631 2534.6243 5730183
919.55341 1093.7151 2531.5042 5730183
938.71686 1098.5341 2542.658 5664390
951.51038 1095.8639 2536.4778 5598597
966.78406 1096.089 2536.9988 5335425
982.61572 1096.9301 2538.9456 5203840
998.37744 1097.6688 2540.6553 5203840
1015.3918 1099.7423 2545.4546 5269632
1033.3855 1102.7998 2552.5315 5401218
1046.1317 1100.2501 2546.6299 5401219
1062.145 1101.1602 2548.7363 5401218
1075.7214 1099.5536 2545.0178 5203839
1082.7871 1091.4291 2526.2129 4874874
1105.9973 1099.5776 2545.0735 5072254
1114.754 1093.3304 2530.6138 5598854
1135.9327 1099.2709 2544.3633 5927563
1150.3622 1098.6094 2542.8323 6124941
1165.5165 1098.6484 2542.9226 6059406
1179.9034 1097.9723 2541.3577 5993358
1196.2286 1099.0941 2543.9543 5861771
1214.1782 1101.662 2549.8977 5861771
1226.9208 1099.5 2544.8938 5862028
1240.3029 1097.957 2541.3223 5861515
1258.5233 1100.6827 2547.6311 5860745
1275.5276 1102.2925 2551.3572 5663877
1284.7876 1097.2506 2539.6873 5663876
1302.4309 1099.4023 2544.6677 5532291
1320.5039 1101.8632 2550.3635 5795207
1325.356 1093.3615 2530.6855 5795463
1346.1704 1098.0712 2541.5864 5795721
1363.4402 1099.8169 2545.6272 5927563
1381.2959 1101.9919 2550.6614 5927564
1394.6581 1100.5735 2547.3784 5796234
1407.1525 1098.5083 2542.5981 5861770
1420.9346 1097.4814 2540.2217 6124428
1436.3665 1097.7371 2540.8132 6190220
1450.5441 1097.0388 2539.197 6256013
1463.1238 1095.1587 2534.8455 6124428
1476.9841 1094.2659 2532.7791 6058634
1492.1929 1094.38 2533.0432 6124427
1507.8348 1094.8064 2534.03 5795462
1522.4922 1094.5165 2533.3589 5795463
1537.5392 1094.5096 2533.3433 5927049
1552.5302 1094.4634 2533.2361 6124428
1565.1616 1092.7708 2529.3184 6321551
1581.7323 1093.8344 2531.78 6322064
1598.7034 1095.1522 2534.8303 6387600
1615.9879 1096.6582 2538.3162 6387599
1630.8572 1096.5125 2537.9788 6321553
1644.4663 1095.5299 2535.7046 6321809
1660.8722 1096.4114 2537.7449 6387345
1679.2269 1098.5519 2542.6992 6321552
1693.502 1098.0092 2541.4429 6255759
1708.0265 1097.6364 2540.5801 6321553
1723.6096 1097.9445 2541.2932 6387346
1738.0985 1097.5562 2540.3945 6453138
1752.786 1097.2988 2539.7991 6453138
1768.7507 1097.8387 2541.0486 6453138
1786.4055 1099.4095 2544.6843 6453138
1802.1769 1099.8047 2545.5991 6453138
1820.9548 1102.0128 2550.7097 6453139
1837.6505 1102.9347 2552.8435 6453138
1855.045 1104.2573 2555.905 6387345
1871.0654 1104.7473 2557.0391 6387346
1886.1029 1104.6536 2556.8223 6321553
1901.3124 1104.6615 2556.8403 6321553
1915.7559 1104.2277 2555.8362 6321553
1926.5144 1101.6934 2549.9705 6453138
1945.5159 1103.8756 2555.0215 6387602
1941.5194 1093.0762 2530.0251 6518930
1976.1976 1104.0493 2555.4236 4939896
1996.7477 1107.0223 2562.3047 3030353
2012.443 1107.2789 2562.8989 331038
2028.9703 1107.9862 2564.5359 594467
2030.8156 1100.725 2547.7292 527648
2060.7437 1108.6801 2566.1416 5463412
2087.4734 1114.8101 2580.3301 1712957
2078.2725 1101.8018 2550.2212 1317682
2107.6567 1109.2898 2567.553 1449011
2120.0752 1107.8051 2564.1165 1120304
2139.1172 1109.7778 2568.6829 923696
2167.8159 1116.6971 2584.698 1911620
2182.8884 1116.5492 2584.3557 1648960
2193.2673 1114.0193 2578.5 3162714
2216.0935 1117.803 2587.2576 5925762
2238.3508 1121.2494 2595.2349 5794946
2244.332 1116.5515 2584.3611 5071735
2268.9197 1121.1112 2594.9148 4216170
2260.0901 1109.2087 2567.3655 4479601
2267.8386 1105.5476 2558.8914 4611188
2276.6604 1102.455 2551.7332 5795462
2277.4143 1095.5223 2535.687 6058122
2284.949 1091.9211 2527.3518 6123914
2300.1626 1092.0126 2527.5632 6123915
2312.8232 1090.8987 2524.9854 6058124
2329.116 1091.5013 2526.3801 6058380
2346.5679 1092.636 2529.0063 5926537
2363.0386 1093.3021 2530.5481 5926537
2386.7378 1097.2832 2539.7627 5992330
2408.2896 1100.2332 2546.5906 6123916
2424.967 1100.9333 2548.2112 6123916
2447.1399 1104.1042 2555.5505 6124173
2463.5149 1104.6361 2556.7817 6123916
2483.4392 1106.7435 2561.6594 6189709
0 0 0 0
0 0 0 0
0 0 0 0
0 0 0 0
0 0 0 0
0 0 0 0
0 0 0 0
0 0 0 0
0 0 0 0
0 0 0 0
-1873.0167 946.16632 2160.2712 5664391
-1857.915 945.0155 2157.6438 5664390
-1845.3113 945.12817 2157.9009 5730183
-1830.0627 943.87823 2155.0471 5664647
-1816.3185 943.39203 2153.937 5795976
-1801.4642 942.31836 2151.4856 5795977
-1791.2161 943.65582 2154.5393 5795977
-1774.9521 941.82062 2150.3491 5730183
-1762.2372 941.85553 2150.429 5532805
-1745.5248 939.73877 2145.5959 5664390
-1733.6278 940.20251 2146.6548 5532804
-1717.8683 938.56281 2142.9111 5138047
-1708.8792 940.62524 2147.6199 5006717
-1693.0765 938.94012 2143.7725 5401218
-1676.5951 936.8501 2139.0007 5467268
-1665.2134 937.59961 2140.7119 5467524
-1654.287 938.61902 2143.0393 5335939
-1643.8102 939.91119 2145.9897 5138559
-1630.9871 939.87158 2145.8992 5204352
-1618.4205 939.98041 2146.1477 5270146
-1607.0516 940.79205 2148.0007 5270146
-1595.1267 941.28851 2149.1343 5401731
-1581.8186 940.97021 2148.4077 5533317
-1569.1218 941.01331 2148.5061 5533317
-1556.7479 941.25244 2149.052 5467524
-1544.5609 941.60944 2149.8669 5401731
-1532.0719 941.78668 2150.2717 5270146
-1520.6354 942.61932 2152.1729 5270145
-1512.4573 945.50317 2158.7571 4941181
-1499.3064 945.3009 2158.2954 5270402
-1484.9467 944.32654 2156.0708 5335939
-1470.3059 943.15497 2153.3958 5401988
-1458.5868 943.85333 2154.9902 5138559
-1452.1156 947.99005 2164.4353 4151665
-1438.5293 947.5144 2163.3491 4414836
-1423.8572 946.30829 2160.5955 5401988
-1409.5687 945.33777 2158.3794 5533574
-1396.1895 944.96466 2157.5276 5664903
-1385.2698 946.26471 2160.4958 5665160
-1373.0342 946.68176 2161.4482 5730696
-1363.3251 948.86523 2166.4333 5664904
-1352.3979 950.23444 2169.5596 5730696
-1337.5491 948.84802 2166.394 5730696
-1327.5586 950.91455 2171.1123 5072766
-1316.9783 952.59515 2174.9495 5467524
-1305.7084 953.80524 2177.7124 5796489
-1293.9094 954.64929 2179.6394 5862282
-1280.6573 954.42725 2179.1326 5862539
-1270.4254 956.47473 2183.8074 5533319
-1257.6807 956.65308 2184.2144 5073025
-1251.454 961.84467 2196.0679 5006975
-1236.7023 960.5246 2193.0537 5599111
-1224.3837 961.08612 2194.3359 5467525
-1211.9551 961.57257 2195.4465 5533320
-1200.23 962.63385 2197.8696 5730954
-1184.7535 960.67664 2193.4009 5730955
-1173.0201 961.74475 2195.8396 5599113
-1160.1205 961.86993 2196.1255 5335940
-1145.1611 960.27081 2192.4744 5335940
-1132.8909 960.91571 2193.9468 5335940
-1118.7106 959.93665 2191.7114 5138562
-1099.431 954.50763 2179.3159 5138561
-1098.2725 964.8689 2202.9727 5336454
-1085.8896 965.50031 2204.4143 5402503
-1073.6825 966.3053 2206.2522 5665418
-1061.955 967.5672 2209.1333 5797004
-1050.7296 969.32397 2213.1445 5797004
-1040.5068 972.06189 2219.3958 5731211
-1028.0044 972.71307 2220.8823 5796748
-1015.9896 973.84863 2223.4751 5533832
-1004.9497 975.96082 2228.2976 5533831
-991.2641 975.52588 2227.3044 5467268
-976.64221 974.14508 2224.1519 4611702
-965.3139 976.05676 2228.5166 4611957
-953.84399 977.87634 2232.6711 4677749
-941.47461 978.81226 2234.8079 4612214
-923.85315 974.23633 2224.3604 4349555
-911.95703 975.65289 2227.5945 4085613
-900.36371 977.43988 2231.6746 1386555
-888.42047 978.89471 2234.9961 3360608
-875.90814 979.75714 2236.9653 3623263
-859.11169 975.78021 2227.8853 2636624
-849.48535 979.95001 2237.4058 3689054
-833.13611 976.3739 2229.2407 3096401
-820.59058 977.21185 2231.1538 2832205
-808.81195 979.00562 2235.2493 1451063
-800.48926 985.11212 2249.1917 2371907
-787.75311 985.90265 2250.9966 3491159
-774.62048 986.21552 2251.7109 2373192
-765.32623 991.51227 2263.8044 4478824
-755.85767 996.7688 2275.8059 4348009
-742.73212 997.30627 2277.0332 3887459
-731.34869 1000.2466 2283.7463 3163478
-720.68774 1004.3047 2293.0117 2703183
-703.98224 999.93372 2283.032 3425106
-692.77618 1003.3558 2290.8452 1317925
-679.33636 1003.6149 2291.437 521
-666.35126 1004.5703 2293.6182 5
-651.96613 1003.4108 2290.9709 5
-645.75745 1015.0542 2317.5549 3
-628.83118 1009.9913 2305.9954 4
-614.14429 1008.3796 2302.3157 4
-599.13416 1006.1517 2297.229 3
-585.08392 1005.4695 2295.6711 3
-570.87994 1004.4841 2293.4214 3
-557.10986 1004.2327 2292.8474 6
-543.33075 1003.9518 2292.2063 5
-530.21747 1004.9187 2294.4136 1844525
-519.0022 1009.6288 2305.1677 2963781
-502.27429 1003.5797 2291.3564 2702154
-482.60391 991.15027 2262.9778 5665412
-471.20483 995.4823 2272.8687 6125966
-457.94443 996.02179 2274.1003 6125968
-444.21921 995.55237 2273.0286 6125711
-431.02084 996.27118 2274.6699 5994382
-418.70154 999.1344 2281.207 5994381
-404.58182 997.74927 2278.0444 6060174
-391.75586 999.56903 2282.1995 6126224
-378.35571 1000.0018 2283.1875 6125967
-365.25293 1001.2819 2286.1104 6192017
-352.41171 1003.4058 2290.9595 6191763
-339.14255 1004.4329 2293.3044 6191763
-325.84946 1005.4722 2295.6775 6191763
-312.70837 1007.0919 2299.3755 6126226
-299.68549 1009.2576 2304.3203 6060176
-286.36215 1010.5705 2307.3179 5994640
-273.35339 1013.1815 2313.2793 5994383
-260.08603 1015.0597 2317.5674 5928847
-246.65987 1016.4937 2320.8413 5993870
-233.30856 1018.4241 2325.249 5862541
-219.80602 1019.896 2328.6096 5862541
-206.13013 1020.7073 2330.4619 5993870
-192.39983 1021.3466 2331.9216 6059663
-178.69984 1022.2585 2334.0039 5993870
-165.23924 1024.8088 2339.8264 5994127
-151.49608 1025.9142 2342.3503 6125456
-137.68059 1026.704 2344.1536 5994127
-123.95727 1028.4363 2348.1086 5928590
-110.0904 1029.266 2350.0029 5797261
-96.187088 1029.9467 2351.5571 5928590
-82.420601 1032.5729 2357.5532 6060176
-68.323715 1031.288 2354.6194 6060176
-54.34951 1031.6696 2355.491 5994894
-40.481201 1035.0238 2363.1492 5665415
-26.416924 1034.2694 2361.4268 4743800
-12.536432 1047.1565 2390.8503 4414320
1.6665148 1042.963 2381.2756 4742772
15.859348 1045.6061 2387.3105 5137272
30.061972 1046.0938 2388.4241 5335423
44.141617 1043.3617 2382.1863 5204353
58.080101 1039.4304 2373.2104 6191247
72.422661 1042.8539 2381.0269 6059919
86.746048 1044.9274 2385.7607 6059663
100.80454 1043.6755 2382.9026 5994127
115.32995 1046.9707 2390.4263 6059663
129.55823 1047.1417 2390.8167 6059662
143.77969 1047.2294 2391.0166 6060173
158.1931 1048.5734 2394.0854 6125966
172.60474 1049.6849 2396.623 6125709
187.37132 1052.6208 2403.3264 6060173
201.70636 1052.8883 2403.937 6125710
216.07103 1053.2649 2404.7969 6191759
230.28711 1052.9153 2403.9988 6191247
244.87173 1054.1931 2406.9163 6191247
259.08453 1053.8175 2406.0586 6125455
273.57324 1054.5448 2407.7192 5993869
287.94312 1054.7645 2408.2209 5665160
302.46732 1055.502 2409.9045 5599111
317.70395 1058.5465 2416.8557 5204351
334.39313 1065.9578 2433.7771 3690338
354.27618 1082.5135 2471.5771 3360342
366.56161 1075.4606 2455.4736 924969
379.0047 1069.3923 2441.6189 529436
395.95691 1076.0254 2456.7634 990502
407.07892 1066.9062 2435.9426 2241342
421.73361 1067.3544 2436.9658 2636101
436.89682 1069.017 2440.7617 1714485
454.70636 1076.8398 2458.6228 2504514
470.92191 1080.5181 2467.0208 2306362
482.08893 1072.7402 2449.2627 1385258
499.41135 1078.7139 2462.9016 2060
516.52472 1083.9086 2474.7622 134161
530.50739 1082.4279 2471.3813 3951185
546.62268 1085.2612 2477.8503 5005415
559.79761 1082.2611 2471.0005 2176058
579.07349 1090.9078 2490.7427 990754
594.40875 1091.885 2492.9736 528917
610.10931 1093.4692 2496.5908 67336
625.29572 1094.0786 2497.9822 260
641.07916 1095.6803 2501.6389 1
657.55322 1098.3628 2507.7637 257
672.54773 1098.5099 2508.0994 2
687.64417 1098.8134 2508.7922 2
703.75806 1100.6952 2513.0891 514
717.1897 1098.391 2507.8281 198928
721.81354 1082.9659 2472.6099 5467002
739.74628 1087.726 2483.4778 5928586
751.61157 1083.5526 2473.9492 5993612
766.58069 1083.9281 2474.8066 6059148
783.2735 1086.6809 2481.0918 5861769
798.36615 1087.1531 2482.1697 5927562
813.19897 1087.2605 2482.415 5927562
828.83801 1088.4227 2485.0688 5730184
844.60651 1089.7117 2488.0115 5664390
863.3703 1094.7542 2499.5244 5730184
876.85938 1093.0507 2495.6353 5730184
892.95593 1094.6002 2499.1731 5664390
907.88885 1094.696 2499.3918 5664390
924.57043 1096.8634 2504.3403 5664391
938.8634 1096.1732 2502.7644 5730183
954.23615 1096.7455 2504.071 5532804
970.64294 1098.4705 2508.0095 5269632
985.08276 1097.9509 2506.8232 4743030
995.57721 1093.1149 2495.7817 3624293
1007.9056 1090.4049 2489.5945 2440276
1021.9871 1089.6426 2487.8538 4743031
1041.4835 1094.593 2499.1567 4940667
1058.6693 1097.0099 2504.6748 5401218
1075.0114 1098.4976 2508.0715 5664390
1088.8169 1097.3882 2505.5386 5795976
1106.4775 1100.1416 2511.8252 5861769
1122.7146 1101.4252 2514.7559 5927819
1137.6321 1101.3977 2514.6929 6059148
1152.5345 1101.3564 2514.5986 6059149
1166.817 1100.7312 2513.1714 5993612
1183.1879 1102.067 2516.2212 5993612
1199.1273 1102.9728 2518.2893 5993612
1210.8563 1100.031 2511.5728 5862026
1227.0353 1101.1545 2514.1377 5532546
1244.1587 1103.0883 2518.5527 5135988
1255.801 1100.1742 2511.8994 857384
1279.2378 1107.5399 2528.7168 2172992
1298.0116 1110.7444 2536.0332 2567751
1311.6577 1109.5378 2533.2786 3752539
1328.6899 1111.1904 2537.0515 3884636
1335.951 1104.7261 2522.2922 2635083
1351.3488 1105.0587 2523.0518 3885407
1365.1947 1104.129 2520.9292 4016226
1379.6891 1103.7385 2520.0374 4017766
1387.1072 1097.756 2506.3782 3228765
1401.3999 1097.2834 2505.2993 5137275
1417.5872 1098.2886 2507.5942 5992841
1438.3723 1102.7981 2517.8901 6190220
1444.6361 1096.1957 2502.8159 6190220
1457.5364 1094.7125 2499.4294 6190220
1473.5612 1095.5823 2501.4153 6190477
1491.2933 1097.6913 2506.2307 6190220
1497.6422 1091.4628 2492.0098 5269118
1515.8705 1093.929 2497.6404 5203326
1529.7285 1093.2241 2496.0312 5926792
1546.6565 1094.7056 2499.4138 6058636
1562.9545 1095.7173 2501.7236 6189966
1581.3007 1098.1323 2507.2375 6321552
1596.9929 1098.6764 2508.4797 6255760
1612.5004 1099.0846 2509.4116 6321552
1626.6624 1098.5763 2508.2512 6321552
1642.782 1099.3877 2510.1038 6387346
1656.7786 1098.7762 2508.7078 6387602
1675.1711 1101.0653 2513.9341 6453139
1689.8552 1100.8977 2513.5515 6453138
1704.4867 1100.6992 2513.0981 6453138
1719.604 1100.8151 2513.3628 6518931
1733.3105 1100.0338 2511.5791 6453395
1746.7832 1099.1185 2509.4893 6453139
1765.9926 1101.7979 2515.6067 6453395
1783.0275 1103.087 2518.55 6387345
1800.5504 1104.6542 2522.1282 6256016
1819.2542 1106.9138 2527.2874 6453138
1835.556 1107.6871 2529.0527 6453138
1853.324 1109.3253 2532.7932 6387602
1868.1047 1109.1636 2532.4238 6453138
1877.9276 1106.0841 2525.3931 6387345
1894.8589 1107.2073 2527.9573 6518931
1910.1259 1107.3478 2528.2781 6321809
1923.7687 1106.5519 2526.4609 6387345
1940.205 1107.3627 2528.3123 6452882
1952.9611 1106.0768 2525.3762 6321552
1968.4055 1106.3214 2525.9348 6256012
1971.5851 1099.7213 2510.8652 5663876
2014.4949 1115.2146 2546.2395 4545139
2022.739 1111.4293 2537.5972 4018535
2042.8275 1114.1599 2543.8315 3293783
2053.1331 1111.554 2537.8816 1254715
2068.4448 1111.6768 2538.1619 1582909
2079.6472 1109.605 2533.4319 1450549
2096.988 1110.8148 2536.1938 66322
2105.3755 1107.2983 2528.1653 269
2128.2341 1111.3889 2537.5046 592660
2150.3545 1115.0389 2545.8384 528154
2160.7273 1112.5889 2540.2444 68124
2182.2896 1115.8945 2547.7917 856870
2187.3599 1110.7798 2536.114 1121846
2204.9495 1112.0491 2539.012 4479088
2213.897 1108.972 2531.9866 5532289
2214.2957 1101.6833 2515.345 5598082
2215.9946 1095.1349 2500.3938 5861254
2232.9492 1096.1627 2502.7407 5927048
2252.6411 1098.512 2508.1042 5927048
2262.1982 1095.9205 2502.1875 5927048
2275.5056 1095.1677 2500.4688 5992328
2287.5735 1093.832 2497.4192 5992328
2303.0039 1094.1111 2498.0564 5992329
2321.7419 1095.948 2502.2502 5926535
2341.5076 1098.2433 2507.491 5992330
2360.2583 1100.0366 2511.5854 5992330
2376.23 1100.5205 2512.6899 6058380
2396.9692 1103.1924 2518.7905 6124173
2413.6799 1103.9885 2520.6084 6058123
2435.4128 1107.0577 2527.616 6058123
2456.0281 1109.5845 2533.3848 6189966
0 0 0 0
0 0 0 0
0 0 0 0
0 0 0 0
0 0 0 0
0 0 0 0
0 0 0 0
0 0 0 0
0 0 0 0
0 0 0 0
-1846.2543 945.30286 2129.4043 5730184
-1833.2094 945.10223 2128.9524 5730184
-1823.3804 946.5683 2132.2549 5730183
-1808.1022 945.20624 2129.1868 5664391
-1792.7489 943.78552 2125.9863 5730184
-1779.3724 943.39264 2125.1013 5795976
-1765.2351 942.58795 2123.2886 5730183
-1751.0131 941.72595 2121.3469 5795976
-1738.4072 941.72717 2121.3496 5664390
-1724.4043 940.96588 2119.6348 5664390
-1713.3456 941.81189 2121.5405 5664390
-1700.744 941.81604 2121.5498 5401475
-1689.5798 942.62213 2123.3657 5598597
-1673.072 940.43671 2118.4429 5599110
-1661.3469 940.92694 2119.5471 5533317
-1648.9366 941.03357 2119.7874 5467524
-1635.7667 940.70514 2119.0474 5270146
-1627.2156 943.04816 2124.3254 5270146
-1615.8662 943.79358 2126.0046 5204353
-1602.4086 943.30969 2124.9146 5335939
-1591.5104 944.33679 2127.228 5467524
-1582.1818 946.31909 2131.6934 5072766
-1569.7081 946.43707 2131.9592 5335938
-1552.8745 943.9068 2126.2595 5401732
-1539.7598 943.61401 2125.6001 5401731
-1526.9204 943.48669 2125.3132 5335938
-1514.5685 943.66089 2125.7056 5270146
-1502.6609 944.11713 2126.7334 5336195
-1491.8444 945.27246 2129.3359 5204609
-1479.7993 945.66241 2130.2144 5138560
-1468.9186 946.80975 2132.7988 5204352
-1456.8152 947.18207 2133.6375 5072766
-1445.5986 948.14246 2135.8008 5138559
-1433.062 948.24646 2136.0352 5401731
-1423.1884 950.13013 2140.2783 5599110
-1406.9817 947.7818 2134.9883 5599110
-1393.3767 947.15912 2133.5857 5599110
-1379.4745 946.32111 2131.698 5664904
-1371.057 949.26489 2138.3293 5665160
-1359.0565 949.75989 2139.4443 5599111
-1347.05 950.26007 2140.571 5730954
-1336.1527 951.55969 2143.4985 5928077
-1325.2408 952.87384 2146.4587 5928334
-1314.8728 954.60834 2150.366 5862285
-1303.7838 955.84827 2153.1592 5862285
-1292.2538 956.78632 2155.2722 5862541
-1279.5803 956.88812 2155.5015 5862285
-1268.1838 957.95648 2157.9082 5599112
-1257.0493 959.24658 2160.8142 5401733
-1243.8723 958.98877 2160.2334 4875131
-1236.522 963.2644 2169.8647 4677752
-1221.9614 961.95422 2166.9136 4611702
-1213.5437 965.50342 2174.9084 5138816
-1198.6168 963.89465 2171.2844 5204096
-1185.6056 963.80798 2171.0894 5006974
-1170.7826 962.23041 2167.5356 5335938
-1156.8583 961.36456 2165.5852 5467782
-1144.7405 961.99744 2167.0107 5336196
-1132.907 962.88635 2169.0132 5204352
-1119.6976 962.61285 2168.397 5401731
-1107.637 963.33191 2170.0168 5335940
-1092.4617 961.32721 2165.501 5467527
-1084.644 965.82642 2175.636 5468040
-1072.7882 966.79492 2177.8176 5468040
-1060.7109 967.58508 2179.5977 5534089
-1047.2164 967.08612 2178.4736 5599625
-1038.6569 971.18896 2187.7158 5664905
-1028.8542 974.21881 2194.5408 4809596
-1017.0862 975.44147 2197.2949 4678008
-1006.6929 978.03156 2203.1294 4744057
-990.75989 975.23688 2196.8342 4678263
-981.01276 978.53796 2204.2703 4678260
-965.52283 976.12262 2198.8293 461850
-948.84796 972.42651 2190.5034 857385
-933.8421 970.36182 2185.8525 1053218
-930.72644 980.76843 2209.2947 1186088
-916.39136 979.48096 2206.3945 527896
-903.72571 979.96655 2207.4883 4
-881.95624 970.44904 2186.0491 8
-871.89783 973.72559 2193.4299 264
-863.79608 979.32025 2206.0325 8
-854.64545 983.8797 2216.3032 265
-844.86774 987.84875 2225.2439 461073
-832.11127 988.40576 2226.4985 329229
-816.2702 985.25751 2219.407 265
-807.578 990.77649 2231.8389 265
-794.56781 991.09387 2232.554 395796
-787.98083 999.56995 2251.6472 263956
-770.68738 994.52283 2240.2781 1449772
-758.69934 996.26495 2244.2024 396056
-748.49384 1000.4521 2253.6343 856865
-738.73016 1005.3929 2264.7642 66574
-724.88318 1004.8568 2263.5566 9
-703.27399 993.33685 2237.6064 263
-694.89368 1000.418 2253.5576 66055
-686.51556 1007.7807 2270.1428 68109
-676.34674 1012.7571 2281.3528 989979
-660.15308 1008.7311 2272.2837 68107
-649.68298 1013.4652 2282.948 265230
-634.99493 1011.6814 2278.9297 1318689
-622.36176 1013.1649 2282.2715 1121053
-612.04877 1018.5757 2294.46 857880
-598.00439 1017.882 2292.8972 988440
-581.70056 1013.2202 2282.396 264971
-570.04858 1016.632 2290.0815 396559
-555.64087 1015.176 2286.8015 1647139
-539.48029 1010.364 2275.9622 2240051
-527.50787 1013.35 2282.6885 523
-513.52972 1012.5389 2280.8613 2637646
-498.37216 1009.2954 2273.5549 2307398
-478.80167 996.68494 2245.1484 5994380
-466.43597 998.77917 2249.866 6125454
-453.36893 999.45081 2251.3789 6125710
-441.24576 1002.3074 2257.8137 6060174
-427.56897 1001.7034 2256.4531 6125710
-414.04614 1001.4327 2255.8433 6125967
-400.63748 1001.4291 2255.8352 6060431
-387.60635 1002.4017 2258.0261 6060431
-374.07776 1002.1115 2257.3723 6125968
-361.29401 1003.8691 2261.3315 6125969
-348.38373 1005.3975 2264.7744 6191762
-335.71365 1007.7697 2270.1182 6191763
-322.21567 1007.7512 2270.0767 6191762
-309.10583 1008.9982 2272.8855 6191762
-296.22568 1011.1433 2277.7175 6126226
-283.1123 1012.6594 2281.1328 6060176
-270.10815 1014.7384 2285.8159 5994640
-256.88538 1016.173 2289.0474 5994640
-243.67853 1017.8343 2292.7898 5993870
-230.48343 1019.7443 2297.0925 5928334
-217.16313 1021.3063 2300.6111 5928077
-203.8588 1023.1583 2304.7827 5993870
-190.28712 1023.8386 2306.3152 5993870
-176.5246 1023.518 2305.593 5994127
-162.82301 1023.5264 2305.6121 6125456
-149.7354 1027.7507 2315.1277 6060176
-136.17419 1029.2502 2318.5056 6059919
-122.65016 1031.4 2323.3481 5994383
-108.90437 1031.9939 2324.6858 5928847
-95.170792 1032.8929 2326.7109 5665418
-81.424232 1033.9327 2329.0532 5928590
-67.645317 1034.9034 2331.24 5994381
-53.808445 1035.259 2332.0413 6059918
-39.963211 1035.645 2332.9106 5994125
-26.09057 1035.3535 2332.2539 6059917
-12.320678 1043.0997 2349.7031 6191503
1.6432403 1042.3521 2348.0188 5994124
15.593498 1042.0295 2347.2922 6059917
29.514111 1040.9659 2344.8965 6191504
43.52919 1042.8477 2349.1355 6257553
57.445286 1042.02 2347.271 6191506
71.476601 1043.1976 2349.9236 6191249
85.614136 1045.287 2354.6301 6125456
99.568405 1044.8661 2353.6819 6125456
113.84211 1047.488 2359.5884 6059663
128.01422 1048.7025 2362.3242 5994127
141.98866 1048.2179 2361.2324 6059662
155.97256 1047.8839 2360.48 6059918
170.14209 1048.749 2362.429 6059661
184.35576 1049.7338 2364.6472 5928075
198.7744 1051.6636 2368.9941 6125711
213.01649 1052.4656 2370.8008 6191248
227.13388 1052.5903 2371.0818 6191247
241.76813 1054.9556 2376.4099 6125455
255.43939 1053.09 2372.2073 6059661
269.79443 1054.0908 2374.4619 5862283
284.66666 1056.9126 2380.8181 5204863
301.54092 1066.5482 2402.5234 5468036
315.3071 1064.8163 2398.6221 4612210
329.07388 1063.2362 2395.0627 4610409
342.99026 1062.2504 2392.842 991276
358.60931 1066.4062 2402.2039 660509
374.24496 1070.2916 2410.9558 792607
387.94061 1068.5465 2407.0251 517
401.71008 1067.1219 2403.8159 4411479
417.78375 1071.7059 2414.1418 659479
432.91357 1073.6447 2418.509 66828
451.49585 1083.7458 2441.2632 594199
464.69412 1080.697 2434.3953 593169
481.6926 1086.4032 2447.2493 264204
497.1394 1088.3778 2451.6973 775
510.8916 1086.6356 2447.7729 775
525.55511 1086.8748 2448.3113 396819
541.55286 1089.7856 2454.8687 1053977
554.13763 1085.8561 2446.0168 923683
570.80426 1089.9215 2455.1746 1582639
586.98834 1092.8859 2461.8521 1387061
602.47491 1094.439 2465.3506 3690587
609.74127 1081.3401 2435.844 4546666
623.78235 1080.5848 2434.1428 4482419
634.79675 1074.7396 2420.9756 2309445
656.48816 1086.8293 2448.209 861488
675.64526 1094.2903 2465.0156 2177865
685.72198 1087.0397 2448.6831 5337729
699.4848 1085.8125 2445.9187 5732231
714.88928 1087.1317 2448.8904 5796999
727.67804 1084.5001 2442.9622 5993610
742.83356 1085.4297 2445.0562 5993612
757.43268 1085.5261 2445.2734 6059148
772.48132 1086.251 2446.9065 5927562
787.88361 1087.4373 2449.5786 5927562
803.07434 1088.2938 2451.5081 5861769
819.14087 1090.2854 2455.9944 5730184
834.24048 1090.943 2457.4756 5467012
850.67358 1093.2916 2462.7661 5335682
865.81989 1093.9351 2464.2156 5598598
880.43896 1093.902 2464.1411 5664390
898.66571 1098.2791 2474.001 4677495
909.6181 1093.7682 2463.8396 5401218
925.6051 1095.3582 2467.4211 5467012
939.97247 1095.0117 2466.6409 5467011
955.31897 1095.7991 2468.4143 5532804
971.07739 1097.0278 2471.1824 5138046
985.01434 1096.193 2469.302 4611702
996.78113 1093.0031 2462.1162 4216945
1014.185 1095.9973 2468.8611 4809081
1031.0219 1098.302 2474.0527 5204095
1045.4559 1098.0184 2473.4138 5269375
1059.7343 1097.5813 2472.4292 4413809
1079.292 1102.5493 2483.6204 5203324
1089.1764 1097.6349 2472.5498 4348013
1112.4047 1106.1196 2491.6628 4742773
1130.7421 1109.5822 2499.4626 5400190
1144.5521 1108.5699 2497.1824 5071225
1159.7295 1108.891 2497.9055 4807026
1176.8358 1111.025 2502.7126 3162458
1189.684 1109.1357 2498.457 3359580
1201.7635 1106.5856 2492.7124 4281196
1215.4686 1105.576 2490.4382 5465209
1223.1989 1099.2214 2476.1238 5202032
1239.8452 1100.9351 2479.9839 268
1256.5519 1102.6614 2483.8726 10
1272.2123 1103.4402 2485.627 8
1289.5999 1105.6819 2490.6768 5
1303.303 1104.7496 2488.5769 66056
1320.8943 1107.0972 2493.8647 265
1333.7219 1105.4442 2490.1414 197642
1345.6425 1103.084 2484.8247 329227
1357.6139 1100.8162 2479.7163 7
1368.9476 1098.0857 2473.5654 11
1394.0352 1106.3284 2492.1331 197908
1398.8962 1098.5145 2474.5315 2108993
1395.7904 1084.6721 2443.3499 5202297
1418.2946 1090.8115 2457.1794 5993098
1437.9584 1094.6635 2465.8564 6190220
1454.2159 1095.8708 2468.5762 6124429
1470.1917 1096.8438 2470.7678 6256015
1483.4192 1095.7675 2468.3433 6255759
1498.2318 1095.8716 2468.5779 6321807
1515.0564 1097.4312 2472.0908 6190221
1530.9919 1098.3229 2474.0996 6190223
1546.3368 1098.778 2475.1248 6124430
1561.6058 1099.1711 2476.0105 6124173
1577.8446 1100.233 2478.4026 6190223
1594.6659 1101.6779 2481.6572 6321552
1609.0637 1101.4373 2481.115 6453138
1624.4988 1101.9045 2482.1677 6387346
1638.88 1101.655 2481.6057 6387345
1654.7323 1102.3901 2483.2615 6387602
1671.111 1103.4595 2485.6707 6387345
1686.4066 1103.8015 2486.4409 6387345
1701.1486 1103.7783 2486.3887 6387346
1715.4218 1103.4539 2485.6577 6387345
1729.8245 1103.2177 2485.1257 6387345
1747.9192 1105.3202 2489.8618 6453138
1764.9467 1106.718 2493.0107 6321552
1780.2604 1107.0271 2493.707 6189969
1799.0681 1109.4858 2499.2454 6124432
1816.7 1111.1848 2503.0728 6189969
1830.6162 1110.6022 2501.7603 6256018
1846.0944 1110.9689 2502.5862 6255759
1860.5676 1110.7299 2502.0479 6321809
1873.8337 1109.7797 2499.9072 6321552
1888.7482 1109.8129 2499.9822 6387345
1903.0581 1109.4933 2499.2622 6387345
1920.3575 1110.9078 2502.4487 6452625
1935.7478 1111.205 2503.1179 6387088
1950.4093 1111.0822 2502.8413 6452881
1965.2596 1111.0681 2502.8098 6255757
1981.149 1111.6372 2504.0918 6189707
1992.9731 1109.9337 2500.2546 5992585
2007.8326 1109.9336 2500.2542 5466495
2024.5297 1110.9418 2502.5251 5532801
2034.4761 1108.2578 2496.4792 5072248
2045.6525 1106.278 2492.0195 4085864
2053.6057 1102.5959 2483.7253 2770004
2080.0647 1108.8315 2497.7717 1650749
2097.916 1110.4229 2501.3562 4019815
2106.5342 1107.1389 2493.9587 5730434
2124.3694 1108.7111 2497.5005 5138296
2147.3518 1112.9293 2507.0024 4479852
2188.4819 1126.4304 2537.415 5006201
2174.4998 1111.5737 2503.9487 5795205
2174.8779 1104.2101 2487.3613 5663362
2188.4209 1103.5846 2485.9524 5531776
2198.7629 1101.3643 2480.9507 5663619
2211.0342 1100.1332 2478.1777 5860484
2226.2222 1100.3605 2478.6895 5794949
2238.5447 1099.1774 2476.0244 5794949
2250.2397 1097.7037 2472.7051 5926535
2263.5264 1097.0205 2471.166 5992328
2285.6707 1100.6116 2479.2551 6058121
2300.7671 1100.7844 2479.6445 6123913
2314.7163 1100.4098 2478.8005 6058380
2333.5339 1102.3396 2483.1477 6058380
2350.0859 1103.1816 2485.0447 6189710
2368.946 1105.0898 2489.343 6189709
2386.5481 1106.3911 2492.2744 6123917
2408.8301 1109.8326 2500.0269 6058124
2427.1521 1111.4186 2503.5994 6123916
0 0 0 0
0 0 0 0
0 0 0 0
0 0 0 0
0 0 0 0
0 0 0 0
0 0 0 0
0 0 0 0
0 0 0 0
0 0 0 0
-1825.3534 947.11377 2105.2979 5795975
-1812.9603 947.17627 2105.4368 5730184
-1803.8989 948.99225 2109.4734 5730184
-1791.6299 949.13446 2109.7893 5664647
-1777.5436 948.30896 2107.9546 5598598
-1763.4586 947.47266 2106.0955 5664647
-1750.0632 946.99756 2105.0393 5598598
-1737.0339 946.71503 2104.4114 5598597
-1723.5288 946.16711 2103.1936 5532805
-1711.5178 946.43756 2103.7947 5532804
-1699.9241 946.9444 2104.9214 5467011
-1688.4686 947.53632 2106.2371 5467012
-1673.7131 946.27142 2103.4253 5401218
-1661.9093 946.66876 2104.3086 5401731
-1649.1317 946.51324 2103.9629 5270146
-1636.7064 946.55902 2104.0647 5204609
-1625.2058 947.14453 2105.3662 5138816
-1613.8964 947.85132 2106.9373 5335938
-1603.6036 949.17096 2109.8706 5401731
-1591.9238 949.68402 2111.011 5467524
-1579.2957 949.63489 2110.9019 5335938
-1568.8287 950.8949 2113.7026 5138560
-1557.1522 951.43628 2114.906 5467524
-1543.3646 950.68604 2113.2383 5401731
-1529.6399 949.9624 2111.6299 5335938
