# .PCD v0.7 - Point Cloud Data file format
VERSION 0.7
FIELDS x y z rgb
SIZE 4 4 4 4
TYPE F F F U
COUNT 1 1 1 1
WIDTH 1296
HEIGHT 1
VIEWPOINT 0 0 0 1 0 0 0
POINTS 1296
DATA ascii
-1943.0421 966.28125 3558.1125 5664904
-1919.1667 964.90955 3553.0615 5665158
-1897.3274 964.5423 3551.7092 5599622
-1876.5747 964.72559 3552.384 5533572
-1854.4913 964.22095 3550.5261 5467779
-1836.0095 965.599 3555.6003 5533573
-1816.1365 966.26892 3558.0671 5599365
-1798.0597 967.92157 3564.1526 5730951
-1774.5189 966.63721 3559.4233 5862794
-1752.0206 965.89661 3556.6963 5928330
-1731.6346 966.31659 3558.2427 5862537
-1706.6268 964.13599 3550.2131 5730951
-1687.7255 965.39374 3554.8445 5797001
-1664.2688 964.04462 3549.8767 5928074
-1643.5546 964.2699 3550.7061 5599365
-1622.8969 964.53461 3551.6807 5533572
-1604.1393 965.95038 3556.8943 5073021
-1582.5382 965.66901 3555.8579 5336194
-1557.6448 963.34369 3547.2957 5467780
-1537.1422 963.70752 3548.6353 5599622
-1516.25 963.83362 3549.0999 5796744
-1507.0142 971.4776 3577.2468 5994123
-1476.5128 965.43555 3554.9985 5994380
-1452.3909 963.44989 3547.6868 5928587
-1432.0601 963.9577 3549.5564 5928074
-1409.6078 963.03119 3546.145 5862537
-1390.1266 964.13733 3550.2178 5796745
-1368.3944 963.69232 3548.5791 5730951
-1344.6133 961.76758 3541.4919 5665415
-1317.1875 957.13342 3524.4277 5731208
-1294.2507 955.66412 3519.0173 5730952
-1266.8009 950.75928 3500.9565 5665156
-1237.7181 944.44489 3477.7048 5533570
-1206.9249 936.5885 3448.7756 5402493
-1183.1548 934.00482 3439.2617 5335928
-1143.207 918.3349 3381.5608 1320495
-1120.8125 916.45691 3374.6455 1846324
-1097.522 913.76447 3364.7314 2108466
-1076.6049 912.98486 3361.8606 2108207
-1063.4138 918.8515 3383.4631 2239793
-1027.886 905.27197 3333.4597 1055775
-1010.2579 907.23303 3340.6809 2306099
-980.5025 898.16394 3307.2859 2042158
-965.52795 902.54028 3323.4009 1582122
-958.41565 914.60229 3367.8164 267
-943.56506 919.6369 3386.3552 1714485
-939.79309 935.92377 3446.3281 4875636
-928.8501 945.63593 3482.0908 4876153
-920.35132 958.33575 3528.855 5139068
-903.96075 963.21887 3546.8359 5270398
-887.836 968.625 3566.7429 5467777
-871.44873 974.00232 3586.5437 5533829
-852.81427 977.07477 3597.8572 5665158
-835.72717 982.12354 3616.448 5665158
-817.38684 985.92719 3630.4543 5731208
-799.55225 990.56366 3647.5271 5730951
-780.79114 994.27881 3661.207 5599622
-768.03448 1006.0723 3704.634 5599365
-736.45117 993.17249 3657.1333 6059916
-718.04614 997.80066 3674.1758 5731208
-698.76447 1001.4628 3687.6606 5731208
-678.5946 1004.0479 3697.1797 5731208
-655.65021 1002.5634 3691.7136 5665159
-635.29999 1005.0804 3700.9814 5665157
-615.71008 1009.0239 3715.5024 5796744
-595.18372 1011.6689 3725.2424 5731208
-573.349 1012.2086 3727.2295 5731208
-551.68048 1013.0969 3730.5005 5730178
-526.58728 1007.5071 3709.9172 924199
-498.2887 995.02795 3663.9658 1055528
-488.27536 1019.5906 3754.4121 3622487
-465.14062 1017.7942 3747.7971 5927558
-445.26431 1023.3056 3768.0918 5730950
-422.97699 1023.5663 3769.0518 5730951
-400.62231 1023.6841 3769.4856 5665158
-380.46286 1029.7574 3791.8491 5533572
-357.76755 1029.2998 3790.1643 4612725
-336.03439 1031.735 3799.1311 4020331
-313.83429 1032.9838 3803.7297 5862535
-291.00317 1032.1885 3800.8008 5862535
-268.18024 1031.2906 3797.4951 5862792
-246.09088 1033.3081 3804.9238 4941690
-222.73831 1029.8931 3792.3486 4020073
-204.24922 1050.7283 3869.0698 5401983
-179.05803 1037.9984 3822.1946 5204603
-155.68097 1033.6134 3806.0481 5665413
-133.18201 1034.5587 3809.5288 5665412
-110.8401 1037.3612 3819.8486 5533057
-88.362381 1040.009 3829.5984 5796742
-66.022881 1046.6852 3854.1816 6059657
-43.027412 1044.531 3846.2495 5862280
-20.192329 1045.8002 3850.9229 5204092
2.6991274 1047.3884 3856.7712 4743541
25.752827 1052.7673 3876.5779 5533312
48.351624 1043.2512 3841.5369 5664385
71.572426 1048.9556 3862.542 4940660
95.559608 1060.3936 3904.6599 3164507
120.36773 1074.6914 3957.3083 6059658
146.84659 1096.7936 4038.6948 5401985
164.49571 1056.0018 3888.4883 5665413
187.50838 1055.4504 3886.4578 5796999
208.31816 1043.9803 3844.2217 5862535
231.80936 1046.8871 3854.9253 5928329
254.8692 1047.4983 3857.1758 5928330
277.60355 1046.7811 3854.5352 5928329
301.78806 1051.2247 3870.8977 5928586
324.95004 1051.7292 3872.7556 5928331
347.74359 1051.0536 3870.2676 5862537
372.22961 1055.2599 3885.7561 5731208
396.38483 1058.0916 3896.1831 5994123
420.8147 1061.3033 3908.0098 6059401
444.92752 1063.4214 3915.8093 5993865
466.5163 1059.5961 3901.7231 5994120
490.94434 1062.2764 3911.5928 6190987
514.45245 1062.8138 3913.572 5138812
541.17505 1069.6583 3938.7754 5862022
565.70514 1071.7816 3946.5935 5928070
590.24396 1073.7515 3953.8472 6059142
611.63776 1070.0681 3940.2842 5335419
633.1004 1066.7727 3928.1494 5269627
652.08008 1059.6765 3902.0193 6125195
683.00598 1071.8145 3946.7146 6190989
706.52533 1071.9094 3947.0647 6125196
729.89203 1071.7743 3946.5669 6059403
753.40375 1071.8539 3946.8599 5927818
776.77008 1071.728 3946.3962 5927818
799.02374 1070.1194 3940.4731 5927816
824.25604 1072.478 3949.158 5993609
848.20532 1073.0828 3951.385 5993609
872.18335 1073.6904 3953.6226 6059402
896.67413 1074.8807 3958.0056 5993608
919.60797 1074.1917 3955.4683 6059658
945.56287 1076.9778 3965.7275 5993607
988.66418 1098.683 4045.6519 6190729
1012.0726 1097.9927 4043.1101 6388109
1036.635 1098.5573 4045.189 5993607
1054.2993 1091.9519 4020.8662 6125193
1073.5387 1087.2344 4003.4951 6256525
1091.1425 1081.1011 3980.9104 6059917
1117.931 1084.135 3992.0825 5862023
1143.793 1086.163 3999.55 5795460
1181.7244 1099.3365 4048.0586 1450806
1208.1566 1101.5001 4056.0256 5269629
1211.5427 1082.9786 3987.8245 5993866
1239.8551 1087.0217 4002.7119 5928074
1257.7798 1081.9767 3984.1345 5927817
1276.6594 1077.9242 3969.2124 5993610
1300.5729 1078.1921 3970.199 6125196
1322.8671 1077.132 3966.2949 6125196
1344.906 1075.9045 3961.7759 6125196
1366.9065 1074.6893 3957.3008 6125196
1389.9865 1074.3495 3956.0493 6190989
1411.2267 1072.6227 3949.6907 6125196
1432.4248 1070.9209 3943.4243 6125196
1454.4316 1069.8689 3939.5503 6191246
1478.3567 1070.2388 3940.9124 6256783
1501.821 1070.2687 3941.0229 6190989
1525.5239 1070.4652 3941.7466 6190990
1544.7114 1067.5352 3930.9573 5993609
1573.5452 1071.2596 3944.6716 5928072
1599.1519 1072.7101 3950.0125 6058631
1627.0967 1075.6643 3960.8906 5993095
1652.7445 1077.0371 3965.9458 5861253
1675.59 1076.571 3964.2295 5729407
1702.9913 1079.0043 3973.1899 5202804
1727.861 1079.7889 3976.0791 4083550
1730.7533 1067.0035 3928.9995 4214106
1738.3837 1057.4406 3893.7861 264
1777.2737 1066.894 3928.5964 263
1797.2428 1064.8914 3921.2222 6
1816.9916 1062.8113 3913.5623 5
1833.8174 1059.0955 3899.8796 3
1850.1616 1055.1978 3885.5273 3
1872.7432 1054.9097 3884.4666 3
1910.7072 1063.1879 3914.9492 1
1882.5475 1034.9159 3810.8442 2
1902.6449 1033.5299 3805.7402 0
1918.4406 1029.8671 3792.2529 0
1928.9642 1023.492 3768.7781 0
1953.1271 1024.417 3772.1843 0
1963.3744 1018.1052 3748.9424 0
1979.3766 1014.8857 3737.0876 0
1993.7084 1010.8908 3722.3772 1
2012.2054 1009.0723 3715.6807 2
2026.048 1004.9845 3700.6284 2
2030.6599 996.4549 3669.2202 2
2043.6782 992.18787 3653.5078 2
2063.9478 991.49396 3650.9526 3
2022.9989 961.71185 3541.2869 3
2045.9785 962.62109 3544.6348 3
2054.4211 956.742 3522.9863 3
2059.9316 949.6297 3496.7969 3
2081.6001 950.034 3498.2856 4
2100.4692 949.16528 3495.0869 4
2179.3091 975.14801 3590.7622 4
2200.4109 975.04193 3590.3718 4
2219.7568 974.16736 3587.1511 4
2238.5977 973.08972 3583.1833 4
2258.8296 972.63165 3581.4963 4
2276.2498 970.98254 3575.4241 5
2299.7383 971.92859 3578.9075 4
2323.7271 973.06683 3583.0989 5
2337.9797 970.14435 3572.3376 1546
2372.0908 975.44061 3591.8398 791318
2379.4634 969.74512 3570.8674 856596
2419.3245 977.27393 3598.5906 395274
2443.0823 978.22296 3602.085 5
2487.5637 987.38116 3635.8081 5
2548.0339 1002.6736 3692.1189 7
2580.9297 1006.9465 3707.853 265
2607.9878 1008.8889 3715.0054 8
2542.2324 975.19556 3590.9373 6060681
2688.4045 1022.6815 3765.7935 6125961
2792.3262 1053.4437 3879.0684 6191503
2873.4897 1075.1865 3959.1313 6322321
2933.5713 1088.7518 4009.083 6190734
3013.6946 1109.4769 4085.3982 6190734
3084.3218 1126.4027 4147.7236 6059405
3152.627 1142.2189 4205.9629 6256013
3211.9705 1154.5647 4251.4238 6256013
3272.3105 1167.0732 4297.4839 6124427
3320.1858 1174.9771 4326.5874 6124684
3365.364 1181.8121 4351.7563 6124428
3407.3779 1187.4402 4372.4805 6190220
3455.0164 1194.9285 4400.0542 6190219
3493.1672 1199.0474 4415.2212 6255242
3536.0291 1204.7098 4436.0723 6124168
3542.9204 1198.1245 4411.8228 6058373
3601.8708 1209.1115 4452.2798 5663873
3669.0139 1222.6682 4502.1997 5794944
3733.1667 1235.0394 4547.7539 5794944
3752.1477 1232.3961 4538.0205 5597821
3829.2915 1248.7578 4598.2686 5399672
3822.1736 1237.604 4557.1973 4873329
3875.6064 1246.0753 4588.3911 5136500
3932.3955 1255.4998 4623.0942 4873586
3966.6958 1257.6631 4631.0605 4675950
3955.1121 1245.3494 4585.7178 5202037
3999.2251 1250.6213 4605.1304 4807536
4025.7625 1250.3627 4604.1782 4873583
4089.6111 1261.6179 4645.623 4873325
4103.4639 1257.4022 4630.0996 5268340
4142.7812 1260.9938 4643.3247 5399925
4191.1743 1267.2817 4666.479 5070960
4226.5342 1269.5723 4674.9131 4939373
4256.4741 1270.2155 4677.2817 5135983
4272.1445 1266.6196 4664.041 4939117
4442.8105 1308.7277 4819.0938 3754587
4464.7983 1306.78 4811.9224 3886173
4506.4434 1310.5741 4825.8931 4873067
4509.6665 1303.217 4798.8022 5597044
4587.689 1317.4323 4851.1465 5860472
4700.6206 1341.432 4939.5205 5728115
5021.7856 1424.1892 5244.2554 5069671
5094.5449 1435.9117 5287.4209 4476759
5015.0659 1404.8448 5173.0239 3884107
0 0 0 0
0 0 0 0
0 0 0 0
0 0 0 0
0 0 0 0
0 0 0 0
0 0 0 0
-2948.6851 924.7843 3332.3801 5598852
-2946.1465 930.23627 3352.0259 5598850
-2940.5044 934.77588 3368.384 5926789
-2939.0417 940.71539 3389.7866 5861252
-2925.5837 942.87109 3397.5544 5729667
-2910.0002 944.36694 3402.9446 5598082
-2891.8245 945.03662 3405.3577 5466496
-2869.3115 944.28827 3402.6611 5466497
-2864.1584 949.28314 3420.6594 5466497
-2846.1946 950.073 3423.5059 5466497
-2827.3459 950.57672 3425.321 5532033
-2798.4312 947.67896 3414.8792 5532033
-2777.0789 947.31854 3413.5803 5467009
-2757.1697 947.44885 3414.0498 5532290
-2735.311 946.90607 3412.094 5533059
-2714.4624 946.70752 3411.3784 5467266
-2695.8958 947.3078 3413.5415 5533059
-2665.6274 943.77417 3400.8086 5533059
-2643.0437 942.9281 3397.7598 5730439
-2615.0186 940.11279 3387.615 5796231
-2592.8967 939.39246 3385.0195 5796232
-2579.1711 941.72668 3393.4307 5730438
-2560.8381 942.4021 3395.8643 5730438
-2540.8601 942.47809 3396.1382 5730438
-2526.6299 944.70435 3404.1602 5664646
-2508.0879 945.34131 3406.4556 5796231
-2500.1426 950.01526 3423.2979 5796231
-2478.4709 949.50739 3421.4675 5730695
-2464.3044 951.89014 3430.0535 5796488
-2447.4834 953.27863 3435.0569 5730438
-2428.7812 953.9516 3437.4819 5862024
-2411.864 955.34308 3442.4961 5927818
-2396.4568 957.36163 3449.7698 5993610
-2383.3052 960.32391 3460.4438 6125196
-2360.8914 959.573 3457.7383 5993610
-2342.6987 960.53992 3461.2224 5927817
-2322.2712 960.59924 3461.4363 5927817
-2304.5994 961.80981 3465.7986 6059403
-2286.8594 963.01355 3470.136 6059660
-2266.9255 963.30701 3471.1934 6059403
-2247.7971 963.95099 3473.5142 5862024
-2232.7451 966.37152 3482.2361 5730695
-2205.7419 963.61615 3472.3074 5862025
-2184.8188 963.49011 3471.8533 5993867
-2164.5093 963.6347 3472.3743 5927817
-2144.6753 963.99585 3473.6758 5730439
-2123.439 963.72766 3472.7092 5730695
-2103.3103 963.96167 3473.5525 5993610
-2083.5366 964.36481 3475.0051 6059403
-2064.1052 964.93604 3477.0635 6059916
-2045.0552 965.69885 3479.812 6059918
-2024.6788 965.84442 3480.3367 6125709
-2006.0806 966.85016 3483.9607 6059918
-1987.9712 968.11481 3488.5178 5993868
-1968.7665 968.86707 3491.2285 5730696
-1944.4612 967.09857 3484.856 5664903
-1925.8704 968.16473 3488.698 5664903
-1901.4824 966.30823 3482.0081 5664903
-1883.8271 967.86993 3487.6353 5665415
-1860.7357 966.64221 3483.2114 5599365
-1836.191 964.62347 3475.937 5599366
-1815.5292 964.62177 3475.9309 5599622
-1792.6912 963.4505 3471.7104 5665158
-1772.9963 963.96094 3473.5498 5730952
-1754.3036 965.03455 3477.4185 5730953
-1730.3677 963.21515 3470.8625 5730951
-1711.2738 964.07983 3473.978 5730951
-1688.9672 963.13336 3470.5676 5665159
-1670.6395 964.46063 3475.3506 5796744
-1649.7322 964.31329 3474.8193 5796745
-1627.4653 963.35754 3471.3752 5730951
-1610.1113 965.32251 3478.4561 5533572
-1588.0475 964.47821 3475.4136 5467779
-1569.3228 965.66632 3479.6948 5467779
-1547.067 964.68439 3476.1565 5533829
-1523.2184 962.66913 3468.8948 5796744
-1504.0526 963.59875 3472.2446 5797001
-1487.2338 966.07886 3481.1814 5862537
-1464.9554 965.03241 3477.4106 5731208
-1446.0214 966.19061 3481.5842 5664903
-1424.2772 965.4776 3479.0149 5862282
-1403.0469 965.09686 3477.6431 5796489
-1387.6118 968.75092 3490.8101 5796489
-1367.7742 969.39551 3493.1326 5730697
-1344.5807 967.64471 3486.824 5665415
-1321.3707 965.82727 3480.2749 5665158
-1296.1528 962.461 3468.145 5533829
-1271.6202 959.50299 3457.4858 5467780
-1218.2026 934.29456 3366.6497 5401985
-1221.1304 952.17969 3431.0969 5073018
-1192.1957 945.40558 3406.687 4875892
-1169.3478 943.30743 3399.1267 4677997
-1142.4088 937.77747 3379.1997 2637897
-1123.4409 938.70984 3382.5596 1122856
-1098.4142 934.52136 3367.4666 1385254
-1073.0656 929.89844 3350.8086 1713446
-1049.8528 926.98657 3340.3159 1845033
-1038.2773 934.4361 3367.1594 1910826
-1005.9777 923.16016 3326.5276 1845290
-986.70728 923.62848 3328.2151 1844522
-969.94525 926.51196 3338.6055 776
-964.03088 940.09424 3387.5481 523
-953.39209 949.5506 3421.6233 3821406
-945.32404 962.03522 3466.6106 4085867
-920.79456 957.95068 3451.8921 4744570
-905.39716 963.39691 3471.5173 5007742
-890.11053 969.21777 3492.4922 5205121
-874.44293 974.89197 3512.9387 5533572
-858.0885 980.05927 3531.5586 5468036
-842.48364 986.36316 3554.2742 5665158
-823.76385 989.25073 3564.6792 5007228
-803.46503 990.3443 3568.6199 5533572
-786.6759 995.94067 3588.7859 5073278
-766.65417 997.64227 3594.9175 5730951
-750.09198 1004.0724 3618.0879 5664388
-724.14093 997.94324 3596.002 4480369
-705.34479 1001.6014 3609.1841 4545903
-680.20746 996.20203 3589.7278 5400700
-659.55804 997.23865 3593.4631 1977659
-641.88098 1002.9891 3614.1843 4676717
-622.69849 1006.704 3627.5708 4216685
-603.68915 1010.9753 3642.9622 5928072
-582.94855 1012.5574 3648.6626 5928587
-562.07629 1014.024 3653.9478 5797001
-538.60187 1010.7256 3642.062 5730951
-520.84424 1018.3279 3669.4563 5862537
-501.32211 1022.9941 3686.271 5204863
-481.46268 1027.3671 3702.0283 6059915
-460.38956 1029.4451 3709.5161 6059915
-436.78079 1025.7771 3696.2991 5862537
-414.18991 1024.2377 3690.752 5928329
-395.02682 1031.4768 3716.8374 5862537
-370.29901 1024.1823 3690.5522 5730951
-351.30417 1032.824 3721.6919 5665158
-330.76419 1037.7791 3739.5471 5730951
-308.08026 1036.2369 3733.99 5731206
-285.36282 1034.3337 3727.1321 5599620
-263.25702 1034.5139 3727.7812 5467777
-239.7011 1028.5049 3706.1284 5204605
-217.66382 1028.4554 3705.95 5664643
-196.58405 1033.4283 3723.8694 5796999
-175.95683 1042.3439 3755.9958 5994121
-152.6855 1035.911 3732.8157 5862277
-130.52745 1036.1282 3733.5984 5204091
-108.44128 1037.1218 3737.1787 4216937
-86.326958 1038.2887 3741.3835 3952737
-63.935463 1035.775 3732.3257 3360343
-41.944351 1040.5229 3749.4343 5994377
-19.704889 1042.8896 3757.9624 5862792
2.6258674 1041.2601 3752.0906 5796742
24.976677 1043.384 3759.7439 5796999
47.300201 1042.9005 3758.0015 5927815
69.732796 1044.3606 3763.2629 5862022
0 0 0 0
114.44124 1044.139 3762.4644 5796229
136.58809 1042.4996 3756.5574 5796742
159.40082 1045.6893 3768.0508 5862535
182.37921 1049.046 3780.1465 5862792
204.9418 1049.537 3781.9158 5730437
227.58961 1050.3242 3784.7524 4678006
249.04008 1045.9412 3768.9583 4349295
273.23557 1052.8588 3793.8855 3756901
295.5621 1052.0692 3791.0403 6125451
320.22906 1059.1322 3816.4912 5928071
343.10114 1059.7169 3818.5984 5862534
365.37378 1058.4927 3814.1868 5994380
388.74643 1060.4121 3821.103 6059916
412.23285 1062.4127 3828.3123 6190987
435.36978 1063.3505 3831.6914 6190987
459.70297 1066.9716 3844.7395 6059658
482.14508 1066.0684 3841.4849 6059401
502.28702 1060.3907 3821.0264 6059401
530.94879 1072.4128 3864.3469 5993608
554.41119 1073.3717 3867.802 5993609
576.63049 1071.9432 3862.6548 5730436
596.5448 1066.5034 3843.0527 5927816
621.64008 1070.3857 3857.0422 6190988
643.22656 1068.165 3849.0403 6190989
668.33118 1071.7385 3861.917 6256782
690.81598 1071.0132 3859.303 6125453
713.95801 1071.3206 3860.4106 6190989
736.43329 1070.6394 3857.9565 6190989
760.33264 1072.0073 3862.8855 5993611
782.38342 1070.7651 3858.4094 5928074
805.75702 1071.3524 3860.5259 6191246
829.6095 1072.5264 3864.7559 6322576
852.67603 1072.6483 3865.1951 6190989
877.14514 1074.4821 3871.8027 6125451
900.69916 1075.1298 3874.1367 5928327
924.10291 1075.5702 3875.7239 6387593
952.40442 1081.551 3897.2754 790292
992.35101 1100.1582 3964.3247 1711908
1018.5784 1103.0453 3974.728 989476
1039.9207 1100.6311 3966.0291 3294292
1041.9163 1078.3019 3885.5674 5795457
1068.6309 1081.9684 3898.7793 6256266
1095.5316 1085.6637 3912.0955 6190218
1109.1666 1076.3324 3878.4707 5993097
1166.5166 1108.9385 3995.9636 5071995
1165.5862 1085.9448 3913.1084 6125453
1194.8517 1091.4333 3932.8855 5993611
1220.8207 1093.7578 3941.2615 6059660
1232.2533 1083.2164 3903.2769 6059403
1253.1522 1081.2324 3896.1274 5993610
1271.3015 1076.991 3880.8435 6059403
1292.8807 1075.7545 3876.3882 6125196
1316.9493 1076.5964 3879.4219 6125196
1338.1748 1075.1251 3874.1201 6059403
1361.4326 1075.3088 3874.7825 6125196
1386.4128 1076.8242 3880.2429 6125196
1403.1488 1071.9915 3862.8284 5993867
1427.7776 1073.2473 3867.3538 5862281
1451.6273 1073.887 3869.6589 5927817
1476.3164 1075.1179 3874.0945 5927817
1500.5702 1075.999 3877.2693 5928074
1527.9037 1079.0284 3888.1853 5927817
1549.7905 1078.1783 3885.1221 5993095
1576.6846 1080.7854 3894.5166 5992838
1604.3835 1083.861 3905.5991 5927046
1629.0287 1084.8152 3909.0374 5795716
1654.6692 1086.396 3914.7339 5663614
1679.7798 1087.5898 3919.0359 5597305
1700.548 1085.978 3913.2278 5400182
1727.2874 1088.1715 3921.1318 5071729
1737.3074 1079.9137 3891.3752 4807785
1761.8719 1080.795 3894.5513 3227208
1784.2075 1080.3041 3892.782 329999
1782.3979 1065.3932 3839.052 263
1800.4139 1062.5599 3828.8425 5
1809.6919 1054.7047 3800.5369 3
1824.7203 1050.3533 3784.8569 1
1839.4214 1045.9218 3768.8882 2
1879.7202 1055.9768 3805.1211 2
1904.9532 1057.4301 3810.3577 0
1905.0087 1045.0372 3765.7014 0
1936.3678 1049.9054 3783.2429 0
1943.3685 1041.6061 3753.3372 0
1958.339 1037.7183 3739.3279 0
1970.3586 1032.3716 3720.0615 0
1984.979 1028.4911 3706.0786 0
2007.1146 1028.547 3706.28 0
2020.3916 1024.1115 3690.2966 1
2030.9952 1018.4305 3669.8262 2
2046.2617 1015.1837 3658.1265 2
2064.5476 1013.4873 3652.0137 2
2081.6519 1011.2523 3643.9597 2
2030.0792 976.04388 3517.0896 4
2046.6072 973.96173 3509.5867 4
2056.5439 968.81647 3491.0461 4
2069.4314 965.15021 3477.8352 4
2084.3857 962.51099 3468.325 4
2174.6321 994.35065 3583.0564 4
2197.1235 994.89215 3585.0078 4
2215.8459 993.73309 3580.8311 5
2228.2153 989.77411 3566.5652 260
2263.1924 995.83746 3588.4138 263
2269.8303 989.43414 3565.3403 331027
2306.5479 996.1402 3589.5049 3427416
2340.7634 1001.6525 3609.3679 5336187
2342.4739 993.28162 3579.2043 5073273
2341.3167 983.85638 3545.2412 4810358
2378.1033 990.40149 3568.8259 4941430
2427.8691 1002.1887 3611.3 5072500
2478.0938 1013.9569 3653.7061 2369590
2542.7444 1031.3721 3716.46 10
2556.8262 1028.1525 3704.8586 8
2581.6982 1029.2899 3708.957 267
2608.3674 1031.1185 3715.5461 267
2609.7593 1023.0078 3686.3201 3889255
2662.5393 1035.0083 3729.5625 6059911
2744.5059 1058.0626 3812.6367 6190990
2819.094 1077.918 3884.1841 6322320
2879.7913 1092.1827 3935.5859 6256527
2942.979 1107.1545 3989.5354 6322320
3028.1665 1130.0972 4072.2075 6256784
3074.842 1138.4175 4102.189 6321806
3126.1047 1148.292 4137.7705 6256270
3184.3726 1160.5652 4181.9961 6321806
3253.4238 1176.548 4239.5889 6256013
3273.7122 1174.7865 4233.2412 6256013
3307.8196 1177.9728 4244.7231 6321806
3348.4363 1183.4116 4264.3213 6256013
3392.7068 1190.0503 4288.2432 6321807
3398.6694 1183.2531 4263.75 6321806
3429.2959 1185.0796 4270.3315 6190220
3496.9231 1199.5719 4322.5532 6124170
3526.5862 1200.9247 4327.4282 6123914
3554.9097 1201.8051 4330.6006 6058120
3585.7837 1203.5288 4336.812 5860742
3629.3701 1209.4644 4358.2002 5794948
3674.3418 1215.774 4380.9365 5794948
3708.6118 1218.479 4390.6836 5663617
3780.5271 1233.4281 4444.5513 5532287
3800.8254 1231.4462 4437.4097 5532030
3840.302 1235.6622 4452.6021 5203320
3869.7175 1236.6057 4456.0015 5268599
3876.8984 1230.4794 4433.9258 5004914
3956.6638 1247.3175 4494.6006 4609897
3964.0176 1241.2555 4472.7568 4215395
3978.4609 1237.4795 4459.1504 2767950
4048.4346 1250.9117 4507.5518 3360342
4037.1553 1239.2261 4465.4438 4610410
4144.4766 1263.8606 4554.2119 5070962
4173.5029 1264.4541 4556.3506 4873839
4203.9883 1265.4791 4560.0444 5005168
4221.5498 1262.6256 4549.7622 5136241
4231.8896 1257.6624 4531.8774 4938862
4328.5107 1278.2415 4606.0322 4609896
4327.8896 1270.0258 4576.4277 4938860
4388.5015 1279.7695 4611.5386 4873066
4423.7808 1282.0507 4619.7583 4675688
4501.063 1296.4014 4671.4702 3820380
4576.8335 1310.1436 4720.9888 3885915
0 0 0 0
0 0 0 0
0 0 0 0
0 0 0 0
0 0 0 0
0 0 0 0
0 0 0 0
-2891.9375 926.41107 3268.2483 5533316
-2887.6956 931.30756 3285.5225 5467267
-2874.8645 933.48181 3293.1926 5663619
-2861.5044 935.51288 3300.3579 5663875
-2844.5796 936.39844 3303.4822 5663875
-2846.2676 943.46619 3328.416 5532290
-2821.696 941.86731 3322.7756 5598595
-2802.498 942.05237 3323.4285 5532803
-2787.2087 943.56323 3328.7585 5598339
-2782.771 948.79559 3347.2175 5663875
-2756.0171 946.4397 3338.9062 5598596
-2730.2773 944.40045 3331.7122 5664388
-2710.9531 944.56671 3332.2988 5598853
-2694.449 945.7254 3336.3862 5730695
-2670.8938 944.4079 3331.7385 5796488
-2647.6614 943.18573 3327.4268 5993867
-2622.8577 941.38129 3321.0608 6059403
-2598.7493 939.80078 3315.4854 6125196
-2577.312 939.16962 3313.2585 5927817
-2556.7444 938.84802 3312.1238 5796488
-2538.6079 939.42108 3314.1458 5796231
-2517.1545 938.76611 3311.835 5796231
-2500.9661 940.07977 3316.4695 5927817
-2482.4819 940.54462 3318.1094 5862025
-2469.6265 943.16638 3327.3586 5796489
-2453.696 944.64685 3332.5813 5664904
-2450.0166 950.90619 3354.6636 5796490
-2416.428 945.56464 3335.8191 5730439
-2412.2632 951.74359 3357.6177 5730183
-2396.5874 953.44617 3363.624 5795977
-2383.6248 956.26581 3373.5715 5796232
-2367.6245 957.90442 3379.3523 5795975
-2350.9832 959.30945 3384.3091 5861769
-2335.7253 961.30811 3391.3601 5927562
-2318.0493 962.33777 3394.9927 5861770
-2305.0476 965.34296 3405.5945 5861769
-2283.8667 964.9458 3404.1931 5861770
-2259.9163 963.36066 3398.6013 5993611
-2248.3816 967.0874 3411.7488 5993611
-2231.8669 968.72064 3417.5103 5993355
-2211.1685 968.55109 3416.9121 5993611
-2198.8027 972.06219 3429.2988 6059403
-2176.3093 971.11981 3425.9744 5993610
-2155.5564 970.94354 3425.3525 5796231
-2132.2148 969.58698 3420.5667 5862024
-2113.8752 970.50049 3423.7896 5862024
-2094.0132 970.72614 3424.5857 6059403
-2073.4834 970.64362 3424.2944 6059403
-2052.5356 970.36194 3423.3005 5862280
-2033.5078 970.99127 3425.5208 5796744
-2014.3182 971.55536 3427.5107 5796489
-1988.0282 968.67114 3417.3359 5796490
-1978.6106 974.03351 3436.2537 5730696
-1955.4221 972.65784 3431.4001 5665160
-1933.5201 971.89984 3428.7263 5599110
-1909.7626 970.18298 3422.6694 5533318
-1889.9205 970.43988 3423.5754 5533317
-1868.9784 970.13116 3422.4866 5533317
-1846.4167 968.96582 3418.3752 5599365
-1823.8966 967.79657 3414.2505 5599365
-1800.1119 965.92255 3407.6389 5665415
-1778.7349 965.31232 3405.4863 5599622
-1755.4717 963.65271 3399.6316 5730951
-1734.3763 963.15839 3397.8877 5731207
-1715.9967 964.17828 3401.4856 5665158
-1693.9155 963.11792 3397.7449 5665158
-1673.8406 963.18646 3397.9866 5665158
-1655.0977 964.03247 3400.9712 5599366
-1629.5929 960.91223 3389.9634 5401986
-1613.495 963.33014 3398.4934 5467779
-1593.6298 963.53156 3399.2039 5599109
-1574.6158 964.25952 3401.7722 5599365
-1557.2166 966.008 3407.9404 5665158
-1535.1805 964.88831 3403.9905 5862537
-1517.3345 966.40729 3409.3494 5994123
-1495.2867 965.25519 3405.2849 5994123
-1474.5161 964.90723 3404.0571 5862794
-1452.9437 964.01752 3400.9185 5928330
-1433.113 964.27466 3401.8254 5928330
-1427.34 974.13318 3436.605 5928075
-1395.5674 966.27618 3408.8867 5862283
-1378.4471 968.48224 3416.6694 5862538
-1356.9575 967.63849 3413.6929 5797001
-1339.7146 969.84344 3421.4714 5796489
-1318.8373 969.44482 3420.0652 5730951
-1296.7509 968.13098 3415.4302 5533572
-1271.8976 964.67682 3403.2444 5467779
-1248.9674 962.59326 3395.8938 5401987
-1230.4919 963.93079 3400.6125 5270397
-1208.1506 962.23413 3394.627 5138553
-1178.5522 954.60175 3367.7009 4809330
-1148.9246 946.6814 3339.7593 4216420
-1139.9895 955.83276 3372.0437 2900042
-1130.3645 964.72253 3403.4055 200213
-1103.8741 959.28009 3384.2056 529946
-1078.3682 954.50702 3367.3667 988954
-1053.05 949.72284 3350.4888 1317663
-1030.5358 947.33167 3342.0532 1251870
-1007.7601 944.60162 3332.4219 1054747
-987.15839 943.84039 3329.7366 66310
-980.08917 956.25159 3373.5215 519
-965.1618 961.35406 3391.522 1254190
-968.59479 985.35217 3476.1841 3426391
-939.02704 976.0929 3443.5188 4415087
-912.19012 969.32306 3419.6357 4941434
-893.08362 970.6463 3424.304 5204608
-878.26312 976.79822 3446.0071 5467780
-861.95636 981.55139 3462.7756 5665670
-845.24005 986.05945 3478.6792 3954796
-825.05341 986.64325 3480.739 3822696
-807.41687 990.38531 3493.9404 4151404
-791.65723 996.68799 3516.1753 4678262
-763.87109 987.78052 3484.751 5533571
-746.74695 992.54816 3501.5706 5862536
-734.66016 1004.4766 3543.6521 5730951
-713.69135 1004.6064 3544.1106 5731208
-693.12286 1005.3251 3546.6455 5270142
-676.09509 1011.3853 3568.0251 4480884
-660.93341 1020.7198 3600.9563 1782599
-643.06647 1026.3616 3620.8596 5730950
-618.70123 1021.6632 3604.2844 5731208
-592.80219 1014.0043 3577.2646 5599365
-572.95209 1016.5074 3586.0952 5665158
-551.86261 1016.9199 3587.5505 5599365
-531.36816 1018.5063 3593.1472 5730950
-509.89322 1018.2673 3592.304 5665157
-489.80084 1020.8892 3601.5537 5533057
-467.6492 1019.2625 3595.8149 5138554
-444.28687 1014.7148 3579.7715 3361630
-426.32626 1022.6673 3607.8264 2307655
-406.19034 1025.9677 3619.47 5861764
-386.6011 1031.0951 3637.5588 4151146
-366.41498 1035.1439 3651.8423 3493986
-342.60739 1028.8274 3629.5586 5401727
-320.83963 1028.1991 3627.3423 5401728
-300.34991 1031.8712 3640.2966 5467777
-279.2381 1033.8101 3647.137 5665156
-256.7507 1030.5541 3635.6501 5928328
-235.44145 1031.8632 3640.2681 5994121
-213.54031 1030.5806 3635.7434 5993865
-191.5374 1028.4625 3628.2712 5862792
-169.48326 1025.4972 3617.8103 5928328
-149.01018 1032.6267 3642.9622 5994121
-127.38205 1032.8153 3643.6277 5731206
-104.82542 1024.0109 3612.5664 5599363
-85.07518 1045.147 3687.1318 5928328
-61.808353 1022.7598 3608.1528 5994121
-41.15799 1042.8818 3679.1409 5994123
-19.317101 1044.261 3684.0061 5994378
2.5804403 1045.1605 3687.1797 5928328
24.410341 1041.5645 3674.4932 5796742
46.291046 1042.5085 3677.824 5928072
68.511314 1048.0415 3697.3435 5927815
90.74958 1051.0956 3708.1177 5993608
112.75634 1050.7986 3707.0701 5993609
134.74692 1050.4727 3705.9199 5928073
157.18547 1053.24 3715.6829 5862536
179.42239 1054.1409 3718.8608 5730949
198.47612 1038.1935 3662.6006 5599620
224.37279 1057.6547 3731.2573 5796999
242.42982 1039.9845 3668.9192 5796742
266.54047 1049.0565 3700.9238 5928327
291.14426 1058.5383 3734.3745 6059657
313.10574 1057.7506 3731.5955 6059914
332.21631 1048.0729 3697.4541 6059917
358.12286 1059.7059 3738.4937 6125709
380.27982 1059.5326 3737.8821 6059917
402.99258 1060.8416 3742.5 6125452
426.26273 1063.4041 3751.5403 6256781
448.87015 1064.1406 3754.1389 6190989
471.71609 1065.3462 3758.3921 6190989
494.36951 1066.0277 3760.7959 6191246
517.61243 1067.8663 3767.2825 6256782
541.73865 1071.2991 3779.3928 6322574
564.61011 1072.0762 3782.1343 6322575
586.50293 1071.0066 3778.3611 6322319
610.69 1074.051 3789.1011 6059660
633.95282 1075.3112 3793.5466 6059660
655.72925 1074.05 3789.0974 6059660
678.60907 1074.6199 3791.1082 6125197
702.63544 1076.9105 3799.189 6125452
724.00214 1075.1089 3792.8333 6125453
746.57367 1075.1512 3792.9827 5730694
763.94312 1067.9192 3767.469 4085611
794.39648 1078.8682 3806.0955 6059657
811.08734 1071.0376 3778.4702 6125195
834.00897 1071.6349 3780.5774 6190990
856.4505 1071.6001 3780.4546 6059658
880.09924 1073.0391 3785.531 6125451
904.69019 1075.5265 3794.3062 6059658
931.91351 1080.946 3813.4258 5335677
975.65894 1104.8176 3897.6416 5664642
992.367 1097.6755 3872.4451 5927301
995.85565 1076.5663 3797.9746 5795459
1016.3838 1074.405 3790.3501 5861252
1043.7898 1079.4503 3808.1494 6189961
1068.5212 1081.5743 3815.6423 6190474
1092.4362 1082.8007 3819.9688 6190476
1116.6273 1084.2454 3825.0652 6190734
1138.7452 1083.6594 3822.998 6190989
1163.6722 1085.7172 3830.2578 6125197
1187.9547 1087.1062 3835.1582 6125453
1211.9307 1088.1677 3838.9031 5862024
1227.8049 1082.0502 3817.3213 5862024
1248.4523 1080.2847 3811.0925 5927817
1271.1156 1080.2955 3811.1309 5796488
1291.8438 1078.6901 3805.467 5796488
1312.7141 1077.2565 3800.4097 5862024
1334.7797 1076.8357 3798.925 5862281
1359.4374 1078.4854 3804.7449 5862024
1378.7634 1075.9205 3795.6963 5862024
1400.8826 1075.5826 3794.5044 5927817
1426.0028 1077.5232 3801.3506 5993867
1450.5619 1078.986 3806.5107 6059404
1471.9941 1078.1134 3803.4326 5862024
1498.7238 1081.0886 3813.929 5861254
1523.0338 1082.2559 3818.0466 5992838
1548.3837 1084.1168 3824.6118 5927045
1576.5375 1087.8585 3837.8123 5992839
1600.0883 1088.3629 3839.5918 5795459
1627.3348 1091.3314 3850.064 5729667
1654.8324 1094.3838 3860.8323 5729663
1679.311 1095.3832 3864.3582 5597821
1703.6605 1096.2727 3867.4963 5400441
1726.4215 1096.1299 3866.9924 5136496
1746.4387 1094.2717 3860.437 4479335
1761.3224 1089.2869 3842.8511 4084064
1774.6199 1083.4612 3822.2988 3819602
1787.8466 1077.7402 3802.1162 1054492
1797.1661 1069.8361 3774.2314 516
1816.7665 1068.1715 3768.3591 1
1832.8724 1064.5178 3755.4695 0
1849.324 1061.1505 3743.5901 65536
1869.6373 1060.0527 3739.7173 65536
1908.6108 1069.4365 3772.822 0
1913.4987 1059.7252 3738.5618 0
1935.5736 1059.646 3738.2822 0
1950.4351 1055.6644 3724.2358 0
1957.5028 1047.6011 3695.7896 0
1972.0798 1043.6909 3681.9951 0
1993.9601 1043.6892 3681.9893 0
2008.9037 1040.0963 3669.3137 1
2022.6835 1035.9845 3654.8076 2
2037.0807 1032.2727 3641.7134 2
2057.0557 1031.4358 3638.7607 2
2072.887 1028.5604 3628.6165 2
2085.8345 1024.3279 3613.6848 2
2035.6799 989.50891 3490.8484 1
2047.6952 985.30719 3476.0254 3
2056.5786 979.69745 3456.2351 4
2070.395 976.52557 3445.0449 4
2138.4592 998.75165 3523.4556 4
2188.9719 1012.429 3571.707 4
2206.0186 1010.5135 3564.9497 5
2226.4155 1010.1548 3563.6843 263
2248.478 1010.5514 3565.0833 330514
2245.6787 999.87091 3527.4043 1911865
2230.0554 983.73114 3470.4653 2768205
2291.312 1001.49 3533.1162 3624544
2345.759 1015.9768 3584.2236 4282988
2389.7336 1025.7083 3618.5544 4283247
2409.8711 1025.1259 3616.5002 4612209
2426.0186 1022.8716 3608.5476 5070960
2454.7793 1025.9283 3619.3313 4080982
2613.9805 1082.9734 3820.5781 12
2565.7817 1053.8501 3717.8354 11
2593.3826 1056.0917 3725.7434 12
2618.4023 1057.2531 3729.8406 524
2633.7358 1054.5168 3720.1873 1386807
2655.9463 1054.5565 3720.3274 6059655
2704.5752 1064.9985 3757.1655 6059403
2774.0181 1083.3986 3822.0779 6190988
2843.0947 1101.3578 3885.4355 6190991
2897.4941 1113.3878 3927.8757 6256528
2951.9375 1125.2423 3969.6965 6256784
3016.5579 1140.7572 4024.4312 6387600
3043.6355 1141.9425 4028.6128 6387600
3098.6289 1153.5011 4069.3899 6321806
3156.2998 1165.87 4113.0254 6321806
3181.7214 1166.2278 4114.2876 6256270
3216.7922 1170.0901 4127.9136 6321807
3253.1277 1174.3505 4142.9434 6321806
3296.9243 1181.22 4167.1782 6256013
3333.2363 1185.3254 4181.6616 6256013
3374.2449 1191.028 4201.7793 6256270
3398.009 1190.6046 4200.2856 6256013
3425.4958 1191.4822 4203.3818 6255756
3479.1921 1201.3973 4238.3613 6255499
3491.3655 1196.9349 4222.6187 6255499
3549.8396 1208.296 4262.6987 6124170
3560.6343 1203.382 4245.3623 6058377
3596.7009 1207.0182 4258.1904 5926534
3623.6233 1207.5562 4260.0884 5860741
3659.6243 1211.0909 4272.5591 5729155
3694.3865 1214.1702 4283.4219 5598080
3723.6731 1215.4199 4287.8306 5663616
3786.7546 1227.6084 4330.8301 5466237
3822.0039 1230.6705 4341.6328 5465978
3873.1082 1238.7625 4370.1802 5399929
3900.3003 1239.1498 4371.5464 5399672
3925.3235 1238.8473 4370.479 5531001
3954.1665 1239.7462 4373.6509 5531002
3982.5938 1240.5043 4376.3247 5070450
4034.1052 1248.3959 4404.1655 4939377
4060.1831 1248.3658 4404.0596 4939377
4055.5938 1238.9675 4370.9033 5004656
4136.1162 1255.5248 4429.3149 5136499
4160.6895 1254.9962 4427.4507 5136499
4223.186 1265.8417 4465.7114 5136500
4213.7563 1255.1271 4427.9121 5070708
4239.9009 1255.076 4427.7324 4939890
4278.2305 1258.6106 4440.2017 5005428
4300.8716 1257.5144 4436.3345 5136756
0 0 0 0
0 0 0 0
0 0 0 0
0 0 0 0
0 0 0 0
0 0 0 0
0 0 0 0
-2825.4265 924.08234 3193.0825 5533316
-2818.3203 927.99127 3206.5894 5467523
-2805.074 929.91797 3213.2468 5663875
-2799.291 934.36206 3228.603 5729668
-2788.5383 937.19733 3238.4001 5729412
-2775.792 939.39722 3246.0017 5861254
-2756.425 939.37183 3245.9138 5992840
-2734.9915 938.63672 3243.3738 5927559
-2724.1243 941.54321 3253.417 5861767
-2720.0864 946.86853 3271.8181 5927560
-2692.6606 944.07062 3262.1501 5796488
-2667.0457 941.87158 3254.5515 5862281
-2651.7683 943.31775 3259.5488 5796488
-2631.8127 943.10889 3258.8271 5862024
-2621.6165 946.4201 3270.2686 5927817
-2601.5491 946.19055 3269.4753 5993867
-2570.8726 942.07001 3255.2373 5928074
-2547.877 940.72296 3250.5825 6059403
-2526.334 939.89563 3247.7236 6125196
-2507.3386 940.01068 3248.1213 6190989
-2487.0698 939.64642 3246.8628 6190989
-2468.1167 939.77747 3247.3157 6059403
-2455.3694 942.29218 3256.0049 5927817
-2436.4995 942.47845 3256.6487 5862280
-2418.3137 942.93451 3258.2244 5730695
-2403.4714 944.71216 3264.3667 5730438
-2393.1482 948.30945 3276.7969 5796487
-2377.082 949.67133 3281.5027 5862023
-2361.9607 951.4364 3287.6018 5730439
-2348.7495 954.00671 3296.4834 5862025
-2334.6086 956.2395 3304.1987 5862025
-2320.4465 958.50146 3312.0146 5861769
-2303.7012 959.72583 3316.2454 5927562
-2290.5942 962.50031 3325.832 5861770
-2276.6604 964.97241 3334.3745 5861769
-2260.0725 966.35333 3339.146 5861769
-2242.7246 967.43073 3342.8689 5927562
-2227.4565 969.43274 3349.7866 5993355
-2209.6514 970.35657 3352.9788 5927819
-2196.3896 973.31061 3363.1863 5862539
-2174.7024 972.55096 3360.5613 5730953
-2160.7571 975.27161 3369.9622 5730184
-2140.7644 975.28802 3370.019 5927562
-2115.0935 972.6936 3361.0542 6059148
-2100.0601 974.98816 3368.9829 6322576
-2081.0471 975.46161 3370.6189 6257039
-2061.8228 975.8443 3371.9412 6059403
-2048.5896 979.09784 3383.1833 5599109
-2015.4784 972.82111 3361.4949 5533316
-1996.5909 973.35309 3363.333 5467523
-1976.127 973.11938 3362.5254 5533317
-1956.135 973.11572 3362.5129 5599110
-1933.921 971.99518 3358.6409 5599110
-1911.1758 970.58154 3353.7563 5533574
-1890.3358 970.11597 3352.1472 5467525
-1865.6121 967.62579 3343.543 5401732
-1842.8618 966.11688 3338.3291 5467524
-1823.7705 966.5141 3339.7014 5599110
-1803.131 966.09052 3338.238 5599365
-1780.6649 964.66803 3333.3228 5730951
-1760.2134 964.31708 3332.1101 5665158
-1739.0701 963.57501 3329.5459 5730951
-1717.845 962.7699 3326.7637 5599366
-1699.5757 963.62201 3329.708 5599365
-1680.113 963.80957 3330.3562 5533572
-1660.0167 963.63379 3329.7488 5599622
-1640.1501 963.58868 3329.593 5665158
-1620.483 963.66107 3329.8433 5665415
-1602.9235 965.00409 3334.4839 5796744
-1581.1415 963.80701 3330.3474 5862794
-1561.9629 964.1864 3331.6584 5927817
-1543.5494 965.05414 3334.6567 5599365
-1528.821 968.27832 3345.7976 5730952
-1508.542 968.02557 3344.9243 6191503
-1485.9017 966.23065 3338.7222 6125966
-1470.3143 969.03552 3348.4141 6125709
-1446.1252 966.17047 3338.5142 5796744
-1426.0752 966.02942 3338.0269 5796745
-1405.8732 965.78009 3337.1653 5796744
-1391.7712 969.77411 3350.9663 5730697
-1372.3513 970.12476 3352.178 5730696
-1352.5083 970.18225 3352.3765 5730697
-1333.4717 970.82855 3354.6099 5599367
-1315.1757 972.04187 3358.8022 5599111
-1294.058 971.17487 3355.8064 5467780
-1272.4564 969.91199 3351.4426 5336450
-1252.1611 969.62048 3350.4353 5467779
-1228.9963 967.06152 3341.5933 5401986
-1210.0651 967.8045 3344.1604 5270398
-1190.1826 967.79889 3344.1411 5072761
-1165.2336 963.60315 3329.6431 4480364
-1143.8705 962.27905 3325.0679 4019041
-1137.6738 973.89154 3365.1936 4084832
-1118.17 974.32446 3366.6895 4018267
-1097.0135 973.3067 3363.1726 3031372
-1072.2137 968.95874 3348.1487 2570823
-1054.8268 971.27191 3356.1418 2769486
-1034.875 971.26721 3356.1255 2770001
-1012.71 969.14429 3348.7898 2704208
-1005.1378 981.18115 3390.3823 3362138
-992.05109 988.21735 3414.6951 3757409
-973.55182 990.04315 3421.0042 4152169
-947.43298 984.03302 3400.2366 4546927
-924.95648 981.62634 3391.9207 4875897
-902.06262 978.65967 3381.6694 5138813
-883.60938 980.48511 3387.9773 5204606
-863.37457 980.37292 3387.5896 5336194
-847.50269 985.32776 3404.7104 5402243
-832.39771 991.43835 3425.825 5599365
-814.54248 994.4975 3436.3958 5665158
-793.62024 993.87323 3434.2385 5796744
-773.89685 994.75684 3437.2917 5862794
-756.92334 999.31891 3453.0557 6060430
-735.81647 998.52612 3450.3164 6125966
-719.55536 1004.4524 3470.7939 5928588
-700.85052 1007.2164 3480.3445 5928587
-682.34045 1010.437 3491.4731 6059915
-652.81049 997.02899 3445.1431 5730951
-649.73773 1024.469 3539.9592 5862280
-632.18378 1030.1482 3559.5833 5730951
-604.5249 1019.1846 3521.6995 5862537
-582.63708 1017.513 3515.9236 5928587
-561.77344 1017.5721 3516.1279 5928330
-538.71252 1013.5022 3502.0647 5731208
-520.74536 1019.0732 3521.3149 5862793
-501.4136 1022.3285 3532.5632 5928329
-478.88303 1019.0614 3521.2739 5994122
-457.33578 1017.6838 3516.5137 5994123
-431.27814 1005.6567 3474.9556 6059916
-415.0325 1016.4506 3512.2522 6191502
-398.311 1027.1603 3549.2588 5994379
-381.35236 1038.422 3588.1731 5862278
-357.16284 1030.1622 3559.6318 5796742
-335.67834 1029.1554 3556.1528 5665413
-315.38531 1031.9116 3565.677 5730949
-293.72797 1030.2797 3560.0376 5665156
-273.13495 1032.4171 3567.4236 5599364
-251.46819 1030.5144 3560.8486 5796742
-230.35095 1030.7207 3561.5615 5928328
-208.91342 1029.3906 3556.9658 6059401
-187.93755 1030.2919 3560.0796 5731206
-166.31526 1027.4285 3550.1855 5928328
-146.05753 1033.3875 3570.7766 5664901
-125.33602 1037.5336 3585.103 5730693
-103.89147 1036.1667 3580.3799 5401471
-82.343422 1032.7976 3568.7383 5401984
-61.635529 1041.2844 3598.0637 5533570
-40.352982 1043.9229 3607.1804 5467778
-18.940664 1045.3799 3612.2151 5533571
2.5314124 1046.8005 3617.124 5796999
23.994263 1045.2773 3611.8606 5928585
45.467628 1045.4343 3612.4033 6256780
66.853127 1044.1184 3607.856 6190987
88.591011 1047.6086 3619.9163 6190987
110.37323 1050.1567 3628.7209 5993608
132.1037 1051.4598 3633.2241 5994121
153.92744 1053.035 3638.6665 5928328
175.62675 1053.4756 3640.189 5928328
197.08437 1052.5288 3636.9175 5994377
218.61429 1052.1172 3635.4954 5994121
240.27562 1052.3551 3636.3174 6125707
261.48126 1050.7228 3630.6768 6125707
283.57416 1052.6327 3637.2764 6125707
306.74155 1057.978 3655.7471 6125708
327.27383 1054.1288 3642.446 6060173
349.54349 1056.0059 3648.9324 6125966
372.15588 1058.6387 3658.0298 6191503
394.14536 1059.3066 3660.3379 6257039
415.9006 1059.3082 3660.343 6256782
438.14938 1060.5042 3664.4756 6322575
460.84979 1062.6282 3671.8149 6256782
482.99149 1063.3301 3674.2402 6322576
505.89896 1065.5841 3682.0293 6257039
529.20349 1068.453 3691.9424 6322575
551.74512 1069.6146 3695.9561 6322575
574.91107 1071.8512 3703.6843 6190990
598.16321 1074.0775 3711.377 6059404
619.70532 1073.1841 3708.29 6125196
640.23053 1070.6515 3699.5388 6125453
662.86554 1071.6982 3703.1555 6190989
685.56244 1072.7744 3706.8745 6190734
707.42267 1072.5151 3705.9785 6256526
732.11896 1076.4414 3719.5454 6322576
754.23511 1076.4551 3719.5928 6453905
781.26306 1083.2787 3743.1711 5928074
799.9964 1078.5416 3726.8027 6190990
818.39996 1073.6273 3709.8213 6322575
840.65076 1073.8854 3710.7131 6190989
863.29358 1074.6183 3713.2458 5993610
887.43713 1077.1362 3721.946 5796486
908.75024 1076.1798 3718.6411 5862022
929.6568 1074.7986 3713.8687 5927558
955.77112 1079.3625 3729.6394 6059144
979.82831 1081.4495 3736.8501 5993608
1003.6673 1083.2083 3742.9275 6059403
1027.6079 1084.998 3749.1118 5928074
1049.2832 1084.3706 3746.9441 5993867
1071.6144 1084.4332 3747.1604 5993867
1094.7533 1085.2938 3750.1343 5927818
1118.6826 1086.8883 3755.6438 6059403
1144.0775 1089.8163 3765.761 6059660
1163.8492 1087.3783 3757.3369 6125196
1183.6309 1085.0411 3749.261 6059403
1205.5754 1084.7365 3748.208 5993867
1227.4694 1084.3981 3747.0391 5928074
1248.7357 1083.5273 3744.03 5993610
1270.3319 1082.9681 3742.0981 5862024
1292.3119 1082.7499 3741.3438 5664646
1318.7542 1086.2142 3753.3147 5401473
1334.4358 1080.8479 3734.7715 5730438
1355.8267 1080.2056 3732.552 5796231
1376.1179 1078.7219 3727.4255 5796488
1399.6385 1079.7767 3731.0706 5862281
1420.1106 1078.4834 3726.6016 5862281
1450.2715 1084.4749 3747.3044 5927817
1472.7307 1084.613 3747.782 5861511
1496.405 1085.6288 3751.2915 5795460
1522.5249 1088.3629 3760.7388 5861252
1549.5153 1091.631 3772.0315 5927045
1571.7089 1091.4747 3771.4917 5861252
1596.3341 1092.988 3776.7205 5861252
1623.4429 1096.136 3787.5981 5729664
1639.9385 1092.1299 3773.7556 5729408
1670.2909 1097.3357 3791.7434 5663612
1694.2375 1098.2502 3794.9041 5531513
1720.9268 1100.8954 3804.0437 5399926
1743.5194 1100.8853 3804.0088 5070959
1748.486 1089.8883 3766.01 4544615
1763.099 1085.1064 3749.4868 4478049
1798.0474 1092.8032 3776.082 3753294
1818.2284 1091.4456 3771.3911 66052
1814.4451 1075.911 3717.7126 1
1848.9674 1083.1909 3742.8679 65536
1865.988 1080.1667 3732.4177 65536
1882.5856 1076.9714 3721.3767 65536
1911.1908 1080.6398 3734.0525 65536
1922.299 1074.4442 3712.6443 0
1939.2363 1071.6105 3702.8523 0
1962.0884 1072.0719 3704.447 0
1957.8643 1057.8932 3655.4539 0
1977.65 1056.8566 3651.8716 0
1994.0011 1054.0269 3642.094 0
2009.7058 1050.9199 3631.3582 0
2023.1058 1046.6866 3616.7305 0
2043.2711 1046.0056 3614.3772 0
2054.4597 1040.7913 3596.3596 0
2073.4558 1039.5989 3592.2393 2
2030.2979 1007.5852 3481.6189 2
2040.8949 1002.6255 3464.4814 2
2045.506 994.85382 3437.627 4
2063.1523 993.51282 3432.9934 4
2156.2566 1028.1792 3552.7795 4
2183.0791 1030.8741 3562.0916 4
2199.9829 1028.8787 3555.1965 5
2220.7864 1028.7274 3554.6741 5
2240.5737 1028.1129 3552.5508 5
2263.8752 1029.1073 3555.9866 8
2295.6875 1033.9164 3572.6038 133138
2325.3945 1037.6976 3585.6697 793128
2345.6145 1037.2153 3584.0029 1781311
2365.3906 1036.547 3581.6938 2044742
2410.0996 1046.7192 3616.843 2439241
2472.8674 1064.4854 3678.2322 2767691
2474.7209 1055.9482 3648.7332 4147029
2585.604 1093.6775 3779.1033 10
2573.7878 1079.3038 3729.4363 9
2595.2585 1079.015 3728.4382 11
2625.9768 1082.5435 3740.6304 270
2651.6028 1083.9308 3745.4243 197899
2690.3875 1090.6295 3768.571 5598333
2684.6877 1079.3333 3729.5378 5138556
2739.1223 1092.2002 3773.9983 5533059
2796.8176 1106.1475 3822.1921 5664646
2852.0327 1118.8972 3866.2476 5861770
2897.9285 1127.8163 3897.0664 5993356
2929.71 1131.1443 3908.5662 6256013
2975.855 1139.9221 3938.8972 6321806
3013.6433 1145.3867 3957.7798 6387599
3048.6038 1149.7003 3972.6848 6387599
3089.7563 1156.2648 3995.3677 6387599
3129.8799 1162.3469 4016.384 6321553
3162.3992 1165.5345 4027.3984 6322062
3198.855 1170.114 4043.2227 6322063
3230.7168 1172.9574 4053.0474 6387599
3260.1794 1174.894 4059.7395 6453392
3290.4331 1177.0852 4067.3108 6322063
3327.5251 1181.6729 4083.1628 6321806
3355.3699 1182.9341 4087.521 6256012
3385.1807 1184.8651 4094.1936 6256013
3412.0156 1185.7345 4097.1978 6190476
3444.5618 1188.5623 4106.9688 6190219
3478.7583 1191.9156 4118.5562 6058890
3505.3242 1192.6261 4121.0107 6124426
3542.1062 1196.7782 4135.3584 6123913
3571.2363 1198.3058 4140.6367 6058377
3575.5977 1191.5582 4117.3208 6189961
3637.8296 1204.0565 4160.5078 5926532
3670.4568 1206.6536 4169.4814 5466237
3713.1533 1212.5038 4189.6968 5400443
3739.4338 1212.9513 4191.2432 5465722
3771.4312 1215.2351 4199.1343 5400188
3797.8904 1215.7159 4200.7959 5663359
3842.5608 1221.9819 4222.4478 5663359
3919.7073 1238.4275 4279.2734 5663102
3920.8108 1230.7902 4252.8833 5662845
4000.2224 1247.675 4311.2275 5136501
3993.6233 1237.6887 4276.7207 4741742
3999.6006 1231.7019 4256.0337 3886434
4045.3538 1237.9624 4277.6665 4412522
4037.5117 1227.8461 4242.7104 4807534
4144.2671 1252.489 4327.8618 5136500
4177.9922 1254.8928 4336.168 5004658
4198.7915 1253.4086 4331.0396 4478827
0 0 0 0
0 0 0 0
0 0 0 0
0 0 0 0
0 0 0 0
0 0 0 0
0 0 0 0
-2784.0742 929.25757 3146.3494 5730439
-2774.0457 932.17139 3156.2153 5730438
-2758.7788 933.35272 3160.2151 5730438
-2742.8162 934.31311 3163.467 5730439
-2727.0293 935.34729 3166.9683 5730695
-2711.6848 936.5484 3171.0352 5730695
-2694.9023 937.26624 3173.4658 5862024
-2677.0393 937.61578 3174.6492 5796232
-2663.3787 939.45258 3180.8684 5927817
-2647.4016 940.49274 3184.3904 5927561
-2631.2986 941.50281 3187.8103 5993097
-2612.2944 941.48193 3187.7395 6124426
-2595.3044 942.19196 3190.1438 6059916
-2577.5776 942.64301 3191.6709 6256782
-2555.2527 941.40668 3187.4849 6322575
-2537.0244 941.67249 3188.3848 6256782
-2517.6624 941.51825 3187.8625 6322832
-2503.8701 943.46039 3194.4385 6388368
-2480.8853 941.94196 3189.2974 6256782
-2463.1973 942.42682 3190.939 6257039
-2440.7764 941.09424 3186.4268 6190989
-2422.729 941.44031 3187.5986 5927818
-2404.5105 941.72498 3188.5623 5927819
-2389.2581 943.18488 3193.5054 5795977
-2372.4041 944.03088 3196.3699 5730184
-2356.4817 945.26422 3200.5459 5795977
-2345.6372 948.57111 3211.7427 5861768
-2332.864 951.146 3220.4609 5730695
-2320.0164 953.73285 3229.2195 5796232
-2304.4038 955.21674 3234.2439 5862025
-2290.0986 957.27209 3241.2031 5927562
-2280.7168 961.43781 3255.3076 5993099
-2267.7522 964.15143 3264.4956 5796489
-2255.1484 967.06671 3274.3665 5796489
-2239.991 968.9281 3280.6689 5796489
-2224.0884 970.49707 3285.9812 5730953
-2207.863 971.95178 3290.9067 5796489
-2189.2253 972.36096 3292.292 5796489
-2175.5305 974.9928 3301.2031 5730953
-2157.3821 975.65839 3303.4568 5862282
-2138.9385 976.20148 3305.2954 5730696
-2119.9553 976.50604 3306.3269 5795720
-2101.5437 977.08209 3308.2773 5795720
-2085.8447 978.9422 3314.5752 5795720
-2066.2163 978.97589 3314.6895 5795975
-2046.4786 978.95807 3314.6292 5796231
-2026.3567 978.75433 3313.9392 5796488
-2002.7943 976.86841 3307.5537 5664645
-1980.504 975.57172 3303.1633 5336193
-1961.1246 975.69727 3303.5884 5401986
-1939.1376 974.51495 3299.5852 5533572
-1914.9115 972.17175 3291.6514 5467780
-1892.651 970.78827 3286.9673 5467780
-1873.3213 970.89508 3287.3286 5599110
-1851.9833 969.95221 3284.1362 5599110
-1832.1669 969.79456 3283.6025 5599367
-1808.287 967.45972 3275.697 5796489
-1786.615 966.26788 3271.6619 5796745
-1764.7177 964.92682 3267.1211 5730951
-1744.0647 964.24384 3264.8086 5730951
-1724.5148 964.16217 3264.5322 5533573
-1703.0835 963.01483 3260.6475 5533573
-1683.0869 962.6618 3259.4519 5533829
-1664.9829 963.39551 3261.936 5599365
-1647.1747 964.31958 3265.0649 5796744
-1629.0654 965.08752 3267.665 5994379
-1609.0713 964.74377 3266.5012 6059916
-1591.0513 965.58978 3269.3657 5730951
-1572.7452 966.28088 3271.7058 5730951
-1554.5862 967.08075 3274.4141 5994123
-1539.2722 969.69324 3283.2595 5927561
-1525.8281 973.56586 3296.3718 6322832
-1503.5942 971.85791 3290.5889 6717590
