# .PCD v0.7 - Point Cloud Data file format
VERSION 0.7
FIELDS x y z rgb
SIZE 4 4 4 4
TYPE F F F U
COUNT 1 1 1 1
WIDTH 1299
HEIGHT 1
VIEWPOINT 0 0 0 1 0 0 0
POINTS 1299
DATA ascii
-3451.283 1028.175 4470.9502 4809073
-3453.3691 1036.7789 4508.3638 4809585
-3432.1565 1038.4679 4515.7085 4809586
-3346.1689 1020.4301 4437.272 4743793
-3372.2773 1036.5615 4507.4185 4743793
-3336.5181 1033.7821 4495.3325 4743793
-3307.9116 1033.1921 4492.7671 4678000
-3277.5964 1032.0544 4487.8198 4875637
-3213.7605 1020.2563 4436.5166 5006966
-3208.8728 1027.132 4466.4146 4809588
-3183.2485 1027.4293 4467.7075 4875381
-3203.2664 1042.587 4533.6201 3493728
-3076.7134 1009.8918 4391.4473 3888743
-3054.5222 1011.1859 4397.0742 5007224
-2980.1448 995.07697 4327.0259 5204346
-2937.2803 989.30164 4301.9121 5204346
-2883.1748 979.60553 4259.749 5204346
-2829.7239 969.96185 4217.8145 5270139
-2774.9131 959.6756 4173.0854 5270139
-2744.7434 957.80255 4164.9404 5270395
-2690.4846 947.41284 4119.7612 5335679
-2680.5803 952.59442 4142.293 5533058
-2622.2214 940.49316 4089.6716 5599105
-2562.2546 927.58344 4033.5347 5599106
-2529.4587 924.35907 4019.5134 5664642
-2502.0222 923.05042 4013.823 5664897
-2470.1055 920.04779 4000.7666 5730690
-2427.5322 912.97913 3970.0286 5730434
-2421.2683 919.56128 3998.6509 5730691
-2381.9783 913.60681 3972.7581 5796228
-2353.4158 911.68878 3964.4177 5730949
-2328.0657 910.98901 3961.375 5665155
-2308.4248 912.53186 3968.084 5599364
-2285.3716 912.74384 3969.0054 5665157
-2270.6841 916.336 3984.626 5665413
-2249.1907 917.22852 3988.5071 5796742
-2226.6589 917.71216 3990.6101 5796999
-2194.7896 914.31622 3975.843 5796743
-2191.0176 922.67877 4012.2068 5796743
-2181.7849 928.90033 4039.261 5993865
-2168.2075 933.39014 4058.7847 5993865
-2147.7356 934.97943 4065.6956 6059401
-2130.782 938.15399 4079.5 5993608
-2113.6924 941.34106 4093.3586 5928072
-2102.0044 947.03595 4118.1226 5796742
-2083.4644 949.7417 4129.8882 5730949
-2065.4775 952.76697 4143.0435 5796742
-2051.5447 957.75787 4164.7461 5862793
-2038.4904 963.28583 4188.7842 5994121
-2013.9656 963.4632 4189.5552 5862535
-2002.0638 969.75922 4216.9331 5730950
-1989.9702 976.12085 4244.5962 5730949
-1970.229 978.84631 4256.4478 5599363
-1968.6536 990.78516 4308.3628 5533827
-1942.3872 990.44849 4306.8989 5730949
-1914.5566 989.29456 4301.8813 5533571
-1903.4484 996.86713 4334.8101 5402241
-1874.7925 995.33142 4328.1323 5533571
-1848.0861 994.80237 4325.8315 5533570
-1821.6725 994.4184 4324.1616 5533570
-1796.2463 994.56995 4324.8208 5599363
-1766.2915 992.18201 4314.437 5665156
-1732.972 987.80585 4295.4077 5730949
-1704.0494 985.84265 4286.8711 5796742
-1668.9871 980.21387 4262.3945 5599107
-1636.7047 976.0694 4244.3726 5598850
-1610.1533 975.26648 4240.8813 5598851
-1584.7731 975.15857 4240.4121 5664643
-1557.9242 974.12909 4235.9351 5664644
-1526.5363 970.18085 4218.7666 5730693
-1498.827 968.47791 4211.3613 5730436
-1467.7705 964.51733 4194.1392 5730436
-1435.0808 959.32819 4171.5747 5533057
-1403.4418 954.67139 4151.3247 5533570
-1392.3969 964.10748 4192.3569 5073019
-1356.4185 956.30872 4158.4443 5665156
-1313.3695 943.14288 4101.1938 5533570
-1314.4524 961.77002 4182.1924 5664896
0 0 0 0
-1044.7914 794.51031 3454.875 3625568
-1027.9346 797.3623 3467.2769 3559518
-997.5769 789.64423 3433.7153 3624542
-972.5672 785.92548 3417.5444 2439754
-951.17218 785.03125 3413.656 2900049
-940.47205 793.11737 3448.8179 2637903
-938.92194 809.45209 3519.8484 6520206
-1101.2914 971.06805 4222.6245 5599105
-1081.4089 975.77271 4243.0825 5599361
-1051.5488 971.48413 4224.4336 5599361
-1029.1143 974.01373 4235.4336 5599361
-1014.2208 983.98639 4278.7993 5599361
-991.77295 986.95453 4291.7061 5533569
-966.65729 987.35431 4293.4443 5599361
-944.1311 990.49249 4307.0903 5599618
-917.55737 989.44092 4302.5176 5533568
-898.89612 997.10596 4335.8486 5599361
-872.74554 996.67072 4333.9561 5730948
-847.0415 996.73444 4334.2329 5730948
-820.93555 996.31445 4332.4067 5862533
-794.33698 995.24976 4327.7773 5862533
-766.80115 992.90051 4317.5615 5862533
-742.30121 994.45569 4324.3242 5928069
-715.9165 993.5069 4320.1982 5730690
-690.68054 994.14087 4322.9551 5664898
-666.30048 996.10333 4331.4888 5664643
-640.39685 995.85443 4330.4062 5665156
-615.40497 997.06183 4335.6567 5730949
-590.85938 999.12933 4344.647 5796741
-566.06403 1000.9443 4352.5391 5796997
-540.2547 1001.0541 4353.0171 5796740
-515.03021 1002.3133 4358.4922 5730947
-490.74908 1005.6389 4372.9536 5665154
-467.16214 1010.8385 4395.564 5468032
-441.43307 1011.7445 4399.5034 5401982
-415.60571 1012.5251 4402.8979 5401983
-389.59494 1012.9337 4404.6748 5073017
-364.56937 1016.1472 4418.6484 5072760
-336.76682 1011.5187 4398.5215 4809844
-312.85214 1018.7714 4430.0596 4414829
-285.13797 1013.8477 4408.6489 4941429
-260.90509 1021.5581 4442.1772 5533311
-235.41475 1025.5269 4459.4351 5467775
-208.90318 1025.4896 4459.2729 5533568
-182.17978 1024.2504 4453.8843 5467775
-156.02438 1026.3262 4462.9106 5599362
-128.89673 1021.5469 4442.1284 5467775
-103.27129 1029.2778 4475.7461 5533568
-76.652733 1029.0408 4474.7148 5533568
-49.796024 1023.6561 4451.3003 5533571
-23.278151 1020.9256 4439.4268 5533568
3.1406353 1032.0129 4487.6396 5599617
30.152834 1043.804 4538.9116 5730946
56.380886 1030.1324 4479.4619 5863043
83.60038 1037.5355 4511.6538 5731458
110.19562 1035.4768 4502.7017 5862530
137.63867 1040.6328 4525.1221 5928323
164.73405 1041.9042 4530.6509 5993860
191.37125 1040.3275 4523.7949 5796481
218.49573 1041.462 4528.728 5796738
245.72533 1042.7937 4534.5186 5664895
273.12048 1044.4954 4541.9185 5599356
300.31491 1045.1921 4544.9482 5599357
326.06216 1041.1531 4527.3848 5664893
355.52899 1048.7014 4560.208 5335929
381.25311 1044.9226 4543.7759 5336185
414.22415 1060.1919 4610.1733 5599100
439.36591 1054.771 4586.6011 5665150
466.15881 1053.7157 4582.0122 5664894
491.7088 1050.1224 4566.3872 5928067
519.34106 1051.1195 4570.7227 5993860
546.57202 1051.2456 4571.2715 5928067
574.79694 1053.181 4579.6875 5992834
601.69312 1052.6168 4577.2339 5664125
626.58453 1048.746 4560.4019 4874353
660.81006 1060.1714 4610.0845 6124677
683.09125 1052.287 4575.7998 5861761
707.17053 1047.6703 4555.7241 5927554
740.01245 1055.8971 4591.498 5664639
764.12646 1051.5282 4572.5 5993090
793.50928 1054.4607 4585.252 6058884
815.54163 1047.7552 4556.0938 5993091
845.35083 1051.1508 4570.8589 6058883
875.58386 1054.8456 4586.9253 5993603
905.49664 1057.9431 4600.3945 5861502
926.16473 1050.3743 4567.4824 5664124
975.98584 1075.358 4676.1226 5138036
1004.0386 1075.6376 4677.3379 5729659
1031.4796 1075.2644 4675.7153 2043703
1062.127 1078.1655 4688.3306 1582385
1075.9573 1064.2837 4627.9663 4282211
1114.387 1074.8199 4673.7827 5334899
1150.2136 1082.394 4706.7183 4414056
1167.0698 1072.1807 4662.3057 5400181
1195.0212 1072.3975 4663.2485 790292
1225.7253 1075.0188 4674.6475 989730
1239.7346 1063.2063 4623.2812 5927552
1270.8141 1066.2281 4636.4219 5796736
1310.474 1076.1681 4679.645 5862274
1333.3579 1072.2046 4662.4102 5598845
1379.8947 1087.0355 4726.9009 5664638
1383.8296 1068.3838 4645.7954 5993603
1399.5471 1059.3806 4606.646 6059140
1434.4883 1064.9951 4631.0601 5071988
1463.9406 1066.3997 4637.168 5401210
1488.6602 1064.3687 4628.3359 5664125
1508.845 1059.2279 4605.9814 6058885
1527.3546 1053.1154 4579.4014 6059655
1561.1815 1057.5929 4598.8721 6125194
1586.9979 1056.5834 4594.4824 6059401
1612.4109 1055.3441 4589.0933 6059658
1637.5691 1053.9819 4583.1699 6125195
1667.4812 1055.674 4590.5278 6190988
1691.1156 1053.4012 4580.645 6256781
1724.4244 1057.1311 4596.8643 6388624
1747.0687 1054.3091 4584.5928 6322830
1780.6471 1058.0708 4600.9502 6191244
1815.2561 1062.3218 4619.4355 6125450
1839.5944 1060.525 4611.6221 6059657
1864.9583 1059.3638 4606.5723 5928071
1890.631 1058.4088 4602.4199 5993608
1916.5671 1057.6265 4599.0181 5730692
1946.4614 1059.0198 4605.0767 5862022
1962.1799 1052.7686 4577.8936 5796228
1972.0623 1043.6 4538.0244 5862276
2014.8617 1051.8632 4573.957 5927300
1972.3519 1015.9634 4417.8491 5927300
2012.0394 1022.7907 4447.5371 5796483
1976.5061 991.69946 4312.3389 5796739
1884.1207 933.24408 4058.1497 5399926
1865.4382 912.31165 3967.126 16
1861.9623 899.24573 3910.3101 11
1882.0682 897.75067 3903.8088 460820
1900.2584 895.38922 3893.5403 395024
1925.7407 896.47937 3898.2805 7
1917.8243 882.18042 3836.1028 7
1920.2305 872.91003 3795.791 6
1938.1558 870.8277 3786.7363 4
1951.1915 866.62158 3768.446 4
1965.5673 863.0993 3753.1296 65538
1984.1495 861.48248 3746.0989 65538
1999.5896 858.55231 3733.3574 65538
2020.5044 858.01135 3731.0051 65536
2041.0598 857.33124 3728.0476 65536
2056.3201 854.46539 3715.5859 65536
2070.4727 851.20514 3701.4084 196608
2078.7888 845.6391 3677.2048 196608
2090.843 841.69373 3660.0488 196608
2100.3804 836.82684 3638.8855 196608
2122.9688 837.20593 3640.5339 196608
2141.1729 835.86578 3634.7065 0
2104.3911 813.30164 3536.5876 65536
2181.7554 834.86243 3630.3433 2
2142.3054 811.73895 3529.7927 2
2163.8557 811.95343 3530.7251 2
2177.1992 809.11389 3518.3777 2
2204.0732 811.30884 3527.9224 2
2279.9302 831.32294 3614.9524 2
2247.7937 811.95367 3530.7263 260
2326.1111 832.47217 3619.9495 5
2347.1958 832.31976 3619.2869 131591
2375.1824 834.59521 3629.1816 2173490
2378.5901 828.27094 3601.6809 2897471
2410.1316 831.7688 3616.8909 2698809
2452.1699 838.79541 3647.4458 461586
2468.7478 837.06616 3639.9265 8
2505.8965 842.28119 3662.6033 6
2527.0825 842.08716 3661.76 5
2556.3347 844.5614 3672.5188 7
2586.3523 847.24451 3684.1863 66317
2593.7703 842.5415 3663.7354 198677
2661.1079 857.21857 3727.5576 1844270
0 0 0 0
3483.4224 1103.7319 4799.5044 5992837
3551.3555 1116.1171 4853.3604 5992580
3635.5107 1133.3599 4928.3394 5992835
3676.6482 1137.0234 4944.2705 6057602
3741.5544 1147.9213 4991.6592 5860223
3854.0059 1173.12 5101.2339 5794430
3885.4431 1173.4579 5102.7031 5531260
3960.1287 1186.751 5160.5073 5662845
4031.9675 1198.9932 5213.7417 5268087
4069.3184 1200.8712 5221.9082 5070707
4109.6025 1203.5798 5233.6865 5004914
4158.8926 1208.8655 5256.6709 4741743
4176.6519 1204.9757 5239.7563 5268086
4213.9805 1206.7474 5247.4604 5333880
4259.9131 1210.939 5265.687 5202293
4298.8701 1213.1008 5275.0879 4939122
4345.5474 1217.3942 5293.7573 5004914
4380.4038 1218.3383 5297.8623 5202547
4410.1318 1217.8524 5295.75 5005169
4512.5977 1237.3176 5380.3931 5333621
4525.1426 1232.0269 5357.3867 5465461
4578.1919 1237.7609 5382.3208 5333362
4541.0698 1219.2056 5301.6343 4938603
4657.3823 1241.817 5399.9585 4675432
4702.2549 1245.2009 5414.6733 4412514
4737.9663 1246.1294 5418.7104 4477024
4719.3984 1232.8658 5361.0347 4082522
4827.5938 1252.6727 5447.1636 2898248
4773.0835 1230.2781 5349.7817 3359055
4857.0889 1243.6461 5407.9121 3687506
4826.7939 1227.7646 5338.8525 4147543
4772.2969 1205.9746 5244.1001 4213329
4737.5083 1189.4155 5172.0938 2896697
4602.3325 1148.0287 4992.126 2106152
4680.7979 1160.1226 5044.7153 263174
4623.291 1138.5765 4951.0239 0
4646.7827 1137.1244 4944.7095 131072
4679.7397 1137.9923 4948.4834 0
4714.2031 1139.2134 4953.7935 65536
4748.6802 1140.4226 4959.0513 65536
4778.9746 1140.6185 4959.9033 0
4804.3804 1139.6525 4955.7026 0
0 0 0 0
0 0 0 0
0 0 0 0
0 0 0 0
0 0 0 0
0 0 0 0
-3965.3042 1050.1322 4451.3872 3952740
-3907.8965 1041.8804 4416.4082 3952996
-4078.4976 1094.7169 4640.3765 2834516
-4001.2295 1081.2891 4583.4575 3755617
-4006.8096 1090.2195 4621.3125 4347752
-3891.2046 1066.072 4518.9541 4610668
-3855.3535 1063.5911 4508.4375 4742510
-3807.4092 1057.7157 4483.5327 4742510
-3776.2419 1056.4512 4478.1724 4545645
-3755.7522 1058.1771 4485.4883 4611438
-3710.9146 1053.0187 4463.6221 4874610
-3678.8164 1051.4269 4456.875 5006452
-3605.0398 1037.8137 4399.1704 5071989
-3576.3228 1037.0681 4396.0098 4874867
-3542.3921 1034.7886 4386.3472 4874868
-3483.8933 1025.2452 4345.894 4874612
-3452.0281 1023.4556 4338.3081 4940661
-3420.1521 1021.6358 4330.5942 5006197
-3375.6274 1015.9817 4306.627 5006454
-3337.2205 1012.0963 4290.1572 4940661
-3299.7822 1008.4473 4274.6895 5006454
-3280.9114 1010.4599 4283.2207 4941174
-3246.282 1007.6128 4271.1523 4941174
-3211.5276 1004.6817 4258.7275 4809845
-3202.7158 1009.8843 4280.7808 4809845
-3174.7839 1009.093 4277.4263 4809845
-3146.8809 1008.2979 4274.0566 4941175
-3088.5801 997.67114 4229.0107 5073017
-3094.251 1007.7035 4271.5366 5072760
-3060.231 1004.8688 4259.521 5072760
-3041.3726 1007.007 4268.584 5138553
-2984.2163 996.39368 4223.5957 5335932
-2943.3196 991.07544 4201.0522 5336189
-2911.8879 988.88049 4191.748 5270396
-2856.9626 978.60022 4148.1714 5270139
-2821.6616 974.92157 4132.5781 5270139
-2773.5381 966.70911 4097.7661 5336188
-2730.614 960.17932 4070.0874 5335932
-2694.3872 955.90894 4051.9856 5335933
-2667.5476 954.92188 4047.8015 5335933
-2614.196 944.33984 4002.9456 5335678
-2580.0667 940.57092 3986.9697 5335678
-2546.9866 937.11823 3972.334 5533057
-2515.1997 934.08105 3959.4597 5533057
-2477.5845 928.80182 3937.0815 5598850
-2438.9404 923.03229 3912.6252 5598850
-2411.2656 921.3432 3905.4656 5598850
-2374.4702 916.10223 3883.25 5598850
-2356.5239 918.10229 3891.7275 5533058
-2336.2214 919.2146 3896.4429 5598851
-2315.9897 920.3775 3901.3721 5533570
-2290.5027 919.45441 3897.459 5665156
-2273.0305 921.76245 3907.2429 5730949
-2245.363 919.94122 3899.5225 5730949
-2222.0513 919.88501 3899.2847 5665413
-2207.6985 923.57574 3914.929 5730949
-2184.4045 923.56458 3914.8818 5796742
-2170.7256 927.66223 3932.2515 5862536
-2160.0247 933.13562 3955.4521 5862536
-2148.3245 938.29315 3977.3142 5927815
-2130.928 941.04962 3988.999 5862279
-2111.0732 942.77045 3996.293 5928072
-2095.2239 946.3396 4011.4221 5993608
-2084.5981 952.3772 4037.0151 5862279
-2067.9363 955.76562 4051.3784 5796742
-2051.8481 959.50232 4067.2178 5862535
-2040.2617 965.45831 4092.4641 5994378
-2023.7668 969.20728 4108.3555 5994380
-2005.4027 972.1416 4120.7939 6060171
-1988.4594 975.84576 4136.4956 6059915
-1972.1375 979.95154 4153.8994 5862535
-1955.3313 983.91766 4170.7114 5665156
-1946.0612 991.82654 4204.2358 5270398
-1923.804 993.2359 4210.2104 5401984
-1909.1309 998.64984 4233.1592 5533057
-1877.2617 995.09296 4218.082 5335679
-1849.0779 993.4198 4210.9897 5335678
-1823.6187 993.18457 4209.9927 5401727
-1797.4797 992.5675 4207.377 5599364
-1769.3763 990.83295 4200.0244 5730949
-1740.8213 988.79224 4191.374 5730949
-1711.5298 986.2677 4180.6729 5730949
-1682.6385 983.90302 4170.6494 5665156
-1655.4587 982.48328 4164.6313 5730949
-1623.6562 978.23541 4146.625 5796486
-1594.6281 975.55383 4135.2578 5796229
-1569.1265 974.97943 4132.8232 5730436
-1544.5597 974.97693 4132.8125 5730436
-1516.3134 972.61407 4122.7969 5730436
-1487.729 969.95331 4111.5181 5664643
-1459.1973 967.23859 4100.0107 5796229
-1428.6147 963.04913 4082.252 5796229
-1397.3845 958.27075 4061.9973 5665156
-1366.0847 953.27576 4040.824 5533570
-1367.1207 971.07031 4116.2529 5730949
-1338.7644 968.25537 4104.3208 5665156
0 0 0 0
-1117.8798 839.07904 3556.7573 3033174
-1076.4927 823.58795 3491.0928 3493464
-1052.6481 821.17285 3480.8552 4018266
-1018.6055 810.54602 3435.8093 1713966
-991.73242 805.30621 3413.5984 198156
-959.49548 795.40094 3371.6111 396049
-949.77734 804.13892 3408.6504 3689045
-930.44049 804.93652 3412.0312 3097940
-915.16498 809.36139 3430.7878 200728
-928.99744 840.31744 3562.0068 5928326
-1032.7793 955.97754 4052.2764 5599105
-1007.5074 954.85187 4047.5046 5599361
-984.55188 955.91986 4052.0322 5599361
-959.25262 954.70905 4046.8994 5467519
-950.05194 969.87042 4111.1665 5204603
-929.37097 973.80286 4127.8359 5204604
-905.64215 974.66852 4131.5054 5072762
-891.50629 986.19415 4180.3613 3230814
-872.95435 993.35565 4210.7178 5467776
-847.13605 992.42719 4206.7822 5401726
-823.6474 994.25439 4214.5273 5402239
-798.12787 993.66791 4212.0415 5336190
-772.5545 992.97412 4209.1006 5599362
-749.30273 995.31769 4219.0347 5599363
-723.59033 994.44196 4215.3228 5533314
-699.06506 995.19342 4218.5078 5533057
-674.84033 996.44458 4223.8115 5533314
-649.72736 996.43011 4223.75 5664643
-625.69495 998.13824 4230.9907 5731204
-601.11981 999.08752 4235.0146 5599619
-575.81982 998.86224 4234.0596 5665156
-552.50751 1002.222 4248.3013 5665156
-528.31616 1004.2327 4256.8242 5599619
-503.57382 1005.3455 4261.5415 5665156
-479.35989 1007.687 4271.4668 5665156
-455.39209 1010.8368 4284.8184 5796742
-430.44031 1012.0461 4289.9448 5862533
-405.43292 1013.2689 4295.1279 5599618
-380.86868 1015.8379 4306.0176 5599361
-355.18427 1015.5742 4304.8994 5401726
-330.91162 1019.6193 4322.0464 4941174
-306.15424 1022.7261 4335.2158 5862276
-277.80374 1013.298 4295.251 5928070
-254.68602 1022.9797 4336.291 5796483
-229.15001 1024.0347 4340.7627 5665155
-203.54373 1025.0034 4344.8691 5665411
-177.70262 1024.8993 4344.4277 5730947
-152.06168 1026.1105 4349.562 5731204
-126.28749 1026.7346 4352.207 5533824
-100.55173 1028.0732 4357.8813 5467776
-74.667526 1028.296 4358.8257 5533825
-48.792412 1028.9474 4361.5869 5599618
-22.864853 1028.7159 4360.606 5730947
3.0451498 1026.4972 4351.2012 5665154
29.002861 1029.9427 4365.8062 5730948
55.084579 1032.4585 4376.4702 5730691
81.136581 1032.9822 4378.6899 5730690
107.26795 1034.0166 4383.0747 5730947
133.20187 1033.1154 4379.2544 5730690
159.61871 1035.6418 4389.9644 5730691
185.5668 1034.8445 4386.5845 5665153
211.96783 1036.4584 4393.4253 5599105
238.08766 1036.494 4393.5762 5730691
264.74265 1038.6221 4402.5972 5664896
291.54068 1040.8782 4412.1602 5730945
317.75827 1040.8604 4412.085 5730688
345.46771 1045.3596 4431.1567 5796481
370.61047 1042.005 4416.937 5928324
399.84586 1049.8398 4450.1479 5862274
427.27594 1052.2566 4460.3921 5796738
451.80542 1047.6649 4440.9282 5796482
479.91766 1051.4294 4456.8857 5730688
506.58002 1051.7898 4458.4131 5665152
533.68481 1052.9872 4463.4888 5993602
567.39203 1066.4813 4520.689 4083806
585.86041 1051.407 4456.7905 4939886
615.10901 1056.1465 4476.8809 3689819
637.52905 1049.2544 4447.6665 4940144
671.14478 1060.6038 4495.7744 5928067
696.27936 1058.1943 4485.5615 5927555
721.92395 1056.7091 4479.2656 5927811
748.39105 1056.4907 4478.3398 5927812
764.58252 1042.2795 4418.1006 6058884
805.72095 1061.8907 4501.23 6256007
832.42859 1061.8335 4500.9878 6256263
858.33789 1060.7935 4496.5786 5928068
886.01178 1061.931 4501.4009 5729663
911.46277 1060.4158 4494.978 5795712
938.45807 1060.7324 4496.3203 5598332
967.9353 1063.7592 4509.1499 5664126
996.02948 1065.1437 4515.019 5401209
1030.238 1072.8228 4547.5693 5533050
1035.2592 1050.4923 4452.9136 5335157
1076.9526 1065.5594 4516.7812 3032402
1091.9281 1054.1013 4468.2119 4150371
1135.5802 1070.2133 4536.5083 6058881
1170.777 1077.7941 4568.6421 6519177
1209.5116 1088.2142 4612.812 5862017
1205.8521 1060.8751 4496.9248 5862274
1238.8552 1066.2772 4519.8237 5993860
1264.9423 1065.6237 4517.0532 5993861
1291.8994 1065.715 4517.4404 5993347
1316.2429 1063.6904 4508.8589 5993090
1342.2605 1063.0725 4506.2397 5861505
1365.8539 1060.5966 4495.7441 5993090
1399.6571 1065.9913 4518.6118 5927298
1412.3798 1055.4302 4473.8442 6190469
1447.2393 1061.4958 4499.5562 6190983
1459.2228 1050.8671 4454.502 6191241
1489.8191 1053.7825 4466.8599 6257035
1520.5474 1056.6875 4479.1738 6257036
1551.8031 1059.8527 4492.5908 6322573
1580.067 1060.902 4497.0391 6388366
1605.868 1060.2904 4494.4463 6322574
1630.9972 1059.2625 4490.0889 6322573
1657.4559 1059.1171 4489.4727 6322573
1684.0482 1059.0603 4489.2324 6191244
1709.2072 1058.118 4485.2378 6190987
1741.2743 1061.4156 4499.2163 6125194
1765.5931 1059.9619 4493.0537 6059658
1789.9008 1058.5447 4487.0469 6125194
1818.0165 1059.3883 4490.6226 6125194
1842.163 1057.928 4484.4326 6190987
1864.2399 1055.3379 4473.4531 5927558
1896.5844 1058.5511 4487.0737 5729409
1893.9086 1042.4003 4418.6123 5729666
1913.7517 1038.916 4403.8428 5598851
1926.0883 1031.5056 4372.4312 5926789
1934.155 1022.0364 4332.2925 5927299
1937.2504 1010.2235 4282.2188 5861507
1943.4961 1000.3385 4240.3174 6058113
1842.1566 936.04022 3967.7644 2764604
1844.3052 925.28717 3922.1833 14
1864.6166 923.80115 3915.8843 11
1876.1854 918.07367 3891.6064 11
1896.1656 916.55164 3885.1545 7
1906.3927 910.40845 3859.1143 6
1911.1262 901.81903 3822.7048 5
1927.8201 899.00903 3810.7937 5
1942.4298 895.30359 3795.0867 4
1959.2308 892.68176 3783.9731 4
1976.7831 890.45764 3774.5454 1
1991.4723 887.00836 3759.9243 2
2012.0085 886.21106 3756.5444 0
2026.8934 882.9693 3742.8032 0
2043.5211 880.54889 3732.5432 65536
2059.4221 877.87079 3721.1909 65536
2077.125 876.0094 3713.3008 65536
2091.2444 872.69177 3699.238 65536
2102.9834 868.46021 3681.301 131072
2115.228 864.52246 3664.6091 65536
2131.8081 862.41882 3655.6921 65536
2101.5559 841.60278 3567.4553 65536
2170.6748 860.60004 3647.9827 65536
2191.0227 860.0766 3645.7637 65538
2144.9839 833.75891 3534.2058 2
2162.5181 832.42291 3528.543 2
2181.6619 831.7262 3525.5894 2
2203.4712 832.04913 3526.9587 1
2264.3584 846.98322 3590.2625 3
2299.9336 852.25885 3612.6252 4
2307.5286 847.16449 3591.0308 5
2355.5964 856.88629 3632.2402 262
2393.542 862.78265 3657.2341 6
2412.2542 861.70245 3652.6553 6
2410.0989 853.2536 3616.8418 10
2423.2712 850.33295 3604.4612 1119256
2501.675 870.15253 3688.4741 5990255
2521.4146 869.40002 3685.2844 5268589
2527.479 863.98584 3662.3345 5006191
2529.2659 857.21429 3633.6309 5468285
2522.3733 847.64087 3593.05 5730687
2588.4177 862.53265 3656.1748 5795456
2682.2249 886.35089 3757.1372 5598078
2759.0129 904.19818 3832.7898 5334650
3163.0168 1028.1121 4358.0459 5203065
3511.1023 1131.9846 4798.3496 5268856
3564.4424 1139.9226 4831.998 5597821
3582.7849 1136.631 4818.0454 5992066
3642.9153 1146.5436 4860.0635 6057602
3730.8508 1164.9824 4938.2236 6057602
3781.9595 1171.7238 4966.7993 5728637
3839.9148 1180.4656 5003.855 4873328
3864.9646 1179.0349 4997.7905 3820640
3968.7864 1201.4728 5092.9019 5136501
4008.7969 1204.3995 5105.3081 5268343
4022.48 1199.4319 5084.251 5399672
4070.1482 1204.5966 5106.1436 5333879
4114.1953 1208.6211 5123.2026 5333879
4157.439 1212.3522 5139.0186 5333879
4199.1934 1215.5978 5152.7759 5268087
4196.6064 1206.0531 5112.3174 5334136
4261.9243 1216.0204 5154.5679 5136756
4302.6719 1218.885 5166.7104 4544618
4351.981 1224.1172 5188.8892 4149347
4333.7363 1210.4082 5130.7778 3951966
4399.9131 1220.3048 5172.7285 4478567
4472.0288 1231.6996 5221.0298 4807275
4515.6909 1235.1547 5235.6753 4741481
4542.8076 1234.0679 5231.0688 4675430
4597.6313 1240.4714 5258.2129 4609637
4624.6699 1239.3424 5253.4268 4675173
4662.4243 1241.0811 5260.7969 4280159
4705.4492 1244.1902 5273.9756 3819865
4673.4219 1227.5443 5203.416 3687765
4677.4663 1220.5299 5173.6831 3555666
4684.4678 1214.3739 5147.5879 3291973
4671.4443 1203.14 5099.9692 2830904
4542.4243 1162.3687 4927.144 1645600
4696.5488 1194.1097 5061.6909 789518
4607.5078 1164.0149 4934.1221 0
4634.3525 1163.3921 4931.4824 196608
4652.8291 1160.6897 4920.0273 65536
4694.7817 1163.8409 4933.3848 65536
4733.0278 1166.0397 4942.7051 65536
4757.4507 1164.8269 4937.5645 0
4782.7451 1163.8411 4933.3857 0
0 0 0 0
0 0 0 0
0 0 0 0
0 0 0 0
0 0 0 0
0 0 0 0
-3749.5125 1018.0005 4209.1431 4545644
-3731.301 1019.8605 4216.8335 4479851
-3919.5583 1078.5604 4459.541 4414060
-3738.3462 1035.699 4282.3213 4414316
-3710.8057 1035.1163 4279.9121 4545646
-3721.1179 1045.1572 4321.4282 4479853
-3688.6396 1043.2356 4313.4829 4545646
-3670.6841 1045.4231 4322.5278 4677232
-3664.0071 1050.8763 4345.0752 5269370
-3640.3447 1051.5009 4347.6572 5203576
-3550.0884 1032.7614 4270.1748 4611439
-3536.4614 1036.2047 4284.4121 4809075
-3466.8984 1023.1896 4230.5986 5137783
-3427.6677 1019.0018 4213.2832 5137783
-3402.4375 1018.9451 4213.0488 5006198
-3348.6799 1010.2811 4177.2256 5071990
-3315.459 1007.7296 4166.6758 5006197
-3308.2063 1013.0923 4188.8486 4940661
-3264.637 1007.3304 4165.0249 5335162
-3211.4229 998.48175 4128.4385 5335162
-3175.3877 994.87915 4113.543 5400955
-3150.5295 994.74982 4113.0078 5270139
-3124.1416 994.13141 4110.4512 5138553
-3098.9131 993.87531 4109.3921 4941175
-3070.9514 992.73157 4104.6631 5007224
-3044.5986 992.09375 4102.0259 5006967
-3026.5981 994.18927 4110.6904 5072760
-3002.7039 994.367 4111.4253 5204346
-2981.4922 995.44342 4115.876 5204603
-2950.8811 993.37354 4107.3174 5335932
-2914.1873 989.20422 4090.0786 5401472
-2885.7107 987.77753 4084.1797 5533058
-2858.8894 986.89807 4080.5435 5533058
-2819.4314 981.60413 4058.6543 5204093
-2785.8503 978.28247 4044.9202 5533058
-2739.0049 970.20453 4011.52 5730436
-2684.0154 959.07458 3965.501 5730436
-2653.2864 956.49316 3954.8274 5401472
-2615.3523 951.245 3933.1279 5401472
-2587.0984 949.4549 3925.7263 5467521
-2552.3264 945.21814 3908.2087 5401472
-2523.1575 942.99774 3899.0281 5467521
-2493.4456 940.53125 3888.8298 5533057
-2456.5918 935.29962 3867.1985 5598850
-2430.1011 933.95209 3861.6265 5598851
-2393.7405 928.74921 3840.1143 5599107
-2364.864 926.37793 3830.3098 5730436
-2338.4648 924.94049 3824.3662 5664644
-2327.2004 929.51984 3843.3005 5730436
-2300.541 927.98004 3836.9338 5730693
-2277.0742 927.70996 3835.8174 5730949
-2248.0713 925.15637 3825.2588 5665413
-2229.3269 926.81531 3832.1182 5796742
-2210.032 928.27728 3838.1628 5862535
-2188.1631 928.67743 3839.8174 5796999
-2168.6355 930.09003 3845.6582 5928328
-2146.1548 930.25275 3846.3308 5796999
-2131.4746 933.83649 3861.1487 5928328
-2127.3809 942.18689 3895.675 5993609
-2117.4119 948.09021 3920.0837 5927816
-2109.6133 955.10767 3949.0989 5927816
-2089.5178 956.65308 3955.4888 5927816
-2064.698 956.04602 3952.9785 5862022
-2056.3445 963.13733 3982.2993 5928072
-2041.9478 967.53033 4000.4631 5862535
-2033.0283 974.65277 4029.9124 5401728
-2024.9872 982.37109 4061.8257 5204092
-2011.1642 987.43695 4082.7715 5533573
-1978.9806 983.50183 4066.5007 5599364
-1956.5126 984.3573 4070.0381 5665156
-1942.7397 989.66388 4091.9792 5665413
-1923.2 992.12988 4102.1753 5665156
-1911.5765 998.79553 4129.7358 5467520
-1881.3391 995.78229 4117.2769 5270142
-1858.4984 996.65625 4120.8906 5269885
-1832.9338 996.07343 4118.4805 5401471
-1803.9071 993.56763 4108.1201 5467521
-1780.7201 994.25391 4110.9575 5533314
-1751.8981 991.7691 4100.6836 5533570
-1719.9343 987.41052 4082.6621 5533827
-1691.6322 985.05945 4072.9409 5599363
-1663.1462 982.53156 4062.489 5599363
-1634.8866 980.06482 4052.2896 5665156
-1611.7278 980.62775 4054.6174 5665156
-1583.6555 978.17297 4044.4675 5730692
-1552.7075 973.83899 4026.5476 5730693
-1525.4017 971.68933 4017.6594 5796229
-1501.2738 971.52777 4016.9915 5467521
-1468.8154 965.883 3993.6519 5335678
-1439.1096 961.8927 3977.1528 5664643
-1414.9648 961.54797 3975.7278 5730436
-1390.7612 961.15088 3974.0859 5401471
-1375.7078 967.17303 3998.9861 5072506
-1333.3458 953.87054 3943.9839 5270138
-1298.5536 945.60419 3909.8047 5665155
0 0 0 0
-1101.926 832.20459 3440.9297 264462
-1093.8451 841.72314 3480.2861 1911865
-1072.6069 841.289 3478.4912 1647403
-1034.499 827.34595 3420.8406 520
-995.56348 812.16882 3358.0874 10
-977.20245 813.49847 3363.5852 11
-961.56854 817.20135 3378.8958 11
-944.00098 819.38379 3387.9194 524
-926.85156 822.03223 3398.8699 3489613
-911.23798 826.19122 3416.0662 923688
-903.86383 838.18036 3465.6379 3821660
-934.7572 887.04291 3667.6707 5664896
-972.08301 944.48871 3905.1924 5599361
-954.50018 950.08972 3928.3513 5599363
-937.25659 956.31793 3954.1028 5599364
-918.90912 961.71094 3976.4016 5599364
-900.39575 967.21069 3999.1414 5730948
-880.90106 971.92584 4018.6375 5533313
-863.60449 979.39667 4049.5271 5401982
-849.72552 991.28278 4098.6729 5401468
-826.45776 992.59448 4104.0962 5335932
-803.23938 994.04694 4110.1016 5401982
-779.2403 994.59399 4112.3638 5533569
-756.21307 996.45709 4120.0674 5599361
-732.74353 997.84277 4125.7964 5533568
-708.60962 998.38824 4128.0518 5664897
-685.50366 1000.4731 4136.6719 5664897
-661.50842 1001.3668 4140.3672 5664899
-636.54785 1000.8118 4138.0728 5730692
-613.47064 1003.2925 4148.3296 5665413
-589.81873 1005.0015 4155.396 5796742
-565.15967 1005.069 4155.6748 5730950
-540.26904 1004.7119 4154.1982 5862535
-516.20367 1005.9286 4159.2295 5796741
-491.78555 1006.5461 4161.7822 5862535
-467.44904 1007.4047 4165.332 5730949
-443.59384 1009.4546 4173.8081 5730949
-419.80988 1011.9191 4183.998 5862791
-395.5856 1013.5657 4190.8062 5994119
-371.56464 1015.9896 4200.8281 5994119
-346.00998 1014.2668 4193.7051 5928326
-320.60251 1012.7416 4187.3989 5993607
-297.52054 1018.9238 4212.9604 6059656
-273.49176 1022.7018 4228.5815 5928325
-248.27419 1022.349 4227.123 5796484
-223.2195 1022.6632 4228.4219 5862533
-198.07971 1022.6176 4228.2334 5796997
-172.89964 1022.3207 4227.0059 5928326
-147.77859 1022.3311 4227.0488 5928326
-122.73382 1022.9816 4229.7383 5928326
-97.622009 1023.2643 4230.9072 5862533
-72.801163 1027.8516 4249.874 5730948
-47.595837 1029.0002 4254.624 5665154
-22.323444 1029.6602 4257.3525 5665411
2.9802117 1029.9164 4258.4116 5730948
28.309965 1030.6643 4261.5044 5796740
53.71067 1032.0692 4267.313 5796740
78.886154 1029.6333 4257.2412 5796483
104.64442 1034.1399 4275.8745 5862276
130.16371 1034.985 4279.3691 5796483
155.81615 1036.4396 4285.3833 5730947
181.47699 1037.5334 4289.9062 5796483
206.851 1036.9199 4287.3691 5862276
232.89966 1039.452 4297.8389 5928326
258.63107 1040.2076 4300.9634 5993860
284.66144 1041.9216 4308.0498 5928067
310.79419 1043.6965 4315.3887 5730945
337.37222 1046.582 4327.3193 5928067
363.64929 1048.1913 4333.9736 5796738
389.88696 1049.4817 4339.3086 5862274
414.99805 1047.7677 4332.2217 5730688
440.75763 1047.7954 4332.3364 5730945
466.67041 1048.1642 4333.8613 5796481
494.46063 1052.4907 4351.75 5927554
522.39062 1056.6699 4369.0298 5993347
551.90088 1063.4983 4397.2632 5467003
581.62421 1070.1012 4424.5645 5598846
606.67657 1067.9109 4415.5083 5927811
630.38232 1063.63 4397.8081 5928324
655.31555 1061.6786 4389.7397 5862532
681.39832 1061.6677 4389.6948 6059399
706.3974 1060.0315 4382.9292 6059140
730.901 1057.7946 4373.6802 5729918
756.7113 1057.5375 4372.6172 4611179
782.96454 1057.8959 4374.0991 4282470
820.50256 1072.9885 4436.5029 6058370
843.04071 1068.1366 4416.4414 6190728
867.38977 1065.8027 4406.7915 6124678
893.12421 1065.2581 4404.5396 6058886
917.52173 1063.1952 4396.0103 5993093
944.68011 1064.3572 4400.8149 6058885
972.07855 1065.72 4406.4492 5993349
996.75958 1064.11 4399.7925 6059139
1020.0448 1061.1304 4387.4727 5531512
1081.0809 1096.5918 4534.0957 727334
1107.8611 1096.426 4533.4102 463647
1143.605 1104.9286 4568.5659 1645094
1158.9238 1093.7603 4522.3882 1976888
1162.0676 1071.8683 4431.8711 5927552
1183.9951 1067.8883 4415.415 5927812
1210.0912 1067.7593 4414.8813 6190471
1236.473 1067.8824 4415.3906 6322057
1259.392 1065.0721 4403.7705 6256265
1286.3705 1065.7393 4406.5293 6256264
1310.6381 1064.1788 4400.0771 6387851
1331.3414 1059.8419 4382.145 6256262
1375.7614 1074.1892 4441.4673 4019557
1406.9554 1077.8641 4456.6621 3361371
1412.343 1061.9982 4391.061 5862276
1429.7786 1055.6031 4364.6191 6256780
1457.1716 1056.6565 4368.9746 6257037
1490.6456 1062.0054 4391.0903 6388367
1515.5057 1061.1387 4387.5073 6388367
1540.522 1060.4089 4384.4897 6388368
1564.8225 1059.219 4379.5693 6322575
1583.9651 1054.6338 4360.6108 6257039
1607.2841 1052.9319 4353.5742 6256782
1634.1085 1053.5442 4356.106 6322574
1653.9808 1049.725 4340.3149 6256780
1681.6886 1050.9198 4345.2549 6190987
1709.7423 1052.2913 4350.9253 6190987
1732.4994 1050.4104 4343.1489 6190987
1755.118 1048.5023 4335.2593 6190988
1778.1815 1046.9113 4328.6807 6125452
1809.3237 1050.0542 4341.6758 6125195
1829.7825 1046.9955 4329.0288 6256781
1852.1661 1045.1079 4321.2246 6125195
1850.8646 1030.0901 4259.1299 6125195
1860.6313 1021.5543 4223.8369 6190474
1878.2002 1017.4725 4206.96 5927812
1886.6129 1008.6029 4170.2866 5927299
1871.6965 987.6532 4083.6655 6781836
1845.6428 961.43799 3975.2732 65550
1843.194 948.02649 3919.8203 14
1856.5282 942.96637 3898.8979 11
1874.3544 940.28424 3887.8083 12
1882.0088 932.62708 3856.1479 7
1907.8973 934.08105 3862.1599 6
1918.3364 928.02673 3837.127 4
1936.2827 925.70374 3827.522 5
1947.5743 920.2901 3805.1382 4
1965.9412 918.30554 3796.9329 4
1981.8871 915.24817 3784.2913 3
1994.2025 910.60162 3765.0791 3
2012.0219 908.54352 3756.5693 2
2028.193 905.79443 3745.2029 2
2046.3352 903.97577 3737.6833 65536
2062.115 901.16394 3726.0569 0
2079.425 899.0733 3717.4128 0
2095.4238 896.46564 3706.6309 0
2099.8992 889.03369 3675.9016 0
2116.2314 886.7229 3666.3474 0
2093.4546 868.23914 3589.9221 65536
2110.7935 866.59802 3583.1365 65536
2132.1055 866.60461 3583.1638 65536
2117.3618 852.10089 3523.1953 65538
2148.22 856.05341 3539.5378 2
2161.5935 853.02936 3527.0339 2
2215.4143 865.8717 3580.1335 2
2228.9858 862.88843 3567.7986 2
2253.4221 864.12769 3572.9226 2
2269.1284 862.02728 3564.238 4
2295.5208 863.98779 3572.344 5
2326.7922 867.73199 3587.8252 5
2349.2593 868.15454 3589.5723 4
2369.4172 867.72382 3587.7915 5
2389.156 867.14862 3585.4133 6
2418.5139 870.04395 3597.3845 6
2537.6587 904.90582 3741.5288 6
2544.4646 899.45099 3718.9744 7
2507.105 878.6123 3632.8123 1383204
2520.2971 875.69403 3620.7461 4214108
2591.3413 892.75616 3691.293 6321284
2618.0554 894.38757 3698.0386 5795457
2646.3872 896.53986 3706.9375 5729409
2750.4412 924.09784 3820.8821 5729665
2922.7598 973.95227 4027.0161 5860995
3119.8201 1031.1746 4263.6143 5860996
3196.4541 1047.9921 4333.1494 5532030
3391.2444 1102.9696 4560.4658 5728895
3503.217 1130.3534 4673.6899 5662588
3610.6077 1155.8394 4779.0674 4741743
3716.021 1180.2997 4880.2036 4939379
3750.2268 1181.9387 4886.981 5070965
3768.5015 1178.5703 4873.0537 5399674
3831.0635 1188.9984 4916.1704 5333879
3877.499 1194.3013 4938.0967 5202294
3931.5784 1201.8612 4969.355 4939378
3947.2217 1197.6464 4951.9277 5202293
4004.5581 1206.0508 4986.6772 5202550
4007.6001 1198.0997 4953.8022 5070707
4002.9587 1187.9846 4911.979 5070707
4049.4014 1193.0667 4932.9917 5005171
4125.8872 1206.8636 4990.0381 4807792
4167.8589 1210.4397 5004.8247 4675949
4190.6836 1208.4442 4996.5737 4741742
4276.2041 1224.4286 5062.6646 4873069
4283.6675 1217.9952 5036.0645 4938862
4335.7622 1224.2534 5061.9404 5267827
4399.5107 1233.6934 5100.9717 4938860
4432.3047 1234.3833 5103.8242 4675690
4468.603 1236.033 5110.6455 4543590
4507.1836 1238.2876 5119.9673 3820122
4542.5459 1239.6335 5125.5327 3951708
4580.0513 1241.5426 5133.4263 4016732
4610.0176 1241.3962 5132.8213 3950681
4617.2383 1235.1672 5107.0659 3555150
4650.5312 1235.9486 5110.2964 2831167
4581.0317 1209.5784 5001.2632 987928
4466.0137 1171.6068 4844.2617 2105638
4640.2129 1209.5085 5000.9746 1447449
4569.772 1183.5665 4893.7114 65536
4622.7495 1189.7153 4919.1353 196608
4638.9214 1186.3744 4905.3213 65536
4672.7734 1187.5684 4910.2578 65536
4710.9375 1189.8365 4919.6362 65536
4733.6553 1188.1996 4912.8682 0
4763.1504 1188.2736 4913.1738 0
0 0 0 0
0 0 0 0
0 0 0 0
0 0 0 0
0 0 0 0
0 0 0 0
-3611.1226 1004.5204 4053.7886 4743024
-3630.3425 1016.6499 4102.7378 4874611
-3642.1326 1026.8486 4143.8955 4940404
-3712.3809 1053.7799 4252.5776 4874611
-3599.1355 1028.6378 4151.1157 4874611
-3585.1133 1031.7025 4163.4829 4874868
-3569.6206 1034.3834 4174.3022 4808818
-3548.7229 1035.5249 4178.9087 4282474
-3522.761 1035.1942 4177.5742 4019559
-3469.4321 1026.7598 4143.5366 4940661
-3462.3052 1031.9757 4164.5859 5071990
-3433.2803 1030.6929 4159.4087 5137783
-3370.6892 1019.2415 4113.1963 5137783
-3320.4138 1011.3741 4081.4468 5137783
-3283.5491 1007.5058 4065.8362 5203576
-3243.4583 1002.5828 4045.9695 5269369
-3217.5996 1002.0185 4043.6921 5203576
-3185.2539 999.41034 4033.1667 5269369
-3147.5713 995.07538 4015.6729 5203833
-3130.1064 997.11462 4023.9023 5203576
-3091.5657 992.4198 4004.9561 5203321
-3070.6318 993.3479 4008.7014 5334651
-3048.8215 994.00476 4011.3523 5204349
-3026.4153 994.47614 4013.2546 5335679
-2994.6716 991.86243 4002.707 5335679
-2974.8579 993.18976 4008.0635 5401471
-2948.0591 992.18774 4004.0195 5467520
-2924.2944 992.19879 4004.0642 5467520
-2903.3613 993.17865 4008.0183 5533567
-2853.1929 984.09119 3971.3455 5599104
-2845.9514 989.78156 3994.3091 5598850
-2819.709 988.90369 3990.7666 5730436
-2797.2798 989.35974 3992.6072 5664643
-2746.8401 979.83185 3954.1567 5664900
-2712.4651 975.91943 3938.3679 5664643
-2680.4167 972.78339 3925.7124 5533057
-2644.4287 968.14978 3907.0134 5533057
-2602.8662 961.37524 3879.6741 5598850
-2577.3743 960.4682 3876.0142 5533314
-2542.9546 956.18799 3858.741 5467264
-2509.8228 952.31848 3843.1255 5467264
-2475.6282 947.97101 3825.5811 5598850
-2441.3291 943.5025 3807.5481 5664644
-2420.4932 944.20221 3810.3716 5796486
-2392.9763 942.28436 3802.6321 5664900
-2360.0007 938.15997 3785.988 5664644
-2336.8623 937.90424 3784.9561 5730436
-2317.3005 939.09308 3789.7537 5730436
-2283.7488 934.58014 3771.5415 5664644
-2268.5901 937.57928 3783.6445 5730436
-2251.7476 939.93555 3793.1536 5730949
-2225.1455 938.22461 3786.2488 5730949
-2204.3398 938.94757 3789.1665 5796743
-2186.0469 940.76678 3796.5078 5796743
-2168.5112 942.95337 3805.332 5797000
-2147.3691 943.6012 3807.9463 5731206
-2128.6313 945.33063 3814.9255 5796742
-2114.8591 949.32623 3831.0498 5731206
-2106.1125 955.68921 3856.728 5927815
-2100.303 963.53961 3888.4089 5993608
-2088.9495 968.9931 3910.4167 5796229
-2071.1538 971.54742 3920.7249 5664643
-2049.0474 972.11487 3923.0146 5598851
-2035.7372 976.91632 3942.3911 5533571
-2018.1671 979.7616 3953.8735 5730949
-2013.0948 988.81274 3990.3999 5730949
-1993.5776 990.90002 3998.823 5862535
-1971.406 991.70227 4002.0603 5994123
-1954.7454 995.33014 4016.7009 5928329
-1934.3359 997.11536 4023.9053 5730949
-1910.4789 997.14587 4024.0286 5533571
-1891.2889 999.64398 4034.1096 5467008
-1865.6263 998.74103 4030.4658 5335678
-1839.7308 997.68854 4026.218 5204092
-1815.3856 997.4599 4025.2957 5204093
-1794.6056 999.21021 4032.3591 5401471
-1768.5844 998.05023 4027.678 5467264
-1736.5616 993.42517 4009.0132 5598594
-1713.4357 993.83173 4010.6541 5598850
-1685.5154 991.42981 4000.9609 5598850
-1660.5695 990.7337 3998.1516 5533057
-1630.9333 987.17834 3983.804 5533057
-1602.4633 984.23444 3971.9238 5665156
-1578.007 983.70477 3969.7861 5730949
-1554.0021 983.4447 3968.7366 5796486
-1526.5828 980.98242 3958.7998 5796229
-1498.86 978.24493 3947.7529 5796229
-1466.9369 972.63544 3925.1155 5730693
-1441.3325 971.10199 3918.927 5796486
-1410.6145 966.01617 3898.4028 5927815
-1386.2316 965.17133 3894.9937 5928072
-1355.4219 959.74719 3873.1042 5862023
-1327.1759 955.9823 3857.9109 5730437
-1281.4773 939.29254 3790.5586 5665153
-1263.5258 942.70758 3804.3398 5599359
0 0 0 0
-1100.6799 851.6911 3437.0388 728103
-1073.1495 846.09106 3414.4395 1516331
-1045.4183 840.11365 3390.3176 593943
-1016.8853 833.24445 3362.5964 267
-997.56018 833.79602 3364.8225 9
-976.33502 832.74963 3360.5996 10
-959.04907 835.08948 3370.0422 12
-943.09418 838.71295 3384.665 11
-927.50641 842.82794 3401.2715 461334
-903.70685 839.49811 3387.8335 593950
-902.31061 857.30212 3459.6826 658967
-909.17017 883.96356 3567.2759 5796481
-956.9751 952.65887 3844.4988 5665410
-944.25647 962.99036 3886.1919 5994121
-925.11169 967.12207 3902.8657 5994121
-909.56366 975.32294 3935.9609 5730949
-891.2135 980.87286 3958.3579 5599363
-872.46222 986.27039 3980.1399 5862534
-853.76611 992.03278 4003.3943 5730948
-833.40869 996.13983 4019.9683 5796741
-811.93549 999.11633 4031.98 5796741
-789.39581 1000.9215 4039.2651 5796742
-765.5451 1001.1256 4040.0889 5796740
-743.37183 1003.6076 4050.105 5730948
-721.05145 1006.0504 4059.9626 5730947
-698.38428 1008.1617 4068.4834 5730692
-675.00806 1009.3642 4073.3362 5796485
-653.09906 1012.9318 4087.7332 5928071
-628.95593 1013.1762 4088.7195 6059657
-604.76404 1013.3584 4089.4548 5994378
-581.10486 1014.4859 4094.0049 5928328
-557.0976 1015.0778 4096.3936 5862536
-532.16504 1013.9606 4091.8853 5862535
-508.14178 1014.5522 4094.2722 5796742
-484.88055 1016.8012 4103.3481 5796742
-461.25864 1018.4918 4110.1709 5796742
-436.948 1018.7657 4111.2764 5928328
-412.561 1018.8837 4111.7524 5928328
-388.36401 1019.5153 4114.3013 5928072
-365.73071 1024.6125 4134.8711 5927559
-342.06073 1027.3303 4145.8394 5730693
-317.99643 1029.1942 4153.3608 5730436
-293.51315 1029.9015 4156.2153 5862022
-269.07501 1030.9117 4160.292 5862023
-244.42358 1031.2266 4161.5625 5927816
-219.82115 1031.8423 4164.0474 5862792
-195.03604 1031.6479 4163.2632 5994122
-170.22955 1031.2676 4161.728 5928328
-145.51097 1031.3811 4162.186 5731206
-120.72775 1030.9889 4160.6035 5730950
-96.240158 1033.5698 4171.0186 5599363
-71.313858 1031.5952 4163.0503 5533570
-46.596294 1032.1464 4165.2744 5599361
-21.89817 1034.8655 4176.2476 5796740
2.926657 1036.2629 4181.8872 5796740
27.802402 1037.0593 4185.1006 5994119
52.633167 1036.218 4181.7056 5993862
77.430397 1035.4679 4178.6787 5993862
102.48714 1037.7098 4187.7261 5993862
127.68297 1040.2086 4197.8101 5928069
152.73692 1040.9237 4200.6958 5928326
177.90672 1042.1163 4205.5088 5928069
203.18311 1043.5626 4211.3457 5796739
228.14845 1043.2694 4210.1621 5862276
253.7838 1045.795 4220.3545 5862276
279.05234 1046.4908 4223.1621 5928070
304.46078 1047.553 4227.4487 5993863
330.10947 1049.2169 4234.1636 6125448
355.61905 1050.2343 4238.269 5993862
381.43942 1051.9742 4245.2905 5993862
405.92163 1050.0366 4237.4717 6059655
431.12509 1050.0822 4237.6553 5796483
458.03131 1054.0411 4253.6318 5994119
485.00323 1057.7292 4268.5156 5993862
511.79437 1060.6761 4280.4077 6059911
532.12921 1050.597 4239.7329 5796739
560.19928 1056.0105 4261.5796 5796740
591.14606 1066.1442 4302.4741 5862018
616.67419 1066.0698 4302.1743 5927298
645.3573 1071.2385 4323.0327 5927041
669.89722 1069.3973 4315.6025 5466747
700.56122 1077.1077 4346.7178 6059141
723.99695 1073.5515 4332.3667 5993348
750.20959 1074.2158 4335.0474 6124677
775.57928 1073.6689 4332.8408 6453642
807.37518 1081.7675 4365.5225 5861507
831.17853 1078.9862 4354.2988 5927299
852.05817 1072.6921 4328.8989 5927300
878.96204 1074.129 4334.6973 5795969
905.56989 1075.1326 4338.7471 6059140
929.24158 1072.6912 4328.8945 6124677
953.27527 1070.7877 4321.2134 5928067
979.45703 1071.3339 4323.4175 5928324
1000.5865 1066.4672 4303.7778 6059140
1024.8019 1065.05 4298.0591 5796226
1047.396 1062.058 4285.9844 5927556
1070.2446 1059.4601 4275.5005 5927812
1109.2246 1072.5811 4328.4507 5993604
1132.7227 1070.476 4319.9556 6059397
1154.9099 1067.2529 4306.9487 5927813
1183.769 1070.2015 4318.8481 6059141
1210.1123 1070.7987 4321.2578 6190471
1233.338 1068.6697 4312.666 6190471
1264.2164 1073.1234 4330.6392 6256264
1291.2631 1074.2118 4335.0312 6322057
1315.4814 1072.9504 4329.9414 6190984
1304.5923 1043.6523 4211.7075 6322570
1327.5773 1042.0459 4205.2246 6388620
1366.6426 1052.8875 4248.9761 6322827
1400.4583 1059.3645 4275.1143 6388622
1432.0912 1063.989 4293.7769 6388367
1460.2642 1065.926 4301.5938 6454160
1483.4187 1064.1962 4294.6128 6388368
1506.3053 1062.3358 4287.1055 6454161
1529.3533 1060.6493 4280.2993 6454161
1550.382 1057.6405 4268.1572 6256781
1581.0555 1061.2021 4282.5303 6191244
1603.4857 1059.2057 4274.4736 6190987
1633.4564 1062.1748 4286.4556 6125195
1659.7688 1062.7103 4288.6167 5993352
1678.2736 1058.3064 4270.8442 5532544
1702.1978 1057.4001 4267.187 5664130
1729.9833 1058.8839 4273.1748 5862022
1756.5513 1059.5903 4276.0259 5993608
1776.925 1056.5933 4263.9312 5993865
1797.1323 1053.583 4251.7832 5993608
1814.7812 1049.1771 4234.0029 5993608
1827.1641 1041.889 4204.5913 5928072
1833.9758 1031.6636 4163.3262 6058633
1850.7885 1027.2614 4145.5605 5927301
1860.0262 1018.8256 4111.5181 5926786
1828.6948 988.67517 3989.8442 5596533
1822.36 972.63788 3925.125 14
1827.416 963.00873 3886.2664 11
1838.9124 956.9715 3861.9026 11
1861.4059 956.7356 3860.9507 10
1880.9919 955.02911 3854.0645 7
1911.8268 959.00635 3870.1145 7
1902.1677 942.81805 3804.7859 8
1919.2281 940.09814 3793.8096 8
1940.2463 939.35754 3790.8208 7
1953.3529 934.8476 3772.6206 6
1972.8915 933.48322 3767.1147 5
1991.0369 931.49774 3759.1023 4
2009.1541 929.54333 3751.2151 4
2031.6188 929.62103 3751.5288 2
2048.2754 927.06836 3741.2273 2
2063.6697 924.00525 3728.866 1
2079.5698 921.23138 3717.6719 1
2094.0139 917.87744 3704.137 2
2099.1794 910.56866 3674.6418 1
2112.802 907.04095 3660.406 0
2130.3203 905.2406 3653.1404 0
2146.6941 902.99512 3644.0789 0
2130.6265 887.28467 3580.6782 0
2148.8235 886.01294 3575.5464 2
2163.5435 883.34656 3564.7859 2
2176.2932 879.93524 3551.0193 2
2174.0725 870.59454 3513.3247 2
2194.6128 870.45953 3512.7795 2
2215.3333 870.39777 3512.5305 2
2244.1184 873.4762 3524.9536 2
2266.6567 874.08868 3527.4253 4
2292.6621 876.01477 3535.198 4
2337.6973 885.11078 3571.9055 5
2360.9104 885.85529 3574.9102 7
2379.405 884.83179 3570.7798 7
2411.0247 888.66406 3586.2449 9
2433.7307 889.17249 3588.2969 11
2452.9878 888.4231 3585.2725 11
2482.1956 891.25934 3596.7183 11
2530.0559 900.68744 3634.7661 13
2592.7327 915.18585 3693.2749 528
2581.1248 903.43988 3645.8733 331545
2653.0049 920.86835 3716.207 5334392
2809.4553 967.12152 3902.8638 6584975
2910.6702 993.75867 4010.3591 5992838
2977.5935 1008.3504 4069.2446 5992581
3010.5034 1011.2812 4081.072 5860995
3179.5911 1059.5442 4275.8394 5795203
3273.2048 1082.0907 4366.8271 5795202
3459.0703 1134.5403 4578.4897 5729666
3563.2756 1159.5963 4679.6045 5598080
3640.2761 1175.4796 4743.7021 5466492
3704.083 1186.8912 4789.7544 5268857
3739.6106 1189.1362 4798.8145 5399416
3763.9531 1187.8175 4793.4927 5268086
3805.272 1191.8359 4809.709 4873328
3873.2544 1204.0831 4859.1333 5333879
3892.5068 1201.1125 4847.1455 5399672
3931.2288 1204.1492 4859.3999 5333879
3968.0693 1206.5693 4869.1665 4478571
4023.7473 1214.641 4901.7402 5004914
4050.2561 1213.8546 4898.5664 4675949
4079.8167 1213.9874 4899.1025 4873329
4104.249 1212.6035 4893.5176 4873328
4148.9727 1217.1917 4912.0332 4478568
4179.5913 1217.6067 4913.708 5267827
4213.9053 1219.0851 4919.6743 4873069
4265.9575 1225.6394 4946.1245 4609897
4347.7827 1240.5994 5006.4966 4741739
4328.3726 1226.6658 4950.2666 4544102
4417.9692 1243.6045 5018.6235 4873067
4471.3174 1250.1809 5045.1631 5004395
4510.1182 1252.6294 5055.0439 4806759
4496.4429 1240.5673 5006.3667 4740710
4526.4751 1240.6433 5006.6738 4871783
4536.5591 1235.2867 4985.0566 4674401
4531.1279 1225.8021 4946.7812 4278356
4491.7827 1207.3243 4872.2134 2633009
4558.4502 1217.3954 4912.8555 1644828
4581.7148 1215.8208 4906.501 65536
4604.791 1214.2163 4900.0259 196608
4612.2705 1208.5452 4877.1396 131072
4649.3506 1210.6526 4885.6445 0
4688.0347 1213.149 4895.7192 65536
4712.5571 1211.9727 4890.9717 0
4743.6357 1212.4863 4893.0444 0
0 0 0 0
0 0 0 0
0 0 0 0
0 0 0 0
0 0 0 0
0 0 0 0
-3507.5066 999.09882 3937.4709 4874611
-3489.5317 1000.6551 3943.604 4940404
-3374.5837 974.23633 3839.4873 4874611
-3477.1926 1010.6937 3983.1667 5137783
-3461.05 1012.8978 3991.8528 5203576
-3433.2607 1011.7001 3987.1328 5203576
-3421.9666 1015.3804 4001.6365 5466748
-3417.1433 1021.0455 4023.9631 5203576
-3389.4766 1019.9169 4019.5151 4940404
-3358.7754 1017.8526 4011.3799 5137783
-3311.0513 1010.5632 3982.6521 5269369
-3287.3533 1010.5547 3982.6187 5138040
-3254.7825 1007.7988 3971.7573 5071990
-3211.9998 1001.8173 3948.1843 5071990
-3182.6013 999.95319 3940.8379 5137782
-3147.6462 996.30267 3926.4512 5071991
-3114.79 993.26697 3914.4871 5203833
-3094.7612 994.30664 3918.5847 5400955
-3069.7639 993.75372 3916.4058 5532285
-3035.1453 990.05402 3901.825 5466749
-3005.9619 988.08398 3894.061 5269884
-2981.1631 987.53571 3891.9001 5269885
-2959.1384 987.90491 3893.3555 5269886
-2935.5947 987.76904 3892.8198 5335422
-2911.321 987.38342 3891.2998 5400958
-2885.9609 986.61993 3888.2913 5401471
-2862.1697 986.38501 3887.3655 5401471
-2841.4041 987.19751 3890.5671 5335678
-2817.8193 987.03571 3889.9297 5467264
-2793.1201 986.47766 3887.7305 5598850
-2766.8855 985.36353 3883.3396 5664643
-2742.9788 985.06659 3882.1694 5664643
-2719.4971 984.9187 3881.5864 5796229
-2679.0083 978.55597 3856.5107 5730436
-2646.5718 975.05011 3842.6941 5599107
-2615.2729 971.90601 3830.3032 5598850
-2584.3525 968.84863 3818.2539 5467264
-2552.6062 965.42462 3804.7598 5533057
-2520.3179 961.73248 3790.2092 5664644
