# .PCD v0.7 - Point Cloud Data file format
VERSION 0.7
FIELDS x y z rgb
SIZE 4 4 4 4
TYPE F F F U
COUNT 1 1 1 1
WIDTH 1560
HEIGHT 1
VIEWPOINT 0 0 0 1 0 0 0
POINTS 1560
DATA ascii
0 0 0 0
0 0 0 0
0 0 0 0
0 0 0 0
0 0 0 0
0 0 0 0
0 0 0 0
0 0 0 0
0 0 0 0
0 0 0 0
0 0 0 0
0 0 0 0
0 0 0 0
0 0 0 0
0 0 0 0
0 0 0 0
0 0 0 0
0 0 0 0
0 0 0 0
0 0 0 0
0 0 0 0
0 0 0 0
0 0 0 0
0 0 0 0
10968.867 -4310.0547 13864.202 3753044
10818.529 -4219.2856 13572.225 5
10703.83 -4143.6567 13328.948 4744821
11849.394 -4553.4263 14647.059 8034732
11304.879 -4312.5005 13872.07 7897996
11390.769 -4313.8047 13876.266 2708062
12239.53 -4601.9209 14803.052 7174520
11903.473 -4443.626 14293.862 197382
12249.259 -4540.3062 14604.854 329225
12291.322 -4523.8398 14551.888 4
12321.356 -4503.2075 14485.52 1
12340.997 -4479.0889 14407.938 1
12333.44 -4445.5005 14299.893 1
12335.165 -4415.6934 14204.013 256
12378.213 -4400.9844 14156.697 256
12352.154 -4362.0693 14031.519 395272
12292.361 -4311.8428 13869.954 922386
12936.592 -4507.5938 14499.63 1450274
12788.622 -4426.5488 14238.93 8097681
12994.164 -4468.1255 14372.672 8819866
11968.019 -4088.4028 13151.212 8620689
12446.096 -4224.1318 13587.812 4
12274.141 -4138.9155 13313.696 4
12292.752 -4118.6392 13248.475 5
12276.734 -4087.0935 13147 4
12256.177 -4054.4443 13041.978 1
12449.659 -4092.5669 13164.606 2
12512.661 -4087.5886 13148.593 0
12440.903 -4038.9221 12992.048 258
11440.304 -3691.1689 11873.426 258
12808.652 -4107.3262 13212.083 258
0 0 0 0
0 0 0 0
0 0 0 0
-8944.9648 -3001.8933 9844.4307 256
-8301.4053 -2804.26 9196.3105 256
-7632.4443 -2595.3694 8511.2734 256
-8166.1016 -2795.3638 9167.1357 256
-8092.8359 -2788.8909 9145.9092 256
-7438.6333 -2580.7791 8463.4258 256
-7367.1802 -2573.3904 8439.1953 0
-7321.7617 -2575.0571 8444.6611 0
-7279.7188 -2577.9419 8454.1211 0
-7252.0132 -2585.9792 8480.4795 0
-7212.9028 -2590.0344 8493.7773 0
-7152.4048 -2586.4121 8481.8984 0
-7095.3867 -2584.0059 8474.0078 0
-7034.4492 -2580.1279 8461.29 0
-6977.5405 -2577.6819 8453.2686 0
-6919.896 -2574.927 8444.2344 0
-6859.3569 -2571.0469 8431.5098 0
-6800.9385 -2567.9102 8421.2236 0
-6737.4673 -2562.8052 8404.4814 0
-6685.0044 -2561.8425 8401.3252 0
-6633.8828 -2561.3831 8399.8184 0
-6577.5742 -2558.8989 8391.6719 0
-6519.7749 -2555.7925 8381.4844 0
-6462.9146 -2553.0088 8372.3555 256
-6407.627 -2550.8083 8365.1396 256
-6351.7256 -2548.3269 8357.002 256
-6298.3223 -2546.8169 8352.0498 256
-6248.084 -2546.5728 8351.249 256
-6200.0679 -2547.2375 8353.4297 256
-6162.0015 -2552.0339 8369.1582 256
-6114.8076 -2553.0972 8372.6455 256
-6061.8057 -2551.7334 8368.1729 256
-6012.0049 -2551.7053 8368.0811 0
-5948.7192 -2545.9058 8349.0615 0
-5916.0396 -2553.217 8373.0391 0
-5869.4673 -2554.6064 8377.5947 0
-5821.5522 -2555.4297 8380.2949 0
-5773.644 -2556.2703 8383.0518 0
-5726.4814 -2557.4587 8386.9492 0
-5677.9097 -2558.033 8388.832 0
-5630.5801 -2559.1821 8392.6006 0
-5579.4868 -2558.626 8390.7764 0
-5520.2529 -2554.293 8376.5664 65536
-5469.7974 -2553.9795 8375.5391 1
-5373.417 -2532.0203 8303.5254 1
-4991.543 -2373.8787 7784.915 4934735
-5187.561 -2490.1836 8166.3257 257
-5356.8271 -2595.7222 8512.4297 2
-5159.9199 -2524.1472 8277.707 256
-5130.2266 -2533.7803 8309.2969 256
-5115.1201 -2550.8745 8365.3564 0
-5372.6128 -2705.5823 8872.7061 0
-5328.3555 -2709.8931 8886.8428 0
-5287.939 -2716.2632 8907.7334 0
-5241.1025 -2719.4307 8918.1211 0
-5197.3984 -2724.3057 8934.1074 0
-5163.0122 -2734.2151 8966.6045 0
-5105.2119 -2731.8025 8958.6924 0
-5063.9277 -2738.2698 8979.9023 0
-5013.3408 -2739.791 8984.8906 0
-4959.3374 -2739.4583 8983.7988 0
-4917.0171 -2745.6414 9004.0762 0
-4854.7026 -2740.6733 8987.7842 0
-4823.3765 -2753.2837 9029.1387 0
-4786.0767 -2762.7292 9060.1143 0
-4742.748 -2768.8701 9080.2529 0
-4697.2222 -2773.855 9096.6006 0
-4655.0151 -2780.9385 9119.8301 0
-4601.9971 -2781.6545 9122.1777 0
-4559.9058 -2789.0708 9146.499 0
-4520.7539 -2798.4854 9177.373 0
-4490.3218 -2813.5942 9226.9209 0
-4465.6274 -2832.7156 9289.6279 0
-4406.7148 -2830.3386 9281.833 65536
-4615.6206 -3002.0957 9845.0947 65536
-4250.2788 -2799.9653 9182.2266 65536
-4241.3022 -2830.394 9282.0146 65536
-4258.2891 -2879.1792 9442.001 65536
-4227.231 -2896.3484 9498.3057 65536
-4174.8833 -2899.1985 9507.6523 65536
-4138.7583 -2913.5469 9554.707 65537
-4178.2129 -2982.24 9779.9795 3026737
0 0 0 0
0 0 0 0
0 0 0 0
0 0 0 0
0 0 0 0
0 0 0 0
0 0 0 0
0 0 0 0
0 0 0 0
0 0 0 0
0 0 0 0
0 0 0 0
-6763.8096 -5893.6011 19327.518 7308171
0 0 0 0
0 0 0 0
0 0 0 0
0 0 0 0
-6273.0869 -5973.2305 19588.656 11058114
-5208.769 -5053.5771 16572.738 11584715
-4659.3716 -4607.6792 15110.457 11453386
-4445.5229 -4482.603 14700.281 11387594
-3994.7939 -4108.8667 13474.648 11387595
-3696.8176 -3880.1685 12724.652 10794944
-3639.6521 -3899.9502 12789.524 5070697
-3808.7996 -4168.2466 13669.378 10597824
-3759.7166 -4204.2075 13787.309 11519694
-3703.1121 -4233.1729 13882.297 11388620
-3673.2231 -4294.6929 14084.048 11388619
-3623.1091 -4334.8848 14215.854 11323085
-3541.0505 -4337.8628 14225.619 11322829
-3471.426 -4356.5918 14287.039 11388878
0 0 0 0
0 0 0 0
0 0 0 0
0 0 0 0
-2122.5615 -3034.9697 9952.9014 11587276
0 0 0 0
0 0 0 0
0 0 0 0
-1237.6827 -1991.7467 6531.7485 10205372
-1158.807 -1925.2004 6313.5161 11653328
-1108.8645 -1903.8772 6243.5889 10402752
-1057.4673 -1878.4932 6160.3442 11126729
-1000.403 -1840.8605 6036.9312 11521489
-970.57355 -1852.4076 6074.7993 10008508
-919.52026 -1822.7749 5977.6211 11521745
-891.3161 -1837.8745 6027.1392 11126987
-853.76501 -1834.1584 6014.9526 11521490
-820.16388 -1838.9741 6030.7456 9086640
-798.74005 -1872.782 6141.6147 7309204
-749.55719 -1841.6251 6039.439 8493222
-741.13959 -1912.5299 6271.9644 10466756
-717.77142 -1950.3213 6395.8979 8295586
-696.98608 -1999.75 6557.9946 11584979
-633.08746 -1924.0092 6309.6099 7637655
-571.19562 -1845.2134 6051.2061 7771294
-538.21454 -1855.4983 6084.9351 11390675
0 0 0 0
0 0 0 0
0 0 0 0
0 0 0 0
-914.95099 -4750.2427 15577.98 1
-858.50568 -4958.9985 16262.576 256
-752.5343 -4898.3511 16063.688 256
-644.01807 -4801.1079 15744.788 256
-550.29553 -4799.8354 15740.616 256
-451.45078 -4744.2144 15558.21 256
-352.25131 -4655.251 15266.463 256
-260.72385 -4641.1235 15220.134 256
-171.08742 -4663.5322 15293.621 256
-79.515846 -4624.2017 15164.641 256
10.536612 -4590.9873 15055.718 197634
102.33647 -4697.4116 15404.727 256
189.26277 -4585.2578 15036.929 0
275.74951 -4537.8154 14881.346 0
367.43759 -4578.2246 15013.863 0
457.66324 -4588.1802 15046.512 0
543.85474 -4561.0493 14957.538 0
637.87885 -4598.001 15078.717 0
717.80322 -4536.7344 14877.799 0
797.28003 -4486.3877 14712.692 65792
901.78363 -4572.9033 14996.412 0
960.83533 -4434.1021 14541.227 0
1020.341 -4320.1318 14167.472 0
1132.0123 -4427.5698 14519.805 0
1229.9833 -4469.998 14658.945 0
1312.5144 -4454.4141 14607.838 0
1412.0366 -4494.8501 14740.443 0
1486.2045 -4454.5674 14608.341 0
1564.4991 -4430.418 14529.146 256
1695.4548 -4550.1226 14921.705 256
1790.8474 -4567.2295 14977.806 256
1912.8962 -4647.479 15240.977 256
1991.0134 -4618.5635 15146.15 527628
2102.5564 -4666.3335 15302.808 265227
2303.1763 -4899.6392 16067.911 7503487
2793.3977 -5705.9204 18712.037 2699057
0 0 0 0
3001.5122 -5678.8467 18623.252 198666
3197.6584 -5834.7896 19134.65 257
3283.5881 -5785.8145 18974.043 0
3400.4729 -5792.8262 18997.035 256
3501.3774 -5773.0381 18932.143 0
3640.063 -5814.8354 19069.215 256
3695.5886 -5725.2764 18775.514 1
3930.3958 -5910.5728 19383.176 2
4116.8145 -6014.6211 19724.393 2
0 0 0 0
4272.6934 -5906.0044 19368.193 258
0 0 0 0
4092.9646 -5368.313 17604.885 8164247
0 0 0 0
0 0 0 0
0 0 0 0
2039.4158 -2426.7405 7958.2705 1252386
1903.9257 -2214.1667 7261.1548 10270663
0 0 0 0
0 0 0 0
1845.0378 -2009.0671 6588.5493 8757423
0 0 0 0
0 0 0 0
1582.3179 -1619.854 5312.1611 5665665
0 0 0 0
1795.4176 -1767.476 5796.2734 6979467
1845.1515 -1782.2394 5844.689 2370097
0 0 0 0
2026.3069 -1886.1987 6185.6138 262
2136.5139 -1953.3461 6405.8174 3752524
2173.5886 -1952.4501 6402.8789 9283510
0 0 0 0
1930.6129 -1675.5253 5494.73 3885657
1974.5665 -1685.1664 5526.3467 5136492
0 0 0 0
0 0 0 0
2454.9854 -1995.589 6544.3491 10533832
2534.3391 -2027.9636 6650.5186 10073282
2538.4951 -2000.0951 6559.1265 7046034
2687.3274 -2085.3367 6838.6689 8098466
2714.8835 -2075.3318 6805.8579 10729930
2627.8926 -1979.3427 6491.0708 10861515
2552.5593 -1894.7852 6213.772 10138819
2560.8777 -1873.849 6145.1138 10731214
2860.0193 -2063.3108 6766.4365 10730956
2982.7939 -2122.0459 6959.0527 10599111
0 0 0 0
0 0 0 0
8389.4277 -5730.1162 18791.385 857372
8452.8672 -5697.5981 18684.744 5334375
0 0 0 0
0 0 0 0
0 0 0 0
0 0 0 0
0 0 0 0
0 0 0 0
8643.8281 -5335.6348 17497.719 11387596
0 0 0 0
8426.0684 -5079.0044 16656.123 773
8744.8701 -5209.9604 17085.582 1
8990.6475 -5294.9023 17364.143 257
8924.9639 -5196.5703 17041.67 256
9134.2002 -5258.7197 17245.484 0
9482.915 -5398.8994 17705.189 0
9399.002 -5292.397 17355.926 197636
9434.5674 -5254.7544 17232.479 516
9769.832 -5383.0488 17653.209 774
10673.683 -5818.5728 19081.469 1780268
9081.2832 -4898.4575 16064.037 11060938
9412.8721 -5024.4932 16477.359 7309454
10037.825 -5302.9155 17390.42 10403526
9724.7539 -5085.1616 16676.316 4148307
9436.1807 -4884.4819 16018.205 8695478
10040.252 -5145.2583 16873.398 9744307
9459.1787 -4799.5415 15739.651 1645086
9918.4541 -4983.2935 16342.249 7
9812.4463 -4882.2222 16010.796 8754332
10002.123 -4928.7993 16163.54 1974050
10056.097 -4908.2544 16096.166 2901828
10512.391 -5082.6143 16667.963 11193548
0 0 0 0
0 0 0 0
0 0 0 0
0 0 0 0
0 0 0 0
0 0 0 0
0 0 0 0
0 0 0 0
0 0 0 0
0 0 0 0
0 0 0 0
0 0 0 0
0 0 0 0
0 0 0 0
0 0 0 0
0 0 0 0
0 0 0 0
0 0 0 0
0 0 0 0
0 0 0 0
0 0 0 0
0 0 0 0
0 0 0 0
0 0 0 0
14924.861 -5840.1299 19152.164 11256016
0 0 0 0
10456.313 -4030.105 13216.355 1447985
10939.605 -4184.939 13724.119 65553
11241.031 -4268.4229 13997.897 131080
11448.967 -4315.4414 14152.091 5
10898.035 -4077.8215 13372.838 6
11051.188 -4105.1885 13462.586 262
11496.439 -4239.8892 13904.323 264
11874.376 -4348.0181 14258.922 261
12157.64 -4420.1938 14495.616 4
12159.581 -4389.793 14395.918 4
12219.531 -4380.6113 14365.81 2
12255.018 -4362.8491 14307.559 2
12253.304 -4332.1787 14206.979 258
12263.543 -4306.126 14121.54 256
12298.054 -4288.8911 14065.021 256
12185.813 -4221.0562 13842.562 257
12296.493 -4230.8306 13874.616 131844
12528.381 -4281.9009 14042.097 257
13948.274 -4735.6401 15530.093 2
12127.518 -4090.3994 13414.086 1578264
11457.479 -3839.1689 12590.199 3
12440.332 -4141.4556 13581.521 5
12303.869 -4069.6204 13345.942 5
12377.849 -4067.8655 13340.188 4
12399.768 -4049.1326 13278.755 2
12413.478 -4027.9727 13209.363 2
12517.977 -4036.354 13236.849 1
12746.307 -4084.3091 13394.112 256
14502.375 -4618.165 15144.844 258
11464.211 -3628.1672 11898.238 258
13044.158 -4102.877 13455.005 259
0 0 0 0
0 0 0 0
0 0 0 0
-8963.2695 -2949.408 9864.5771 256
-8316.1016 -2754.4709 9212.5918 256
-7015.2012 -2338.9851 7822.959 256
-8191.2065 -2749.3062 9195.3174 256
-7523.6938 -2542.2231 8502.708 256
-7452.3633 -2535.1487 8479.0469 256
-7391.8184 -2531.6719 8467.4189 0
-7343.7661 -2532.4556 8470.04 0
-7305.4028 -2536.6145 8483.9492 0
-7276.1748 -2544.0249 8508.7344 0
-7238.7588 -2548.6562 8524.2246 0
-7182.8267 -2546.7878 8517.9756 0
-7121.8145 -2543.0789 8505.5703 0
-7061.0088 -2539.3911 8493.2363 0
-7002.8843 -2536.6213 8483.9727 0
-6945.4805 -2534.0747 8475.4551 0
-6890.231 -2532.2822 8469.46 0
-6832.3169 -2529.4773 8460.0781 0
-6771.9355 -2525.71 8447.4785 0
-6714.5029 -2522.9944 8438.3965 0
-6659.8975 -2521.3086 8432.7578 0
-6608.895 -2520.9717 8431.6309 0
-6548.7163 -2517.1023 8418.6895 0
-6493.3325 -2515.0308 8411.7607 256
-6437.6514 -2512.8108 8404.3359 256
-6382.3369 -2510.7002 8397.2773 256
-6323.8945 -2507.3164 8385.96 256
-6272.0781 -2506.5269 8383.3193 256
-6223.2046 -2506.9104 8384.6016 256
-6176.9453 -2508.3616 8389.4551 256
-6151.459 -2518.3403 8422.8301 256
-6089.5166 -2513.436 8406.4268 256
-6056.3169 -2520.4119 8429.7588 0
-5416.2817 -2272.8555 7601.7822 0
-5952.3242 -2518.8079 8424.3936 0
-5915.8218 -2524.5972 8443.7568 0
-5866.8198 -2525.1062 8445.459 0
-5821.8447 -2527.3718 8453.0371 0
-5761.8242 -2523.0889 8438.7119 0
-5712.6025 -2523.5007 8440.0898 0
-5664.4521 -2524.3972 8443.0879 0
-5614.7549 -2524.6145 8443.8145 0
-5557.4365 -2521.3779 8432.9893 65536
-5522.5562 -2528.355 8456.3252 0
-5413.6689 -2501.2668 8365.7266 0
-5275.9546 -2460.2344 8228.4893 921359
-5369.9263 -2527.4827 8453.4072 256
-5543.1353 -2633.6482 8808.4883 257
-5168.2612 -2478.9507 8291.0879 256
-5155.2441 -2496.5103 8349.8174 0
-5418.6235 -2649.5615 8861.7119 0
-5361.2588 -2647.2424 8853.9551 256
-5312.5977 -2649.2175 8860.5615 0
-5277.5972 -2658.1128 8890.3125 0
-5221.8232 -2656.6191 8885.3164 0
-5212.4624 -2678.949 8960.001 0
-5159.4971 -2679.0981 8960.5 0
-5107.4634 -2679.739 8962.6436 0
-5070.2695 -2688.2617 8991.1484 0
-5016.0425 -2687.8386 8989.7334 0
-4970.0923 -2691.8894 9003.2812 0
-4923.4272 -2695.6365 9015.8145 0
-4878.6958 -2700.5369 9032.2041 0
-4837.7866 -2707.6855 9056.1133 0
-4796.9834 -2715.0549 9080.7607 0
-4754.0815 -2721.3909 9101.9521 0
-4709.3799 -2726.8303 9120.1445 0
-4659.1387 -2729.1519 9127.9092 0
-4609.2891 -2731.7598 9136.6318 0
-4566.3154 -2738.554 9159.3555 0
-4521.8579 -2744.6113 9179.6152 0
-4488.854 -2757.8533 9223.9043 0
-4454.7588 -2770.7441 9267.0186 0
-4410.4272 -2777.5115 9289.6523 65536
-4357.4048 -2778.9072 9294.3213 65536
-4312.4248 -2785.5342 9316.4854 65536
-4266.1772 -2791.5042 9336.4521 65536
-4246.999 -2815.5769 9416.9668 65536
-4413.0293 -2964.7183 9915.7832 65536
-4307.4609 -2932.9639 9809.5781 65536
-4098.9722 -2829.2979 9462.8574 65538
-4066.9871 -2846.2732 9519.6328 789517
-3700.3987 -2626.2527 8783.7529 3224372
0 0 0 0
0 0 0 0
0 0 0 0
0 0 0 0
-3825.5063 -2921.0969 9769.8877 9
-3867.4663 -2998.6523 10029.279 2632496
0 0 0 0
0 0 0 0
0 0 0 0
0 0 0 0
0 0 0 0
0 0 0 0
0 0 0 0
0 0 0 0
0 0 0 0
0 0 0 0
-6263.7998 -5848.1377 19559.656 10729920
-5231.4097 -4976.6177 16644.773 11256265
-4547.1436 -4409.0532 14746.5 11256777
-4225.6523 -4177.8511 13973.222 10928582
-3844.9141 -3877.6272 12969.096 7244174
-3563.228 -3667.0591 12264.829 11125449
-3388.5044 -3560.0737 11907.007 9875381
-3294.4573 -3535.0933 11823.458 11650510
-3442.5864 -3774.5537 12624.355 8689569
-3569.6399 -4001.0618 13381.934 6716036
-3729.5032 -4275.5063 14299.84 11848660
-3519.9727 -4129.4023 13811.181 11192014
-3450.803 -4144.915 13863.065 11454414
-3356.0513 -4129.707 13812.2 11454413
-3300.1367 -4162.7251 13922.632 11520206
-3201.9451 -4142.7427 13855.8 11454413
-3099.095 -4115.519 13764.746 11717072
0 0 0 0
0 0 0 0
0 0 0 0
0 0 0 0
0 0 0 0
-1247.2554 -1968.0309 6582.2676 10665922
-1163.0887 -1894.6516 6336.8438 11192267
-1103.8014 -1858.2456 6215.0801 11389389
-1072.3881 -1867.869 6247.2666 9152686
-1005.5665 -1814.2972 6068.0908 11258316
-953.02435 -1783.462 5964.9595 11587538
-931.04724 -1809.6525 6052.5557 8560296
-899.49695 -1818.593 6082.458 10073535
-856.69928 -1804.5905 6035.625 11192783
-821.53137 -1806.1379 6040.8013 10863817
-765.57227 -1760.0286 5886.5835 8428196
-741.8241 -1787.1012 5977.1309 10072509
-708.578 -1792.8651 5996.4092 7637912
-680.78876 -1813.778 6066.354 11060431
-628.45581 -1767.9829 5913.188 11191505
-577.966 -1722.255 5760.2466 10664648
-542.04352 -1716.9105 5742.3711 10861256
-523.74188 -1770.4116 5921.3105 11649490
-509.52365 -1846.4178 6175.521 8557220
0 0 0 0
0 0 0 0
0 0 0 0
-962.89447 -4901.7188 16394.268 1
-844.90143 -4785.2939 16004.873 256
-739.83118 -4721.8042 15792.526 256
-632.61707 -4624.1938 15466.059 256
-534.57227 -4571.8135 15290.868 256
-438.46817 -4517.9736 15110.795 256
-340.24286 -4408.9097 14746.02 256
-253.61867 -4426.6514 14805.358 256
-165.50697 -4423.4888 14794.78 256
-77.136505 -4398.4004 14710.87 0
10.46622 -4471.4326 14955.135 263684
100.59672 -4527.5557 15142.842 66304
188.38339 -4474.999 14967.062 0
276.49841 -4461.4551 14921.763 0
367.81454 -4493.5977 15029.267 0
456.42065 -4486.5396 15005.661 0
541.65436 -4454.0576 14897.021 0
630.60181 -4456.9502 14906.696 0
715.03748 -4431.1704 14820.474 0
797.38812 -4399.542 14714.688 0
891.94952 -4434.8784 14832.874 0
962.90582 -4357.0474 14572.562 0
1050.1469 -4359.668 14581.326 0
1138.3766 -4365.6812 14601.438 0
1258.7152 -4485.2573 15001.372 0
1278.6321 -4254.8457 14230.739 0
1437.9948 -4488.2627 15011.424 0
1506.9833 -4428.811 14812.582 0
1613.8718 -4481.1572 14987.659 131841
1729.5018 -4551.0293 15221.354 256
1827.7657 -4570.5298 15286.574 256
1933.4447 -4605.8477 15404.697 256
2054.708 -4673.417 15630.69 256
2085.3684 -4537.9805 15177.71 198663
2184.875 -4557.3799 15242.593 131844
2382.2534 -4771.2554 15957.92 4014658
2955.5684 -5692.8623 19040.322 1
2967.7441 -5505.5186 18413.732 257
3109.5164 -5563.3667 18607.213 256
3217.4001 -5558.6929 18591.58 256
3353.7842 -5601.9341 18736.205 256
3468.4338 -5607.2598 18754.016 256
3601.5808 -5641.2256 18867.619 256
3717.3572 -5646.7544 18886.109 0
3860 -5691.5732 19036.012 256
4012.542 -5748.0205 19224.805 256
4203.3066 -5854.5806 19581.205 256
4287.001 -5810.2842 19433.051 256
4275.582 -5642.7837 18872.83 67079
0 0 0 0
0 0 0 0
0 0 0 0
0 0 0 0
0 0 0 0
0 0 0 0
0 0 0 0
0 0 0 0
0 0 0 0
0 0 0 0
0 0 0 0
0 0 0 0
0 0 0 0
0 0 0 0
0 0 0 0
1889.5786 -1756.5103 5874.8164 592652
1994.1581 -1820.0929 6087.4746 8623254
2031.3854 -1821.0316 6090.6143 6916249
2022.0652 -1780.9409 5956.5273 3293264
2064.8938 -1787.3696 5978.0283 10401219
2317.7893 -1972.3387 6596.6753 8691628
2420.4255 -2025.4169 6774.2007 6453639
0 0 0 0
2419.0354 -1959.079 6552.3267 7112081
2533.2952 -2019.1088 6753.1025 9217457
2565.5049 -2012.8898 6732.3022 6191237
2675.4265 -2066.8982 6912.9385 5269622
2697.2793 -2052.2642 6863.9937 10862284
2606.1858 -1953.4102 6533.3667 10928848
2452.6753 -1811.3618 6058.2725 9480889
2441.8206 -1777.2543 5944.1968 10928336
2772.7002 -1989.3005 6653.4058 10927823
2850.73 -2016.5245 6744.4595 10796493
3033.9036 -2116.3381 7078.2949 10729670
0 0 0 0
0 0 0 0
8292.9863 -5553.8457 18575.367 132357
8642.4932 -5711.8726 19103.904 5134684
8012.7983 -5227.0337 17482.314 131845
8911.5654 -5738.9141 19194.346 9284537
0 0 0 0
0 0 0 0
0 0 0 0
8275.8848 -5069.9404 16956.9 10928073
9453.7217 -5721.8237 19137.188 9281448
7936.9209 -4746.6787 15875.722 1449506
8517.5996 -5034.1084 16837.057 5
8587.5254 -5016.4995 16778.162 2
8708.9502 -5029.0342 16820.086 0
8839.5713 -5046.5347 16878.617 0
8964.2773 -5060.3027 16924.666 0
9050.4551 -5052.2583 16897.76 65793
9624.3672 -5313.6709 17772.08 2040613
9589.3213 -5236.8481 17515.139 259
9734.7754 -5259.1904 17589.865 132101
10503.22 -5614.0508 18776.73 8890538
9333.6943 -4936.481 16510.533 10598590
10182.332 -5329.2871 17824.311 1382942
9246.0557 -4789.4243 16018.688 9418676
9599.9756 -4922.0723 16462.342 789774
9417.2598 -4779.6768 15986.087 988179
9335.4678 -4690.8379 15688.957 463892
9030.5488 -4492.7495 15026.43 3490110
9831.2646 -4843.2129 16198.589 769
9842.8359 -4801.8906 16060.382 592650
9656.5859 -4665.7803 15605.148 1030
10896.819 -5214.9375 17441.857 1055772
12156.37 -5762.9033 19274.58 1451815
12462.269 -5852.7651 19575.133 11588818
0 0 0 0
0 0 0 0
0 0 0 0
0 0 0 0
0 0 0 0
0 0 0 0
0 0 0 0
0 0 0 0
0 0 0 0
0 0 0 0
0 0 0 0
0 0 0 0
0 0 0 0
0 0 0 0
0 0 0 0
0 0 0 0
0 0 0 0
0 0 0 0
0 0 0 0
0 0 0 0
15106.346 -5931.6504 19838.973 11784144
14510.215 -5653.4473 18908.494 11784403
14577.804 -5636.1299 18850.576 11192013
13801.024 -5295.1138 17710.014 10730955
11198.34 -4264.0068 14261.379 11387859
12009.065 -4538.3569 15178.97 11783130
11004.83 -4127.8369 13805.945 10462389
11246.858 -4187.3979 14005.153 1776419
11618.422 -4293.9585 14361.555 8
11710.152 -4296.2974 14369.377 8
11715.077 -4266.9849 14271.339 263
11782.332 -4260.6333 14250.096 5
11664.143 -4187.792 14006.471 66053
11752.124 -4189.48 14012.117 461067
12166.469 -4306.6709 14404.072 1
12177.576 -4280.4834 14316.485 2
12238.691 -4272.1147 14288.497 2
12264.947 -4251.7783 14220.479 2
12257.53 -4220.126 14114.615 256
12320.044 -4212.8174 14090.171 256
12371.376 -4201.8091 14053.353 256
12403.26 -4184.3877 13995.085 2
12565.965 -4211.0391 14084.223 2
12580.193 -4187.9097 14006.864 2
12436.068 -4112.7153 13755.37 3
12728.493 -4181.9312 13986.869 4
12476.806 -4072.6414 13621.339 4
12402.902 -4022.4182 13453.363 4
12452.148 -4012.5222 13420.265 2
12478.087 -3995.2888 13362.626 2
12486.173 -3972.5938 13286.72 256
12526.907 -3960.5059 13246.29 256
14727.53 -4627.1743 15476.027 256
15359.969 -4795.9248 16040.43 257
11522.571 -3575.562 11958.809 514
13171.119 -4062.0652 13585.966 516
0 0 0 0
0 0 0 0
0 0 0 0
-8978.0752 -2895.5544 9880.8721 256
-8336.2979 -2706.2737 9234.9648 256
-7675.98 -2508.4258 8559.8223 256
-8215.5938 -2702.6782 9222.6953 256
-8141.4292 -2696.2695 9200.8262 256
-8076.5356 -2692.8652 9189.209 256
-8068.7651 -2708.5906 9242.8701 0
-8254.9668 -2790.0913 9520.9863 0
-7337.168 -2497.0017 8520.8389 0
-7304.2808 -2503.0862 8541.6016 0
-7262.7988 -2506.29 8552.5342 0
-7209.7891 -2505.5325 8549.9502 0
-7146.813 -2501.2764 8535.4258 0
-7088.9233 -2498.7524 8526.8125 0
-7029.6577 -2495.7036 8516.4092 0
-6973.959 -2493.8857 8510.2061 0
-6918.7256 -2492.2092 8504.4854 0
-6861.106 -2489.6423 8495.7256 0
-6803.5039 -2487.0435 8486.8574 0
-6746.5981 -2484.6626 8478.7324 0
-6688.3975 -2481.7649 8468.8447 0
-6637.3057 -2481.4814 8467.877 0
-6576.8354 -2477.6604 8454.8379 0
-6519.9214 -2475.1306 8446.2051 256
-6467.0552 -2474.1099 8442.7227 256
-6415.5942 -2473.6155 8441.0352 256
-6360.3442 -2471.6406 8434.2959 256
-6310.9409 -2471.9243 8435.2637 256
-6265.2319 -2473.6711 8441.2256 256
-6232.5103 -2480.6157 8464.9229 256
-6197.7061 -2486.8372 8486.1533 256
-6159.4482 -2491.7642 8502.9658 256
-6110.0151 -2492.2139 8504.501 0
-6067.269 -2495.4216 8515.4473 0
-6022.3003 -2497.7615 8523.4316 0
-5974.918 -2499.1313 8528.1064 0
-5927.9307 -2500.6914 8533.4297 0
-5887.2065 -2504.9434 8547.9395 0
-5844.2476 -2508.3101 8559.4277 0
-5800.6899 -2511.4768 8570.2344 0
-5759.2354 -2515.6182 8584.3662 0
-5715.5464 -2518.8489 8595.3906 0
-5675.6748 -2523.8354 8612.4072 65536
-5627.1636 -2525.0361 8616.5039 0
-5589.6538 -2531.2402 8637.6758 0
-5488.25 -2508.3574 8559.5898 256
-5553.9497 -2562.1343 8743.0996 256
-5518.4067 -2569.781 8769.1934 256
-5496.3467 -2583.9116 8817.4131 256
-5453.9702 -2588.6719 8833.6562 256
-5409.3027 -2592.426 8846.4678 0
-5365.9077 -2596.8701 8861.6328 0
-5319.4512 -2599.906 8871.9922 0
-5278.2559 -2605.5994 8891.4209 0
-5244.2061 -2614.9714 8923.4023 0
-5197.0835 -2617.9497 8933.5654 0
-5153.0444 -2622.5588 8949.2939 0
-5104.5361 -2624.9658 8957.5068 0
-5069.5044 -2634.4265 8989.791 0
-5019.3931 -2636.1689 8995.7373 0
-4977.5708 -2642.3496 9016.8281 0
-4931.522 -2646.3962 9030.6377 0
-4892.4116 -2654.2969 9057.5977 0
-4854.1436 -2662.835 9086.7334 0
-4815.8716 -2671.563 9116.5166 0
-4767.6064 -2674.8831 9127.8457 0
-4720.7422 -2679.0745 9142.1494 0
-4671.4521 -2681.9709 9152.0332 0
-4627.7446 -2688.1782 9173.2148 0
-4584.7173 -2694.9333 9196.2666 0
-4842.2134 -2880.6331 9829.9531 0
-4504.9517 -2712.7258 9256.9824 0
-4464.4351 -2721.5659 9287.1484 0
-4415.5854 -2725.4834 9300.5166 0
-4366.4336 -2729.3118 9313.5801 65536
-4585.6421 -2903.135 9906.7393 65536
-4534.0488 -2907.8076 9922.6846 65536
-4245.6929 -2758.7603 9414.0713 65536
-4204.9316 -2768.762 9448.2012 65536
-4155.4165 -2773.1926 9463.3203 65536
-4099.3677 -2773.324 9463.7695 65536
-4008.8616 -2749.8242 9383.5781 65536
-3643.4492 -2534.4326 8648.5693 1644570
-3576.3379 -2523.3484 8610.7451 2435115
0 0 0 0
-3438.2937 -2497.4241 8522.2803 6318954
-3661.9229 -2699.6279 9212.2861 515
-3896.3789 -2916.0725 9950.8877 262
-3874.1873 -2944.1521 10046.708 527375
-3802.0613 -2934.5703 10014.01 10795710
0 0 0 0
0 0 0 0
0 0 0 0
0 0 0 0
0 0 0 0
0 0 0 0
0 0 0 0
-6264.1191 -5527.0283 18860.588 8229272
-5751.1113 -5166.8447 17631.486 7176583
0 0 0 0
-4717.0815 -4398.1396 15008.337 11059140
-4227.3325 -4017.4749 13709.345 11125189
-4072.7422 -3946.6277 13467.584 10599359
-3409.1707 -3369.832 11499.31 518
-3183.7795 -3211.4221 10958.747 11848401
-3202.2981 -3297.5605 11252.688 3494228
-3159.4131 -3322.7949 11338.799 6189176
-3460.9224 -3719.2271 12691.596 10993349
-3690.939 -4054.7849 13836.662 11058372
-3690.2295 -4146.3892 14149.255 10728898
-3572.292 -4107.4756 14016.465 6321279
-3443.4443 -4053.8589 13833.503 9874102
-3269.5317 -3943.2686 13456.12 11716819
-3153.7234 -3898.9666 13304.943 11388621
-3104.2881 -3936.554 13433.208 11322828
-3021.824 -3933.136 13421.544 11322828
-2914.3337 -3896.0762 13295.08 11388877
-2849.845 -3916.0403 13363.206 11389388
0 0 0 0
0 0 0 0
0 0 0 0
0 0 0 0
0 0 0 0
-1136.3296 -1874.9799 6398.2339 11126218
-1097.3562 -1873.364 6392.7202 11191756
-1042.9326 -1844.3104 6293.5767 10599619
-993.07788 -1821.4753 6215.6533 9151918
-935.60583 -1782.3641 6082.1899 10467779
-901.28894 -1785.9939 6094.5762 10862281
-870.22955 -1796.653 6130.9487 7309716
-830.95782 -1790.5475 6110.1143 10665672
-772.33319 -1740.2767 5938.5693 11125964
-728.19958 -1719.4072 5867.3535 10138557
-692.10364 -1716.3711 5856.9932 10599111
-659.2981 -1721.6056 5874.8555 8822186
-599.07153 -1651.8177 5636.709 10401476
-576.40594 -1683.4636 5744.6982 10269634
-543.3335 -1686.7863 5756.0371 11453650
-501.42325 -1661.2749 5668.981 9941951
-474.52396 -1685.4036 5751.3184 11192529
-460.31647 -1761.856 6012.207 10468808
0 0 0 0
0 0 0 0
0 0 0 0
-799.83997 -4440.0283 15151.278 256
-722.36108 -4518.6611 15419.607 256
-622.57501 -4460.3296 15220.554 256
-524.79346 -4398.9663 15011.156 256
-429.61746 -4338.7803 14805.776 256
-338.1517 -4294.7104 14655.391 256
-248.95737 -4258.917 14533.248 256
-162.70563 -4262.1753 14544.366 256
-74.973953 -4190.1089 14298.445 256
10.179748 -4262.5942 14545.797 0
96.471222 -4255.5713 14521.831 0
186.84294 -4350.1792 14844.674 0
276.11105 -4366.644 14900.858 0
363.49481 -4352.5479 14852.758 0
451.66028 -4351.4917 14849.153 0
525.51538 -4235.4458 14453.153 0
611.86523 -4238.561 14463.785 0
700.35248 -4253.8916 14516.1 0
792.55579 -4285.9551 14625.515 65536
872.21899 -4250.5693 14504.762 65536
956.82532 -4243.4707 14480.539 65536
1043.3231 -4245.2407 14486.578 65536
1133.5015 -4260.5752 14538.906 0
1230.7684 -4298.4941 14668.302 65792
1321.9999 -4311.7119 14713.407 197377
1353.66 -4141.0522 14131.043 263171
1369.0126 -3943.3582 13456.427 0
1643.3972 -4472.4326 15261.855 256
1707.2269 -4403.1143 15025.312 256
1849.736 -4533.5234 15470.322 256
1968.4752 -4596.0825 15683.802 256
2068.45 -4611.1533 15735.229 256
2202.4153 -4697.4175 16029.6 0
2346.5149 -4797.2461 16370.259 526858
2683.0264 -5266.835 17972.695 4015172
2870.0657 -5418.2817 18489.498 258
2957.6414 -5377.71 18351.049 256
3062.2532 -5369.8979 18324.391 256
3172.1619 -5371.5923 18330.174 256
3289.6384 -5385.564 18377.85 256
3408.4009 -5400.6743 18429.414 0
3534.1272 -5425.5356 18514.25 0
3642.4209 -5422.9404 18505.395 0
3787.1426 -5473.1426 18676.707 256
3918.1575 -5501.2417 18772.592 256
4086.0537 -5578.1338 19034.98 0
4194.3555 -5571.7183 19013.088 256
4278.9878 -5535.0215 18887.863 1
4274.1362 -5387.4097 18384.148 1514269
4039.2568 -4964.4419 16940.801 526345
4057.8091 -4865.9517 16604.711 1448215
0 0 0 0
0 0 0 0
0 0 0 0
0 0 0 0
0 0 0 0
0 0 0 0
0 0 0 0
5533.0068 -5554.2866 18953.604 517
0 0 0 0
0 0 0 0
0 0 0 0
0 0 0 0
2009.5521 -1830.902 6247.8213 5264997
1997.4949 -1786.8978 6097.6606 3028550
2060.9883 -1810.843 6179.3716 12241623
2099.082 -1812.0236 6183.4004 9149866
2246.0759 -1905.5536 6502.5645 6846855
2342.4768 -1953.7227 6666.9385 5597816
2390.78 -1960.8412 6691.2295 9611446
2413.0488 -1946.7235 6643.0542 10664904
2428.9426 -1928.0002 6579.1626 10861769
2498.8137 -1952.0365 6661.1841 7702935
2634.6658 -2026.0621 6913.7915 3885656
2649.9238 -2006.5017 6847.043 10139329
2594.2729 -1934.6531 6601.8647 10928847
2433.7766 -1787.9232 6101.1597 10401220
2442.6558 -1768.1028 6033.5239 10467271
2639.7073 -1883.0928 6425.9189 10861772
2769.541 -1947.5355 6645.8247 10665421
2872.3442 -1991.4253 6795.5957 10795977
0 0 0 0
0 0 0 0
7423.3003 -4938.3325 16851.705 3
7681.6997 -5042.2026 17206.154 1
8146.3154 -5276.9238 18007.123 257
8438.6611 -5395.4136 18411.461 199437
9107.7627 -5748.6719 19616.93 5203563
7237.9653 -4510.7432 15392.587 10006457
7348.4058 -4522.4102 15432.399 10730180
8034.123 -4883.4653 16664.475 10860739
8245.9229 -4951.1694 16895.51 8886947
8931.1465 -5298.0854 18079.336 527118
8971.1377 -5258.5425 17944.398 516
8568.0771 -4963.2798 16936.836 1
8618.9561 -4934.7773 16839.572 0
8714.0293 -4931.9419 16829.896 0
8819.7051 -4935.103 16840.684 256
8921.9385 -4936.2886 16844.73 0
9045.1816 -4948.9434 16887.914 256
9717.3965 -5258.3862 17943.865 263685
9505.2881 -5087.7705 17361.65 9608093
9247.7725 -4896.7754 16709.895 2633523
9680.6816 -5071.541 17306.27 3558221
9651.6875 -5003.1924 17073.035 132357
9605.7793 -4927.5903 16815.047 261
9662.3428 -4905.5693 16739.902 394757
9367.5508 -4707.4316 16063.772 257
9619.6855 -4785.3643 16329.711 257
9607.1504 -4731.3931 16145.539 256
9263.2881 -4516.9292 15413.696 256
10079.532 -4866.813 16607.65 658702
10232.304 -4892.6655 16695.869 258
10510.806 -4977.563 16985.576 2
10752.286 -5043.48 17210.514 2371120
11416.558 -5304.6006 18101.568 198410
11531.523 -5307.998 18113.162 9153450
12447.133 -5676.4639 19370.525 11323079
0 0 0 0
0 0 0 0
0 0 0 0
0 0 0 0
0 0 0 0
0 0 0 0
0 0 0 0
0 0 0 0
0 0 0 0
0 0 0 0
0 0 0 0
0 0 0 0
0 0 0 0
0 0 0 0
0 0 0 0
0 0 0 0
0 0 0 0
0 0 0 0
0 0 0 0
14802.051 -5696.6313 19439.346 10599105
14515.036 -5542.9087 18914.777 8821672
13976.777 -5296.3418 18073.387 10204353
12298.013 -4624.6514 15781.29 9545653
11889.443 -4437.1685 15141.519 9610418
12084.66 -4476.1436 15274.519 9283767
12153.7 -4468.1504 15247.243 7504526
11582.569 -4226.667 14423.197 592145
11369.679 -4118.499 14054.083 2435122
11885.891 -4274.0894 14585.022 4343374
12057.023 -4304.2363 14687.898 1382173
11969.229 -4242.1812 14476.138 66053
12028.649 -4232.8145 14444.176 3
12103.666 -4229.0308 14431.264 2
12199.243 -4232.4336 14442.875 2
12335.245 -4249.7153 14501.848 256
12376.153 -4234.2231 14448.982 256
12372.512 -4203.8076 14345.192 256
12374.359 -4175.6616 14249.146 1
12461.568 -4176.5063 14252.029 1
12497.418 -4160.2432 14196.53 66050
12541.199 -4146.8213 14150.729 0
12543.348 -4119.9023 14058.871 1052945
12457.155 -4064.5168 13869.872 197380
12700.841 -4116.7842 14048.23 4
12629.302 -4066.8611 13877.871 4
12535.908 -4010.5938 13685.863 4
12474.163 -3965.1118 13530.659 1
12472.186 -3939.0894 13441.859 2
12529.207 -3931.9126 13417.369 2
12550.545 -3913.6997 13355.219 256
12622.497 -3911.3997 13347.37 256
15048.177 -4633.9351 15812.97 256
14655.954 -4485.1426 15305.227 258
13130.727 -3993.5928 13627.848 2700340
12851.874 -3884.8191 13256.666 5464931
0 0 0 0
0 0 0 0
0 0 0 0
-9003.0107 -2844.708 9908.3145 256
-8356.2373 -2657.7292 9257.0547 256
-6981.23 -2235.1194 7785.0757 256
-7629.2261 -2458.8796 8564.4473 256
-7595.3428 -2464.4014 8583.6807 256
-8095.269 -2644.3701 9210.5234 256
-7445.9131 -2448.813 8529.3848 0
-7393.3057 -2448.1792 8527.1768 0
-7355.7568 -2452.5574 8542.4268 0
-7326.7773 -2459.8733 8567.9092 0
-7285.5073 -2463.1367 8579.2754 0
-7229.0791 -2461.2849 8572.8252 0
-7168.9312 -2458.1313 8561.8418 0
-7109.8833 -2455.3127 8552.0244 0
-7045.3809 -2450.5562 8535.457 0
-6993.5518 -2450.1711 8534.1152 0
-6939.2163 -2448.8958 8529.6729 0
-6882.9292 -2446.9077 8522.748 0
-6827.396 -2445.1599 8516.6611 0
-6768.1533 -2442.0479 8505.8213 0
-6712.8364 -2440.3159 8499.7891 0
-6658.1792 -2438.7998 8494.5078 0
-6598.9971 -2435.5901 8483.3281 0
-6543.708 -2433.7788 8477.0195 256
-6491.9893 -2433.2776 8475.2744 256
-6439.3682 -2432.428 8472.3145 256
-6384.1509 -2430.5762 8465.8652 256
-6337.9995 -2432.1743 8471.4307 256
-6293.5298 -2434.4482 8479.3516 256
-6256.4033 -2439.6226 8497.374 256
-6223.5352 -2446.5549 8521.5195 256
-6184.0591 -2450.9822 8536.9404 256
-6135.5601 -2451.8767 8540.0566 0
-6096.0469 -2456.4075 8555.8369 0
-6045.9487 -2456.7129 8556.9014 0
-6000.605 -2458.9719 8564.7695 0
-5957.6196 -2462.2446 8576.168 0
-5915.3101 -2465.8552 8588.7441 0
-5876.2383 -2470.8901 8606.2812 0
-5834.2412 -2474.7727 8619.8047 0
-5791.8154 -2478.5408 8632.9287 0
-5756.4141 -2485.4087 8656.8506 0
-5714.7017 -2489.6511 8671.627 0
-5672.9604 -2493.9583 8686.6289 0
-5612.8662 -2490.2021 8673.5459 0
-5619.1694 -2516.1069 8763.7744 0
-5581.5464 -2522.6438 8786.543 256
-5535.7476 -2525.574 8796.749 256
-5498.8149 -2532.6438 8821.373 256
-5458.2983 -2538.1826 8840.666 0
-5412.0498 -2541.1382 8850.96 0
-5372.2539 -2547.2114 8872.1133 0
-5327.9834 -2551.2622 8886.2227 0
-5284.8462 -2555.9421 8902.5234 0
-5245.8296 -2562.7297 8926.165 0
-5200.582 -2566.5811 8939.5791 0
-5157.9824 -2571.832 8957.8691 0
-5118.1577 -2578.5908 8981.4102 0
-5084.4062 -2588.584 9016.2168 0
-5033.3252 -2589.873 9020.707 0
-4987.7192 -2594.0376 9035.2119 0
-4946.7739 -2600.7429 9058.5674 0
-4911.3125 -2610.5105 9092.5889 0
-4867.561 -2616.0403 9111.8496 0
-4825.103 -2622.3977 9133.9922 0
-4784.5942 -2629.9707 9160.3701 0
-4732.2969 -2631.1638 9164.5254 0
-4692.8467 -2639.6108 9193.9473 0
-4640.521 -2640.9297 9198.541 0
-4596.2651 -2646.927 9219.4297 0
-4559.9316 -2657.6868 9256.9062 0
-4512.5928 -2662.2163 9272.6836 0
-4471.0879 -2670.3425 9300.9873 0
-4426.3306 -2676.7051 9323.1494 0
-4376.3506 -2680.0308 9334.7324 65536
-4347.2852 -2696.4143 9391.7979 65536
-4298.6411 -2700.9224 9407.499 65536
-4255.4399 -2709.0139 9435.6826 65536
-4205.4365 -2712.9338 9449.3359 65536
-4158.3018 -2718.8352 9469.8906 65536
-4098.2637 -2716.3459 9461.2207 65536
-4048.855 -2720.9314 9477.1914 0
-3706.3037 -2525.8669 8797.7695 3750457
-3595.697 -2485.554 8657.3564 6120034
0 0 0 0
-3750.5742 -2668.9998 9296.3105 1711903
-3850.7278 -2781.2429 9687.2617 514
-3903.771 -2862.3511 9969.7666 2
-3873.3096 -2883.7876 10044.432 3
-3817.1765 -2886.4832 10053.82 1514524
0 0 0 0
0 0 0 0
0 0 0 0
0 0 0 0
0 0 0 0
0 0 0 0
0 0 0 0
0 0 0 0
0 0 0 0
0 0 0 0
-3361.5205 -3070.668 10695.349 10401723
-4114.6494 -3831.0784 13343.91 10994117
-4037.988 -3833.5903 13352.66 3822163
-3347.2544 -3241.5271 11290.463 776
-3241.5791 -3203.4089 11157.695 10927037
-3153.3115 -3181.2607 11080.552 774
-3081.8013 -3175.4348 11060.259 724752
-3352.2036 -3529.3335 12292.912 11059396
-3756.0645 -4042.6431 14080.806 10204089
-3872.208 -4262.6216 14847.006 11190473
-3813.8042 -4296.2329 14964.076 11256522
-3531.3191 -4072.9954 14186.524 10663616
-3253.8899 -3844.8118 13391.745 8820901
-3133.467 -3795.3555 13219.485 7900055
-3038.1147 -3774.5032 13146.855 11584977
-2986.9429 -3808.8872 13266.618 11125451
-2905.6987 -3805.7493 13255.688 11190986
-2818.0417 -3793.8027 13214.077 11059397
-2837.6541 -3929.7234 13687.498 11190984
-2652.5447 -3781.7908 13172.238 11321286
0 0 0 0
0 0 0 0
0 0 0 0
0 0 0 0
0 0 0 0
-1082.3008 -1875.1118 6531.1436 11257550
-1044.0359 -1876.1035 6534.5986 10731206
-949.46179 -1772.0767 6172.2651 11388880
-911.48151 -1769.5596 6163.4985 8756135
-868.49548 -1756.7069 6118.7319 7637397
-823.93939 -1739.4163 6058.5073 8426400
-782.41101 -1727.2292 6016.0586 9742773
-728.15155 -1684.4243 5866.9663 8821669
-692.11584 -1681.5905 5857.0962 10202808
-637.7431 -1631.5449 5682.7837 6056050
-622.81036 -1682.4443 5860.0698 7108997
-582.89636 -1667.8925 5809.3843 10466754
-542.87909 -1651.194 5751.2231 11256784
-507.2384 -1646.4575 5734.7256 11322065
-466.96286 -1624.9106 5659.6763 7900316
-462.72934 -1735.1713 6043.7217 9742002
-427.3837 -1737.5061 6051.8535 7109507
0 0 0 0
0 0 0 0
-846.60376 -4604.3071 16037.119 0
-717.17072 -4395.208 15308.812 256
-621.30084 -4360.9248 15189.402 256
-519.61487 -4267.2217 14863.028 256
-423.97836 -4194.9888 14611.437 256
-331.599 -4126.0728 14371.397 256
-245.32466 -4111.6567 14321.184 256
-161.2124 -4137.4106 14410.887 256
-75.05291 -4109.4517 14313.504 256
10.005644 -4104.7192 14297.021 256
95.366508 -4121.5195 14355.537 256
180.71233 -4122.1104 14357.596 0
267.42502 -4143.5005 14432.099 0
353.6629 -4148.9316 14451.016 0
435.9892 -4115.3184 14333.938 0
522.25232 -4123.7798 14363.41 0
607.7041 -4124.3569 14365.421 0
694.26117 -4131.3696 14389.846 0
782.50861 -4145.7998 14440.107 0
857.72003 -4095.1377 14263.647 0
946.56061 -4112.8081 14325.194 0
1041.396 -4151.46 14459.821 0
1140.6378 -4200.4453 14630.441 0
1224.7665 -4190.7783 14596.771 0
1348.343 -4308.4409 15006.597 65792
1453.9484 -4357.6416 15177.967 0
1532.9674 -4326.0659 15067.987 0
1635.7562 -4361.353 15190.894 256
1746.5782 -4413.2466 15371.643 256
1857.9069 -4461.1978 15538.659 256
1975.8862 -4519.8208 15742.848 256
2087.7976 -4559.8896 15882.412 256
2235.269 -4670.7988 16268.716 256
2280.1079 -4566.9424 15906.976 256
2396.1338 -4608.2632 16050.899 0
2719.9656 -5030.772 17522.525 256
2893.1755 -5153.8062 17951.062 256
2993.636 -5143.1045 17913.789 256
3118.2583 -5173.2236 18018.695 0
3242.8186 -5201.2417 18116.285 0
3359.4119 -5215.0923 18164.527 0
3492.3459 -5252.6577 18295.369 0
3615.7192 -5274.0088 18369.736 0
3756.7273 -5319.0762 18526.711 256
3879.9919 -5337.1704 18589.734 0
4041.823 -5405.8442 18828.93 256
4134.0791 -5380.27 18739.852 256
4224.8872 -5354.2026 18649.059 0
4231.5781 -5225.5918 18201.098 515
4253.0664 -5121.21 17837.527 2
4247.0815 -4989.6284 17379.221 197637
0 0 0 0
0 0 0 0
0 0 0 0
0 0 0 0
0 0 0 0
0 0 0 0
5289.6313 -5310.3975 18496.482 65795
5470.2378 -5379.9058 18738.584 2
5587.8794 -5385.9512 18759.641 258
0 0 0 0
0 0 0 0
0 0 0 0
0 0 0 0
0 0 0 0
2333.7759 -2008.9349 6997.2588 9282738
2413.177 -2040.9156 7108.6504 8888492
2405.1384 -1999.1172 6963.0635 10993868
2432.0605 -1987.3 6921.9033 11059662
2424.2354 -1947.9556 6784.8638 9349044
2489.2524 -1967.4719 6852.8408 11125201
2518.6296 -1958.6442 6822.0933 8229026
2605.5898 -1994.167 6945.8213 7045005
2645.7739 -1993.3403 6942.9419 9085615
2619.7913 -1943.4539 6769.1841 10401731
2564.6777 -1873.7932 6526.5518 10861772
2433.5483 -1751.4974 6100.5869 9677498
2436.5581 -1727.9193 6018.4624 10861772
2583.1829 -1805.3961 6288.3198 10665418
2782.6738 -1917.0846 6677.3379 9282738
2748.1497 -1866.6777 6501.7676 9544109
0 0 0 0
0 0 0 0
7568.2539 -4932.6514 17180.766 3
7632.2432 -4908.1362 17095.377 515
7808.1509 -4955.2915 17259.623 265997
8156.1709 -5109.0361 17795.125 1029
8752.1113 -5412.1533 18850.904 2769993
7367.7505 -4498.5024 15668.595 10665927
7476.623 -4507.9976 15701.668 5795189
7342.2744 -4372.418 15229.435 8758701
8080.3711 -4753.3652 16556.301 986384
9433.29 -5482.4722 19095.828 2499884
8888.8447 -5104.6348 17779.795 3
8689.5518 -4931.5591 17176.961 256
8712.9141 -4887.3979 17023.145 256
8757.6514 -4856.1045 16914.146 0
8829.0674 -4840.1455 16858.561 256
8959.1982 -4856.3716 16915.078 256
9060.5215 -4856.7954 16916.555 256
9910.748 -5254.2461 18300.902 3423805
10123.673 -5308.8657 18491.146 257
9529.1006 -4943.4077 17218.23 512
9418.668 -4834.2036 16837.865 256
9555.7109 -4852.979 16903.262 256
9609.0088 -4829.2754 16820.699 256
9442.1045 -4696.5303 16358.34 256
9620.6719 -4736.5791 16497.832 256
9640.5518 -4698.4805 16365.132 256
9643.1465 -4652.8032 16206.035 256
9613.377 -4592.5674 15996.229 1381654
9873.8135 -4670.793 16268.695 263686
10166.621 -4762.667 16588.697 395786
10472.242 -4858.7202 16923.258 4146758
10440.856 -4798.0752 16712.027 594965
10730.149 -4884.5513 17013.23 259
0 0 0 0
11404.138 -5095.3311 17747.391 11455691
0 0 0 0
0 0 0 0
0 0 0 0
0 0 0 0
0 0 0 0
0 0 0 0
0 0 0 0
0 0 0 0
0 0 0 0
0 0 0 0
0 0 0 0
0 0 0 0
0 0 0 0
0 0 0 0
0 0 0 0
14384.651 -5598.5093 19499.994 10929094
14212.054 -5487.1255 19112.037 11389388
14197.285 -5437.9609 18940.793 11389901
14226.232 -5406.1821 18830.105 11455950
14019.269 -5285.9497 18411.328 11915475
13626.147 -5097.9331 17756.453 7107197
12085.293 -4486.7061 15627.507 4151909
11982.974 -4414.79 15377.02 9550531
11846.324 -4331.4111 15086.604 10272199
12025.716 -4363.9722 15200.016 5791853
11936.317 -4299.2339 14974.528 460814
11891.586 -4251.4233 14808.002 525
11824.648 -4196.4341 14616.471 7
11723.344 -4130.1401 14385.563 3225403
12436.126 -4349.5327 15149.723 197639
12251.964 -4254.3198 14818.09 259
12150.145 -4188.8545 14590.069 4
12182.864 -4170.3711 14525.691 1
12190.994 -4143.7905 14433.108 2
12253.154 -4135.8174 14405.338 2
12297.241 -4121.8975 14356.854 256
12288.354 -4090.5354 14247.617 256
12315.991 -4071.6775 14181.934 257
12325.219 -4047.0312 14096.089 987409
12456.157 -4062.4119 14149.661 790030
12327.143 -3993.3743 13909.199 2
13223.008 -4255.0552 14820.651 2
13107.918 -4190.1074 14594.435 3
12806.618 -4066.8821 14165.23 4
12746.428 -4021.3318 14006.577 4
12690.468 -3977.6995 13854.602 1
12628.939 -3932.8948 13698.545 1
12669.218 -3920.1665 13654.21 256
12708.076 -3907.1631 13608.919 256
12729.353 -3888.9526 13545.491 256
12818.77 -3891.6584 13554.915 256
15514.98 -4680.7852 16303.498 256
13131.292 -3937.051 13713.021 258
13105.712 -3905.1436 13601.885 2
12992.287 -3847.613 13401.502 3
0 0 0 0
0 0 0 0
0 0 0 0
-8433.0996 -2609.4707 9281.0957 256
-8382.8584 -2611.0027 9286.5449 256
-6972.6616 -2186.1638 7775.5215 256
-7647.29 -2413.6794 8584.7256 256
-7555.625 -2400.7654 8538.7939 256
-7507.2007 -2401.5093 8541.4395 256
-8111.1265 -2612.3667 9291.3955 0
-7431.1499 -2409.7712 8570.8252 0
-7368.9448 -2406.0928 8557.7422 0
-7333.269 -2411.0857 8575.5 0
-7293.082 -2414.655 8588.1953 0
-7238.1992 -2413.3745 8583.6406 0
-7180.9902 -2411.2949 8576.2441 0
-6572.2119 -2222.6506 7905.2935 0
-7032.2549 -2395.3564 8519.5557 0
-6979.48 -2394.6221 8516.9443 0
-6958.7295 -2404.9446 8553.6582 0
-6905.9106 -2404.2546 8551.2041 0
-6846.8276 -2401.3577 8540.9004 0
-6789.9097 -2399.1826 8533.1641 0
-6735.7549 -2397.9578 8528.8086 0
-6681.4512 -2396.6616 8524.1982 0
-6636.916 -2398.8762 8532.0752 0
-6576.8833 -2395.4802 8519.9961 256
-6522.7148 -2394.1841 8515.3867 256
-6471.2358 -2393.8628 8514.2432 256
-6418.7017 -2393.1428 8511.6826 256
-6370.8623 -2394.1755 8515.3555 256
-6324.9521 -2395.9556 8521.6875 256
-6300.5542 -2405.9795 8557.3389 256
-6254.0264 -2407.6472 8563.2705 256
-6211.9395 -2411.0654 8575.4287 0
-6171.6016 -2415.2251 8590.2227 0
-6126.9521 -2417.7524 8599.2119 0
-6079.5488 -2419.2268 8604.4561 0
-6034.0171 -2421.4773 8612.46 0
-5990.8018 -2424.7034 8623.9346 0
-5954.5249 -2430.8181 8645.6826 0
-5915.417 -2435.8733 8663.6621 0
-5876.207 -2440.9749 8681.8066 0
-5833.021 -2444.5005 8694.3467 0
-5794.3213 -2449.9863 8713.8574 0
-5756.7212 -2456.04 8735.3887 0
-5714.7563 -2460.325 8750.6289 0
-5666.7998 -2462.085 8756.8887 0
-5644.7993 -2475.2598 8803.748 0
-6030.6816 -2669.2119 9493.5771 256
-5560.1543 -2484.1965 8835.5332 256
-5526.4609 -2492.6848 8865.7236 0
-5485.2124 -2497.896 8884.2578 0
-5425.834 -2494.8723 8873.5039 0
-5388.6699 -2502.1035 8899.2236 0
-5354.9272 -2511.083 8931.1602 0
-5300.5923 -2510.489 8929.0479 0
-5265.2251 -2518.9578 8959.168 0
-5222.5488 -2524.0669 8977.3398 0
-5182.7769 -2530.6992 9000.9297 0
-5145.522 -2538.7124 9029.4297 0
-5100.6836 -2543.1133 9045.082 0
-5054.3818 -2546.8701 9058.4443 0
-5014.5425 -2553.9995 9083.8018 0
-4976.0181 -2561.9612 9112.1191 0
-4934.0718 -2568.3171 9134.7246 0
-4887.6143 -2572.4399 9149.3887 0
-4847.6855 -2580.1304 9176.7412 0
-4802.9048 -2585.384 9195.4268 0
-4751.7378 -2587.2815 9202.1748 0
-4704.7529 -2591.5264 9217.2734 0
-4673.541 -2604.6626 9263.9941 0
-4626.834 -2609.3726 9280.7471 0
-4581.5811 -2615.0266 9300.8564 0
-4534.9839 -2620.042 9318.6943 0
-4486.043 -2623.8105 9332.0977 0
-4445.0161 -2632.3601 9362.5068 0
-4391.8687 -2633.8577 9367.833 0
-4357.0342 -2646.5173 9412.8594 65536
-4308.249 -2650.9221 9428.5254 65536
-4261.8135 -2656.908 9449.8154 65536
-4216.7148 -2663.8979 9474.6768 65536
-4164.4272 -2666.4744 9483.8398 65536
-4106.9058 -2665.7241 9481.1719 0
-4088.3928 -2690.6252 9569.7373 0
-3735.4229 -2493.0129 8866.8906 4408901
-4026.8977 -2726.0007 9695.5576 987923
-4103.4858 -2818.1743 10023.392 197636
-3829.7693 -2668.939 9492.6064 258
-3963.2351 -2803.2461 9970.2959 2
-3914.3096 -2810.6646 9996.6807 2
-3871.4905 -2822.7639 10039.715 2
-3838.8484 -2842.7783 10110.9 1
-3862.4351 -2905.731 10334.803 658444
0 0 0 0
0 0 0 0
0 0 0 0
0 0 0 0
0 0 0 0
0 0 0 0
0 0 0 0
0 0 0 0
-3453.3318 -3031.8999 10783.548 520
-3406.915 -3047.7102 10839.78 4608086
-3747.9204 -3417.3843 12154.6 11124162
-3766.0369 -3501.3901 12453.383 516
-3234.4514 -3067.4458 10909.974 773
-3238.2449 -3133.8682 11146.219 2434860
-3153.3025 -3115.3967 11080.521 4
-3071.218 -3099.0205 11022.275 6
-2991.8423 -3084.7236 10971.426 6515825
0 0 0 0
0 0 0 0
-3798.1277 -4190.0024 14902.567 11124936
-3646.3228 -4118.5786 14648.534 11190729
-3368.1311 -3897.4131 13861.916 10863047
-2989.218 -3545.6855 12610.928 8757416
-2904.2979 -3533.5564 12567.788 5266279
-2826.2239 -3529.3362 12552.778 6780290
-2822.6038 -3620.3853 12876.611 9479594
-2793.5378 -3682.9617 13099.177 10796227
-2732.3977 -3705.627 13179.79 11059654
-2844.9976 -3972.2078 14127.938 10533054
-2797.3511 -4024.4609 14313.787 10467261
-2661.9055 -3949.7168 14047.944 11058628
0 0 0 0
0 0 0 0
0 0 0 0
0 0 0 0
0 0 0 0
-1013.5643 -1852.557 6588.9829 11191244
-964.58038 -1833.8805 6522.5566 11322574
-913.00122 -1808.4995 6432.2842 10532545
-858.46851 -1774.7938 6312.4033 10729668
-797.05231 -1723.1265 6128.6382 10399675
-756.73016 -1714.2969 6097.2339 6649218
-691.29675 -1644.8311 5850.165 8163485
-649.72717 -1627.7946 5789.5713 11453390
-602.35962 -1593.5144 5667.6475 6846853
-587.83142 -1647.194 5858.5693 11389651
-551.1297 -1641.5878 5838.6294 10928073
-523.09277 -1662.7709 5913.9717 9414836
-488.32379 -1664.0651 5918.5747 10730439
-443.72418 -1629.46 5795.4946 6912900
-422.85583 -1683.5111 5987.7383 7835543
0 0 0 0
0 0 0 0
-744.94226 -3967.5459 14111.357 5527385
-755.23273 -4532.6577 16121.289 256
-611.65277 -4204.3306 14953.528 256
-517.23718 -4159.7637 14795.018 256
-424.59174 -4114.0913 14632.575 256
-332.71048 -4054.2029 14419.569 256
-244.35812 -4010.6768 14264.761 256
-159.61246 -4011.5498 14267.865 256
-74.719498 -4006.5034 14249.918 256
9.9658861 -4003.7739 14240.21 256
95.005409 -4020.917 14301.181 256
178.95248 -3997.467 14217.777 0
264.43201 -4012.312 14270.576 0
351.60709 -4039.426 14367.013 0
437.5564 -4044.6133 14385.463 0
524.01263 -4052.0251 14411.824 0
607.85907 -4040.0088 14369.085 0
692.02411 -4032.8091 14343.479 0
775.58417 -4024.0505 14312.326 256
821.75891 -3842.2236 13665.623 460807
954.06555 -4059.6021 14438.773 1908509
1024.3282 -3998.8887 14222.834 66049
1151.5098 -4152.6992 14769.891 0
1264.6112 -4237.5391 15071.641 0
1368.4368 -4282.1289 15230.234 0
1454.2955 -4268.4526 15181.591 0
1558.6583 -4307.5112 15320.511 131584
1666.2379 -4350.6577 15473.97 256
1775.1431 -4392.5708 15623.042 256
1847.9109 -4345.3408 15455.059 0
2023.3347 -4532.5469 16120.894 256
2115.7874 -4525.3618 16095.338 256
2251.2727 -4606.8569 16385.193 256
2361.1924 -4631.4482 16472.656 256
2456.9448 -4627.3984 16458.252 256
2639.606 -4781.0752 17004.834 132099
2754.1138 -4804.5244 17088.236 256
2938.2202 -4943.4028 17582.184 256
3084.4653 -5011.2295 17823.424 0
3220.5779 -5058.6372 17992.037 0
3343.8782 -5083.519 18080.535 0
3483.6321 -5131.0874 18249.721 0
3619.5398 -5170.2881 18389.146 0
3749.2324 -5198.5737 18489.75 0
3874.8022 -5219.6943 18564.869 0
4008.3386 -5250.0801 18672.941 0
4105.2183 -5232.1094 18609.025 0
4194.7261 -5205.9331 18515.924 256
4226.0757 -5110.7612 18177.428 258
4290.6699 -5059.5366 17995.236 132873
4207.2114 -4840.4663 17216.07 5002328
4441.2861 -4988.4526 17742.412 1777959
0 0 0 0
0 0 0 0
5205.4609 -5458.0059 19412.471 514
5052.4844 -5182.7358 18433.42 856338
5168.0859 -5188.8057 18455.008 1645339
5168.708 -5081.582 18073.645 1
5480.3193 -5278.2461 18773.119 2
5619.0156 -5303.8462 18864.172 3
5809.2231 -5376.1152 19121.211 262
5820.8535 -5283.519 18791.873 3754061
0 0 0 0
0 0 0 0
0 0 0 0
0 0 0 0
2354.5405 -1950.1019 6935.9209 10928334
2351.6064 -1914.1593 6808.084 10796491
2404.4148 -1924.0383 6843.2207 10071999
2460.2273 -1935.9529 6885.5967 10928079
2519.9055 -1950.4695 6937.228 3952226
2598.9888 -1979.2969 7039.7583 10597314
2638.7156 -1977.7133 7034.1255 9546422
2601.2646 -1919.2367 6826.1421 7308433
2583.5452 -1876.8903 6675.5293 10400449
2507.8879 -1794.3712 6382.0342 9545910
2441.8481 -1721.0896 6121.3936 10598598
2511.0354 -1743.8727 6202.4258 9545910
