# .PCD v0.7 - Point Cloud Data file format
VERSION 0.7
FIELDS x y z rgb
SIZE 4 4 4 4
TYPE F F F U
COUNT 1 1 1 1
WIDTH 1455
HEIGHT 1
VIEWPOINT 0 0 0 1 0 0 0
POINTS 1455
DATA ascii
11897.263 2188.4141 13794.17 65536
9202.8926 1681.2192 10597.183 65536
8684.8164 1575.7908 9932.6387 65536
0 0 0 0
0 0 0 0
0 0 0 0
0 0 0 0
0 0 0 0
0 0 0 0
0 0 0 0
0 0 0 0
0 0 0 0
0 0 0 0
0 0 0 0
0 0 0 0
0 0 0 0
0 0 0 0
0 0 0 0
0 0 0 0
0 0 0 0
0 0 0 0
0 0 0 0
-7180.9478 1300.7687 7903.0322 256
-6653.2676 1213.1189 7370.5015 256
-7301.5708 1340.1504 8142.3022 256
-7011.1323 1295.4282 7870.585 256
-6932.9097 1289.5792 7835.0488 256
-6860.4951 1284.7388 7805.6396 256
-6876.4053 1296.4851 7877.0068 256
-7136.334 1354.7156 8230.7949 0
-7045.2197 1346.65 8181.7915 256
-6993.21 1345.999 8177.8364 256
-6926.1797 1342.4277 8156.1377 256
-6868.1836 1340.5692 8144.8467 256
-7017.1157 1379.3605 8380.5293 256
-6967.2285 1379.345 8380.4346 256
-6918.4033 1379.5408 8381.625 256
-6861.0645 1378.0297 8372.4434 256
-6798.6309 1375.4656 8356.8652 256
-6738.4834 1373.3298 8343.8887 256
-6730.7119 1381.9158 8396.0547 0
-6678.7905 1381.4979 8393.5156 0
-6630.001 1381.7263 8394.9033 0
-6600.4224 1385.9922 8420.8213 0
-6551.7651 1386.2865 8422.6094 0
-6490.0601 1383.8032 8407.5215 0
-6449.1821 1385.7566 8419.3896 0
-6377.7129 1381.1158 8391.1943 0
-7229.2188 1577.8507 9586.4893 0
-7222.2441 1588.8507 9653.3213 0
-7178.2144 1591.8096 9671.2988 0
-7151.7085 1598.7338 9713.3672 0
-7087.3491 1597.2396 9704.2891 0
-5776.6636 1312.5385 7974.541 0
-5747.9922 1316.8279 8000.6025 0
-6948.4648 1605.127 9752.21 0
-6887.1694 1604.3502 9747.4912 0
-6842.3882 1607.4397 9766.2617 0
-6789.6436 1608.6956 9773.8916 0
-6735.7129 1609.6895 9779.9297 0
-6687.7085 1612.1292 9794.7529 0
-6636.0483 1613.7227 9804.4355 0
-6573.1685 1612.592 9797.5654 0
-6523.832 1614.7936 9810.9414 0
-6485.3496 1619.7456 9841.0273 0
-6426.5923 1619.6777 9840.6162 0
-6383.1411 1623.5017 9863.8496 0
-6353.7783 1631.0132 9909.4863 0
-6305.2417 1633.6971 9925.793 0
-5498.7593 1438.1924 8737.9717 0
-5450.5942 1439.1871 8744.0156 0
-6196.7554 1651.9559 10036.727 0
-6167.3965 1660.1097 10086.268 0
-5335.1528 1450.186 8810.8418 0
-5287.4873 1451.4764 8818.6816 0
-5239.9658 1452.8325 8826.9209 0
-5194.6694 1454.8392 8839.1123 0
-5141.0146 1454.5221 8837.1855 0
-5075.3638 1450.7693 8814.3848 0
-5026.8433 1451.886 8821.1699 0
-4958.6528 1447.2854 8793.2178 0
-4916.6074 1450.2987 8811.5264 0
-4872.8721 1452.873 8827.167 0
-4856.8496 1463.8563 8893.8975 0
-4805.9746 1464.4609 8897.5713 0
-4744.0479 1461.6741 8880.6387 0
-4692.5034 1462.0591 8882.9785 0
-4642.8872 1463.0609 8889.0645 0
-4636.856 1477.9779 8979.6953 0
-4621.6035 1490.269 9054.3721 0
-4531.8657 1478.5485 8983.1621 0
-4529.9316 1495.5364 9086.375 0
-4486.9229 1499.21 9108.6943 0
-4443.0171 1502.67 9129.7168 0
-4401.2417 1506.9449 9155.6895 0
-4355.4585 1509.9377 9173.8721 0
-4302.6265 1510.5314 9177.4795 0
-4275.2085 1520.1771 9236.084 0
-4232.2568 1524.4785 9262.2178 0
-4182.1221 1526.2721 9273.1143 0
-4141.0439 1531.4626 9304.6504 0
-4107.7114 1539.6969 9354.6787 0
-4054.3867 1540.5608 9359.9277 0
-4008.123 1544.1689 9381.8496 0
-3970.0593 1551.0825 9423.8545 0
-3926.7561 1556.1178 9454.4473 0
-3881.6562 1560.5768 9481.5381 0
-3836.2007 1565.0222 9508.5469 0
-3791.2507 1569.8099 9537.6357 0
-3743.7771 1573.682 9561.1611 0
-3695.3909 1577.2841 9583.0459 0
-3651.4785 1582.9382 9617.3984 0
-3603.2859 1586.8872 9641.3916 0
-3559.9495 1593.1372 9679.3643 0
-3514.0012 1598.4043 9711.3652 0
-3467.002 1603.3612 9741.4824 0
-3418.9785 1608.005 9769.6963 0
-3374.1848 1614.3544 9808.2725 0
-3326.0198 1619.2859 9838.2344 0
-3276.0037 1623.4761 9863.6934 256
-3228.6489 1629.1622 9898.2402 256
-3182.9624 1635.9166 9939.2783 256
-3130.3025 1639.275 9959.6816 256
-3082.3872 1645.2953 9996.2588 256
-3034.053 1651.3239 10032.887 256
-2984.8904 1657.1345 10068.19 256
-2935.4954 1663.0511 10104.139 0
-2886.8123 1669.627 10144.09 0
-2838.0291 1676.4238 10185.386 0
-2787.8042 1682.647 10223.195 0
-2738.5479 1689.745 10266.32 0
-2686.4548 1695.3762 10300.534 0
-2636.3877 1702.5785 10344.293 0
-2585.0576 1709.2894 10385.066 0
-2532.427 1715.4479 10422.483 0
-2478.5642 1721.0599 10456.579 0
-2424.7271 1726.9784 10492.538 0
-2369.2681 1732.0237 10523.192 0
-2316.5447 1739.397 10567.989 0
-2258.3433 1742.9531 10589.596 0
-2204.4539 1750.1366 10633.24 0
-2148.5781 1756.1206 10669.597 0
-2091.2598 1761.2537 10700.783 0
-2036.5806 1769.001 10747.854 0
-1981.519 1776.9071 10795.889 0
-1923.6691 1782.7585 10831.439 0
-1867.9362 1791.0447 10881.783 0
-1812.049 1799.7722 10934.81 0
-1754.3086 1807.2399 10980.181 0
-1697.215 1815.9766 11033.262 0
-1641.9929 1827.4987 11103.266 0
-1581.2117 1833.5392 11139.966 0
-1527.8823 1849.1266 11234.669 0
-1474.2555 1865.762 11335.74 0
-1419.0812 1881.9382 11434.022 0
-1359.4657 1893.5562 11504.608 0
-1302.5751 1910.4008 11606.95 0
-1270.974 1968.2939 11958.69 0
-1204.9994 1976.6599 12009.52 0
-1198.3896 2089.592 12695.656 0
-1081.0374 2011.6274 12221.97 0
-1003.0329 2000.9248 12156.944 0
-948.87646 2039.8275 12393.304 0
-893.26447 2081.8855 12648.835 0
-833.79327 2121.8525 12891.66 0
-761.68408 2134.4922 12968.454 0
-696.74622 2172.3367 13198.385 256
-631.27826 2217.9214 13475.343 2
-520.67468 2095.1328 12729.32 3
-483.20544 2274.9082 13821.576 66054
-412.85565 2341.8215 14228.119 516
-341.46277 2435.7656 14798.891 3
-250.86717 2410.3931 14644.736 3
-166.40083 2448.2405 14874.684 4
-78.695847 2470.2251 15008.256 7
11.143723 2620.8198 15923.218 7
99.783058 2472.2178 15020.362 5
185.68748 2428.1914 14752.872 4
272.75223 2422.7141 14719.594 3
384.5061 2585.9402 15711.3 1
469.6459 2541.363 15440.465 0
551.49622 2496.4685 15167.7 0
640.63232 2492.5359 15143.807 0
715.56281 2441.1104 14831.362 1
820.68958 2492.6802 15144.684 1
903.54767 2473.1045 15025.748 1
994.11682 2476.2578 15044.907 256
1090.4177 2491.99 15140.49 256
1188.0836 2508.2046 15239.006 256
1273.2463 2497.5964 15174.554 256
1385.5337 2538.0798 15420.518 0
1530.7898 2630.1863 15980.125 0
1638.5621 2650.8894 16105.91 0
1706.0106 2607.6709 15843.33 0
1817.0176 2632.0718 15991.58 0
1953.9618 2689.7507 16342.018 0
1990.5345 2610.342 15859.559 0
2054.3 2572.1619 15627.589 0
2167.9041 2596.9875 15778.421 0
2277.7371 2615.4243 15890.436 0
2375.2056 2618.761 15910.708 0
2479.29 2628.8569 15972.049 256
2591.1021 2646.0999 16076.811 256
2720.5842 2679.52 16279.859 256
2851.5784 2712.0823 16477.697 256
3011.3145 2768.9109 16822.969 256
3116.835 2773.8372 16852.9 256
3386.5667 2920.0474 17741.223 256
3515.97 2940.0837 17862.957 257
3660.2625 2971.0312 18050.984 132100
0 0 0 0
0 0 0 0
4341.6455 3239.2769 19680.754 774
4358.0342 3166.2029 19236.781 4
4399.5601 3114.6609 18923.629 4
4511.3145 3114.1672 18920.629 4
4549.4282 3064.0994 18616.436 4
4648.3296 3056.3784 18569.525 196611
4732.2461 3039.3914 18466.316 196610
4769.5493 2993.9143 18190.014 327680
4766.2202 2925.5132 17774.432 393216
4799.2734 2881.9255 17509.607 458752
4824.4565 2835.5625 17227.922 458752
5035.145 2897.8911 17606.609 458752
5201.4214 2932.6414 17817.74 458752
0 0 0 0
4725.5669 2560.1038 15554.327 262144
5331.646 2833.0291 17212.529 196608
5689.9858 2966.5173 18023.559 657415
6011.7656 3076.3638 18690.949 986893
5710.0059 2868.9333 17430.672 1052686
6053.6494 2987.3933 18150.395 1315858
6483.2749 3143.3931 19098.197 1315601
6784.5996 3232.8892 19641.943 1381907
6390.6758 2993.6726 18188.545 1447444
6639.8462 3058.6565 18583.365 1381908
6134.1021 2779.4512 16887.008 1513237
5455.6089 2432.2202 14777.35 1513239
4661.5762 2045.2985 12426.544 65793
5284.3955 2282.4036 13867.114 65538
4971.4829 2114.2773 12845.636 1579034
0 0 0 0
0 0 0 0
4891.4272 1988.6147 12082.153 1514009
5005.4395 2005.5248 12184.892 790287
0 0 0 0
6400.7261 2492.4512 15143.292 1974818
7918.2617 3040.6265 18473.822 1382941
7917.4751 2998.7432 18219.354 1251096
7542.9043 2818.3293 17123.219 1447705
7542.6929 2780.7329 16894.795 197381
6419.3467 2335.5022 14189.724 2
6366.5127 2286.2444 13890.449 65536
6404.834 2270.563 13795.175 196608
6507.4946 2277.7983 13839.136 393216
6478.2637 2239.2639 13605.012 589824
6255.8364 2135.7229 12975.932 2166272
6538.8584 2205.1606 13397.813 2231296
6496.3086 2164.4534 13150.489 1967104
6504.8076 2141.5203 13011.155 1441792
6539.6943 2127.7114 12927.257 1376256
6577.8242 2115.2661 12851.644 1179648
6642.0986 2111.4172 12828.26 851968
6741.7451 2118.7725 12872.947 589824
6769.4751 2103.6145 12780.854 196608
6753.8188 2075.4604 12609.798 657412
6871.5503 2088.4648 12688.808 196608
6824.1992 2051.5579 12464.573 393216
6898.75 2051.6975 12465.422 458752
6838.3169 2012.1162 12224.939 458752
6872.8076 2001.0043 12157.427 458752
6889.6992 1985.0529 12060.512 458752
6943.5171 1979.9595 12029.565 458752
7038.2212 1986.5099 12069.364 458752
7038.0146 1966.41 11947.245 458752
7121.7563 1969.9329 11968.647 458752
7126.5103 1951.7533 11858.194 327680
7185.417 1948.6155 11839.131 196608
7467.6641 2005.5189 12184.856 197894
8263.1514 2197.8413 13353.343 791318
0 0 0 0
0 0 0 0
0 0 0 0
9466.6641 2424.7969 14732.248 3550259
7650.6265 1941.677 11796.975 393221
7260.0654 1825.8226 11093.083 1542
7212.8384 1797.621 10921.739 8624026
7560.5122 1867.464 11346.081 9016216
0 0 0 0
9390.1846 2278.748 13844.905 458754
9097.998 2188.6633 13297.58 262144
8790.2793 2096.4255 12737.175 2564898
8904.4102 2105.5125 12792.384 196608
8697.6182 2039.2034 12389.513 262144
9295.3984 2161.0603 13129.874 131072
9810.6299 2261.8567 13742.278 65536
9947.6152 2274.5034 13819.116 0
9598.7158 2176.7561 13225.235 65536
9229.7021 2076.072 12613.514 197120
9009.9092 2010.3047 12213.934 131072
8717.8662 1929.5972 11723.582 919302
8997.0928 1975.6107 12003.145 393216
8558.6348 1864.5486 11328.368 393216
8854.1631 1913.875 11628.06 393216
9015.0723 1933.5643 11747.686 1840916
9166.625 1950.9598 11853.374 394500
9180.6162 1939.0354 11780.925 1512722
9235.582 1935.8802 11761.756 196608
9902.8174 2060.147 12516.759 0
9898.1387 2043.8201 12417.562 65536
9780.2461 2004.531 12178.854 65536
9914.2109 2017.0598 12254.976 65536
9986.1826 2016.8854 12253.916 65536
10011.088 2007.2765 12195.535 65536
8807.624 1753.2814 10652.347 65536
9006.0986 1779.9957 10814.654 65536
9870.208 1936.9573 11768.3 65536
9425.7109 1836.7125 11159.246 65536
9371.8848 1813.4636 11017.994 65536
8648.0732 1661.7946 10096.503 65536
8686.4004 1657.6572 10071.366 65536
8072.4346 1529.949 9295.4541 65536
8288.0625 1560.139 9478.8789 65536
0 0 0 0
0 0 0 0
0 0 0 0
0 0 0 0
0 0 0 0
0 0 0 0
4849.0498 871.32343 5293.8672 393216
5044.6343 900.62415 5471.8887 393216
5110.3887 906.51929 5507.7056 458752
5174.1299 911.98444 5540.9102 458752
5238.0532 917.41248 5573.8892 393216
5279.0166 918.77631 5582.1748 458752
5329.9946 921.85522 5600.8813 393216
5445.082 935.91504 5686.3042 458752
5488.3545 937.53387 5696.1396 458752
5729.4287 972.71478 5909.8867 458752
0 0 0 0
0 0 0 0
0 0 0 0
-7152.5078 1342.4016 7871.7329 256
-6627.4126 1252.04 7341.8599 256
-7261.8062 1380.981 8097.959 256
-6967.7983 1333.91 7821.9395 256
-8712.1719 1679.0542 9845.8359 256
-6837.3652 1326.6425 7779.3228 256
-6756.8892 1319.9536 7740.1001 256
-6783.5688 1334.2493 7823.9287 0
-6694.0532 1325.7301 7773.9731 256
-6854.3638 1366.9137 8015.4702 256
-6905.3809 1386.7257 8131.6455 256
-8528.6152 1724.7717 10113.92 256
-8381.6953 1707.0913 10010.244 256
-6731.2036 1380.738 8096.5347 256
-6683.2505 1380.7727 8096.7378 256
-6623.2935 1378.3096 8082.2949 256
-6575.3296 1378.325 8082.3843 256
-6524.1479 1377.6606 8078.4893 256
-6494.769 1381.6248 8101.7344 0
-6431.2905 1378.3398 8082.4717 0
-6394.3198 1380.7294 8096.4839 0
-6349.4775 1381.4426 8100.666 0
-6445.0605 1412.9521 8285.4355 0
-6381.897 1409.8768 8267.4023 0
-6450.2207 1436.0272 8420.7461 0
-6409.7422 1438.1741 8433.335 0
-7219.2734 1632.5774 9573.3008 0
-7185.7656 1637.9088 9604.5635 0
-7129.1011 1638.005 9605.127 0
-7108.1924 1646.3845 9654.2637 0
-7054.375 1647.2161 9659.1406 0
-5752.4741 1354.2393 7941.1479 0
-5707.8022 1354.8386 7944.6626 0
-6910.5591 1654.015 9699.0088 0
-6851.4048 1653.6506 9696.8721 0
-6801.4927 1655.5297 9707.8906 0
-6745.1685 1655.8668 9709.8672 0
-6699.3237 1658.8044 9727.0938 0
-6650.1841 1660.9705 9739.7949 0
-6605.0234 1664.177 9758.5977 0
-6544.8228 1663.6171 9755.3145 0
-6501.9756 1667.4979 9778.0713 0
-6456.7241 1670.8268 9797.5908 0
-6393.4658 1669.5137 9789.8916 0
-6352.4209 1674.0305 9816.3779 0
-6329.1743 1683.3647 9871.1133 0
-6287.4839 1687.9224 9897.8389 0
-6253.1802 1694.568 9936.8076 0
-5388.4766 1474.1619 8644.3643 0
-6204.7559 1713.8174 10049.685 0
-6153.5664 1716.1987 10063.649 0
-6093.6924 1716.1813 10063.547 0
-5256.5425 1495.0874 8767.0703 0
-5211.5957 1497.144 8779.1299 0
-5162.2778 1497.9739 8783.9961 0
-5082.1094 1489.7769 8735.9297 0
-5044.6035 1494.046 8760.9639 0
-4977.5771 1489.5702 8734.7178 0
-4933.1782 1491.8427 8748.043 0
-4890.4985 1494.689 8764.7334 0
-4842.3086 1495.8943 8771.8018 0
-4804.3022 1500.306 8797.6719 0
-4755.2163 1501.317 8803.5996 0
-4708.0049 1502.9487 8813.168 0
-4666.8242 1506.5638 8834.3672 0
-4629.0137 1511.3618 8862.502 0
-4575.3384 1511.0309 8860.5615 0
-4537.5854 1516.0118 8889.7695 0
-4494.0229 1519.1461 8908.1484 0
-4442.3516 1519.5817 8910.7021 0
-4460.6421 1544.2478 9055.3428 0
-4419.0063 1548.5173 9080.3789 0
-4380.0249 1553.8337 9111.5537 0
-4336.0894 1557.5037 9133.0742 0
-4289.1689 1560.1814 9148.7754 0
-4248.2104 1565.1238 9177.7578 0
-4207.605 1570.327 9208.2686 0
-4161.5361 1573.6011 9227.4678 0
-4117.0679 1577.5762 9250.7773 0
-4077.1855 1583.4397 9285.1611 0
-4032.6238 1587.6219 9309.6855 0
-3986.0161 1591.104 9330.1035 0
-3947.7488 1598.0605 9370.8955 0
-3905.7056 1603.6656 9403.7637 0
-3859.9324 1607.8799 9428.4756 0
-3813.5071 1611.9423 9452.2979 0
-3768.6082 1616.7815 9480.6738 0
-3719.323 1619.8568 9498.708 0
-3673.7944 1624.6886 9527.041 0
-3629.7078 1630.3191 9560.0576 0
-3582.7354 1634.8121 9586.4043 0
-3539.2769 1641.0793 9623.1553 0
-3493.4458 1646.4344 9654.5576 0
-3445.7207 1651.0612 9681.6875 0
-3399.7947 1656.7213 9714.8779 0
-3354.9514 1663.1139 9752.3643 0
-3307.1423 1668.2352 9782.3955 0
-3258.6108 1673.1689 9811.3262 256
-3213.3418 1679.988 9851.3125 256
-3164.0745 1684.9313 9880.2988 256
-3111.5874 1688.3141 9900.1357 256
-3063.2905 1694.1449 9934.3271 256
-3016.605 1701.1136 9975.1914 256
-2968.175 1707.3584 10011.81 256
-2919.0049 1713.424 10047.378 0
-2871.1985 1720.5601 10089.224 0
-2822.5554 1727.4888 10129.853 0
-2772.8237 1734.0385 10168.26 0
-2724.0032 1741.4626 10211.795 0
-2673.7407 1748.2825 10251.785 0
-2623.1917 1755.2284 10292.516 0
-2571.5859 1761.7823 10330.947 0
-2517.7556 1767.0953 10362.103 0
-2463.5706 1772.4194 10393.323 0
-2410.6973 1778.9857 10431.827 0
-2354.3633 1783.2772 10456.992 0
-2301.698 1790.6558 10500.259 0
-2244.5737 1794.88 10525.029 0
-2190.9204 1802.2012 10567.961 0
-2134.4597 1807.5775 10599.486 0
-2078.3184 1813.5591 10634.562 0
-2024.8827 1822.3514 10686.119 0
-1970.1195 1830.4795 10733.781 0
-1912.0039 1835.9325 10765.758 0
-1856.8969 1844.7521 10817.475 0
-1799.9794 1852.3409 10861.976 0
-1742.5392 1859.9365 10906.516 0
-1685.7708 1868.864 10958.865 0
-1631.7513 1881.6788 11034.011 0
-1575.3174 1892.6661 11098.439 0
-1524.569 1911.7432 11210.306 0
-1474.1476 1932.9927 11334.911 0
-1421.2474 1952.8713 11451.478 0
-1362.7981 1966.7412 11532.81 0
-1304.4403 1982.2192 11623.571 0
-1244.8523 1997.4546 11712.91 0
-1185.8385 2015.4706 11818.554 0
-1125.2775 2032.96 11921.11 0
-1062.6189 2048.7556 12013.735 0
-1000.5127 2067.9688 12126.399 0
-935.70026 2084.137 12221.209 0
-867.89172 2095.7917 12289.551 0
-798.39917 2105.1479 12344.415 0
-727.92542 2113.5488 12393.678 0
-661.10767 2135.6519 12523.288 256
-632.4314 2302.2078 13499.958 0
-523.01526 2180.5459 12786.542 2
-455.36438 2221.2471 13025.212 5
-383.34454 2252.9453 13211.086 4
-306.17233 2262.8921 13269.414 4
-230.71672 2296.8303 13468.425 4
-155.88882 2376.3984 13935.007 65540
-72.102539 2344.9905 13750.833 131075
10.472892 2551.9915 14964.669 196610
93.650291 2404.0574 14097.195 196609
180.91107 2451.1575 14373.387 65537
267.80847 2464.699 14452.793 65537
361.11722 2516.3391 14755.606 65536
446.43906 2503.0186 14677.496 0
525.78613 2466.0305 14460.601 65536
612.73395 2470.0754 14484.32 65536
700.19141 2474.9255 14512.762 0
788.50458 2481.4048 14550.755 0
887.11761 2515.813 14752.521 0
986.53491 2546.1069 14930.162 256
1078.7175 2554.2705 14978.032 256
1174.8123 2569.7458 15068.78 256
1263.3894 2567.7505 15057.079 256
1376.1674 2611.9519 15316.272 0
1530.2025 2724.1162 15973.994 0
1645.6854 2758.5525 16175.926 0
1738.4226 2753.1648 16144.333 0
1844.344 2768.1284 16232.079 0
1971.0238 2811.2119 16484.717 0
2031.468 2760.2185 16185.695 0
2097.9856 2721.7153 15959.916 0
2206.9575 2739.2366 16062.659 0
2312.5359 2751.2676 16133.208 0
2412.9553 2756.4473 16163.581 0
2516.355 2764.5044 16210.827 256
2605.4341 2756.8147 16165.735 256
2721.7869 2777.5042 16287.057 256
2849.2966 2807.7666 16464.514 256
3009.8684 2867.5176 16814.889 256
3096.1472 2854.9241 16741.041 256
3219.3618 2876.1121 16865.285 256
3268.1519 2831.5388 16603.912 0
3379.7485 2842.3997 16667.6 65536
3551.1516 2901.5073 17014.201 65537
3680.1455 2923.6504 17144.047 65537
3971.6848 3070.2539 18003.717 3
4049.8635 3048.5566 17876.486 3
4144.479 3040.0256 17826.461 3
4208.519 3010.051 17650.693 2
4333.9043 3024.3433 17734.502 2
4417.332 3009.373 17646.717 196609
4485.1357 2984.6997 17502.035 262144
4569.1475 2971.6863 17425.725 393216
4609.4204 2931.4333 17189.686 458752
4637.3379 2885.239 16918.805 458752
4650.2349 2831.8579 16605.783 458752
4667.6201 2783.3726 16321.469 458752
4679.3486 2733.5569 16029.354 458752
4681.4136 2680.196 15716.451 393216
4692.7378 2634.1208 15446.27 458752
5069.1187 2790.7952 16364.994 327680
5005.0889 2703.6675 15854.085 196608
5061.4507 2683.5916 15736.361 196608
5105.4224 2657.7942 15585.088 196608
5172.6846 2644.8247 15509.035 131072
5512.1489 2769.0513 16237.49 65536
5299.6387 2616.4873 15342.867 131329
5020.4927 2436.7422 14288.857 263171
4828.8262 2304.7297 13514.747 986893
5027.998 2360.5266 13841.935 1118479
4961.9863 2292.0339 13440.299 1315088
4566.4971 2075.9304 12173.087 262657
4651.083 2081.4067 12205.199 196608
4620.6426 2036.0299 11939.112 328193
4409.376 1913.5519 11220.911 1644307
4495.2759 1921.764 11269.067 1447184
4709.6162 1983.8387 11633.068 1644563
4735.8291 1966.0184 11528.571 986889
4870.5044 1993.0911 11687.322 1579283
6142.5649 2478.2944 14532.516 1579284
6467.9126 2573.3752 15090.062 1448216
6728.1719 2640.313 15482.579 1579802
6992.792 2707.1326 15874.404 1316117
6975.2305 2664.386 15623.742 1184789
6236.3525 2350.8552 13785.223 1
6081.8506 2262.8853 13269.374 65536
6151.938 2259.6614 13250.47 196608
6333.9141 2297.0974 13469.991 393216
6319.3564 2263.2122 13271.291 589824
6151.8354 2176.0554 12760.211 1706496
6355.0225 2220.5532 13021.143 1441792
6463.0391 2231.1265 13083.143 1376256
6518.2256 2223.427 13037.994 1376256
6583.2476 2219.2244 13013.35 983040
6591.748 2196.2869 12878.847 720896
6651.8569 2190.874 12847.106 327680
6826.4634 2222.8672 13034.712 1512463
6828.5439 2198.594 12892.375 986891
6867.9297 2186.7375 12822.85 131328
6829.1523 2150.5276 12610.517 327680
6849.0898 2133.3923 12510.037 393216
6919.106 2132.0564 12502.204 393216
6885.1245 2099.0432 12308.618 458752
6908.7178 2084.093 12220.95 393216
6938.249 2071.2258 12145.498 393216
6963.7095 2057.4211 12064.549 327680
7079.1841 2070.2214 12139.608 327680
7125.7959 2062.8281 12096.256 393216
7095.8247 2033.6349 11925.068 458752
7082.9917 2009.8816 11785.781 393216
7157.0215 2011.0007 11792.344 65536
7242.2793 2015.2224 11817.1 1053461
7781.3081 2144.4158 12574.679 331023
0 0 0 0
0 0 0 0
9780.0488 2619.7554 15362.031 7965584
8972.4746 2381.2029 13963.179 3682615
7469.9814 1964.2885 11518.427 196612
7368.4092 1919.9839 11258.628 726292
7012.749 1810.8647 10618.763 8360851
7800.7954 1996.3915 11706.676 9343385
8650.3799 2194.2476 12866.888 65540
9361.8086 2353.8984 13803.067 5
9102.9805 2268.937 13304.861 3
9146.6602 2260.1907 13253.573 8690076
8005.5518 1961.3256 11501.053 196608
8392.3623 2038.6852 11954.684 196608
8848.1592 2131.364 12498.144 65536
8950.9922 2138.1846 12538.139 65536
9066.1299 2147.8071 12594.565 131328
8967.9229 2107.144 12356.12 131584
9100.7617 2120.988 12437.301 65536
8757.4434 2024.5319 11871.689 196608
8738.4756 2004.0009 11751.297 262144
8711.2686 1981.9209 11621.822 196608
8626.333 1947.1581 11417.976 196608
8724.1211 1953.8604 11457.277 262144
8920.6914 1982.411 11624.696 196608
8987.9307 1982.0031 11622.304 0
9054.5742 1981.4709 11619.183 65536
9070.4072 1969.912 11551.402 65536
8683.1982 1871.6512 10975.21 65536
8684.6514 1858.0066 10895.199 65536
8610.2422 1828.4545 10721.907 65536
8595.2295 1811.8567 10624.58 65536
8744.3076 1829.8391 10730.026 65536
8649.2041 1796.8335 10536.484 65536
8844.832 1824.2662 10697.348 65536
8523.1211 1745.3665 10234.687 65536
8399.3311 1707.8284 10014.565 65536
8313.8164 1678.5463 9842.8574 65536
8196.7959 1643.3564 9636.5078 65536
8118.1128 1616.2882 9477.7812 0
7978.3091 1577.5077 9250.376 65536
8227.7246 1615.6896 9474.2715 65536
7950.124 1550.5651 9092.3867 65536
0 0 0 0
0 0 0 0
0 0 0 0
0 0 0 0
0 0 0 0
0 0 0 0
4877.75 908.13 5325.2002 262144
5041.1621 932.50317 5468.1226 262144
5104.5728 938.18451 5501.437 262144
5166.7705 943.57202 5533.0293 262144
5220.2964 947.31781 5554.9941 327680
5272.2676 950.73608 5575.0386 262144
5329.7422 955.09784 5600.6157 327680
5394.874 960.76917 5633.8721 327680
5461.6421 966.66016 5668.416 393216
5516.272 970.34375 5690.0161 393216
0 0 0 0
0 0 0 0
0 0 0 0
-7242.2666 1406.6194 7970.5176 256
-6602.9106 1290.8849 7314.7158 256
-7212.0498 1419.318 8042.4736 256
-8309.3496 1646.1748 9327.9434 256
-7166.8389 1429.3673 8099.4175 256
-6795.272 1364.4259 7731.4312 256
-6727.6689 1360.0486 7706.6274 256
-6752.4897 1374.4236 7788.0825 0
-8836.5635 1811.0371 10262.125 256
-8354.1445 1724.0659 9769.3086 256
-6863.9751 1426.4498 8082.8862 256
-8393.0371 1756.5082 9953.1406 256
-7724.0942 1627.9851 9224.8721 256
-6572.8618 1395.2467 7906.0752 256
-6686.7104 1429.6339 8100.9287 256
-6676.8438 1437.8777 8147.6416 256
-6544.1924 1419.6067 8044.1104 256
-6495.9536 1419.5128 8043.5776 256
-6457.9688 1421.6748 8055.8281 0
-6393.7383 1418.0481 8035.2783 0
-6361.0913 1421.4244 8054.4102 0
-6313.3813 1421.4604 8054.6138 0
-5990.2607 1359.0145 7700.7681 0
-5938.6597 1357.681 7693.2119 0
-6352.7031 1463.6073 8293.4365 0
-6330.2603 1469.8413 8328.7607 0
-6269.8374 1467.2852 8314.2764 0
-6161.5024 1453.387 8235.5234 0
-7090.7661 1685.9767 9553.4785 256
-6236.8442 1494.9097 8470.8096 256
-5862.9644 1416.7305 8027.812 256
-5779.6724 1408.0623 7978.6943 256
-5970.3735 1466.5542 8310.1348 0
-6868.5981 1701.2665 9640.1172 0
-6814.0918 1701.9628 9644.0625 0
-6764.9268 1704.0166 9655.7002 0
-6711.1753 1704.9402 9660.9336 0
-6663.6724 1707.4808 9675.3301 0
-6616.7476 1710.2151 9690.8242 0
-6572.4102 1713.6721 9710.4131 0
-6525.7651 1716.5835 9726.9092 0
-6481.4756 1720.1718 9747.2422 0
-6433.6865 1722.8878 9762.6328 0
-6386.5742 1725.8361 9779.3389 0
-6335.7637 1727.8301 9790.6377 0
-6294.4448 1732.4735 9816.9492 0
-6259.5552 1738.9896 9853.873 0
-5425.042 1521.3849 8620.8291 0
-6200.061 1755.3069 9946.334 0
-6165.4849 1762.321 9986.0781 0
-5307.1963 1531.7357 8679.4814 0
-5265.0625 1534.4902 8695.0898 0
-5222.2275 1537.0931 8709.8389 0
-5182.042 1540.5356 8729.3457 0
-5136.5659 1542.4591 8740.2451 0
-5084.6367 1542.4642 8740.2744 0
-4959.3242 1519.9783 8612.8594 0
-4919.2681 1523.426 8632.3955 0
-4862.9907 1521.8701 8623.5791 0
-4815.5063 1523.0621 8630.333 0
-4767.6123 1524.1487 8636.4902 0
-4732.3555 1529.3429 8665.9229 0
-4687.521 1531.5222 8678.2715 0
-4648.7261 1535.7452 8702.2012 0
-4634.9766 1548.4302 8774.0801 0
-4626.6929 1563.2507 8858.0596 0
-4614.0542 1576.924 8935.5381 0
-4495.5791 1554.3232 8807.4727 0
-4473.7236 1564.9894 8867.9111 0
-4416.9902 1563.5632 8859.8311 0
-4443.9189 1592.0758 9021.3945 0
-4402.5088 1596.5022 9046.4775 0
-4357.7773 1599.8192 9065.2725 0
-4314.3486 1603.7035 9087.2822 0
-4271.543 1607.9207 9111.1787 0
-4228.7324 1612.2443 9135.6787 0
-4181.6099 1615.0148 9151.3779 0
-4137.9697 1619.2214 9175.2139 0
-4092.5422 1622.8314 9195.6699 0
-4051.5801 1628.3339 9226.8486 0
-4009.3376 1633.4656 9255.9277 0
-3963.5762 1637.2864 9277.5781 0
-3926.9956 1645.061 9321.6328 0
-3884.6287 1650.5997 9353.0166 0
-3839.0933 1654.9331 9377.5723 0
-3791.9719 1658.7007 9398.9199 0
-3745.5813 1662.9052 9422.7451 0
-3696.1787 1665.8799 9439.6006 0
-3651.8896 1671.2864 9470.2363 0
-3608.322 1677.1974 9503.7314 0
-3560.9146 1681.4835 9528.0176 0
-3517.981 1688.0547 9565.2529 0
-3471.1765 1692.9539 9593.0137 0
-3425.4338 1698.5432 9624.6855 0
-3382.072 1705.5231 9664.2363 0
-3336.8884 1711.8094 9699.8574 0
-3288.0327 1716.3999 9725.8691 0
-3244.2053 1723.8265 9767.9521 256
-3194.4233 1728.3022 9793.3135 256
-3146.6052 1734.0262 9825.748 256
-3093.0364 1736.7377 9841.1123 256
-3043.4087 1741.8092 9869.8496 256
-2996.0286 1748.3918 9907.1494 256
-2947.7578 1754.7081 9942.9404 256
-2899.1362 1761.0697 9978.9883 0
-2852.127 1768.6969 10022.207 0
-2803.9429 1775.9054 10063.054 0
-2753.5432 1781.9943 10097.556 0
-2705.3511 1789.8149 10141.871 0
-2656.3259 1797.4283 10185.012 0
-2606.1013 1804.5663 10225.459 0
-2556.4348 1812.4409 10270.079 0
-2502.593 1817.6681 10299.699 0
-2451.5137 1825.214 10342.458 0
-2396.0737 1829.8182 10368.547 0
-2341.0786 1835.0139 10397.988 0
-2286.8984 1841.1476 10432.744 0
-2233.2107 1848.0308 10471.747 0
-2176.4612 1852.702 10498.217 0
-2120.4165 1858.2668 10529.749 0
-2066.2219 1865.8407 10572.666 0
-2013.2753 1875.052 10624.861 0
-1958.5431 1883.1433 10670.71 0
-1901.0199 1889.0023 10703.91 0
-1842.7631 1894.5131 10735.137 0
-1789.499 1905.7361 10798.731 0
-1734.1488 1915.4901 10854.001 0
-1677.1965 1924.1595 10903.126 0
-1624.0376 1938.0527 10981.851 0
-1570.1578 1952.2131 11062.09 0
-1519.7666 1972.1379 11174.993 0
-1467.4342 1991.2501 11283.29 0
-1415.6744 2013.0071 11406.574 0
-1357.6177 2027.5477 11488.969 0
-1300.0308 2044.3678 11584.278 0
-1243.1525 2064.2456 11696.915 0
-1184.8284 2083.9355 11808.486 0
-1127.0778 2107.177 11940.183 0
-1063.1895 2121.2959 12020.187 0
-1000.1391 2139.241 12121.872 0
-935.11755 2155.4287 12213.598 0
-867.27759 2167.2979 12280.854 0
-800.11029 2183.1838 12370.871 0
-731.56146 2198.134 12455.585 0
-665.10443 2223.4431 12598.998 0
-598.28583 2253.8123 12771.082 0
-529.36194 2283.9233 12941.704 1
-454.21664 2292.8667 12992.382 1
-379.63174 2308.8826 13083.134 65537
-304.60034 2329.7332 13201.283 65537
-227.74579 2346.2708 13294.992 131073
-150.26221 2370.4568 13432.041 131073
-71.001389 2389.6558 13540.83 196609
9.6552687 2434.7532 13796.371 196609
90.814613 2412.5112 13670.34 196609
172.49847 2418.6292 13705.006 196609
254.62875 2425.0737 13741.524 196608
341.00754 2459.0249 13933.905 131072
430.39722 2497.177 14150.093 131072
516.25702 2505.7241 14198.523 65536
602.80054 2514.7214 14249.507 65536
676.44446 2474.3176 14020.562 0
767.19855 2498.4985 14157.581 0
865.20123 2539.1724 14388.057 0
781.23077 2086.5149 11823.102 0
1052.2344 2578.3955 14610.312 0
1157.3964 2619.8826 14845.396 0
995.12616 2093.012 11859.918 0
1345.0249 2641.8137 14969.668 0
1488.0447 2741.3884 15533.901 0
1596.6112 2769.5649 15693.562 0
1716.2974 2812.855 15938.861 0
1815.8416 2820.332 15981.229 0
2031.0477 2997.7803 16986.729 0
2029.6844 2853.908 16171.485 0
2084.2539 2798.1357 15855.456 0
2185.9114 2807.6699 15909.48 0
2284.3213 2812.4153 15936.37 0
2377.6973 2810.832 15927.398 0
2491.5491 2832.6489 16051.022 0
2589.21 2835.1282 16065.071 0
2694.3767 2845.3574 16123.034 0
2811.9509 2867.5366 16248.712 0
2992 2949.8379 16715.066 256
3058.6248 2918.6167 16538.154 0
3144.2375 2906.8948 16471.732 0
3154.9854 2828.7568 16028.968 65536
3303.8516 2875.4062 16293.305 65536
3512.1194 2969.6255 16827.191 65538
3600.9114 2960.4031 16774.934 196610
3746.0947 2996.7893 16981.113 196610
3825.2063 2979.7971 16884.828 196610
3982.7334 3023.1973 17130.752 196608
4115.5181 3046.1199 17260.643 262144
4222.8506 3049.5479 17280.066 196608
4322.6934 3047.5327 17268.648 196608
4425.0615 3047.3499 17267.611 262144
4620.4653 3109.7927 17621.439 393216
4596.3677 3025.0071 17141.008 458752
4579.5654 2948.5959 16708.029 458752
4502.5869 2837.5054 16078.541 458752
4476.1343 2762.2114 15651.893 458752
4475.8838 2705.8232 15332.373 458752
4452.7671 2638.1382 14948.839 393216
4498.6699 2613.1929 14807.489 393216
4635.6514 2641.0962 14965.602 262144
4750.1655 2655.3889 15046.591 196608
4644.1587 2548.1582 14438.975 196608
4661.2368 2511.1274 14229.143 196608
4655.3374 2463.2585 13957.896 196608
4721.9482 2454.761 13909.745 262144
4717.8848 2410.4475 13658.645 262144
4765.0483 2393.3625 13561.835 262144
4777.9707 2359.9338 13372.413 196608
4696.5913 2281.7839 12929.581 262144
4580.918 2189.7568 12408.116 262144
4688.1592 2205.5146 12497.406 393216
4758.7495 2203.8076 12487.733 458752
4745.8945 2164.1025 12262.747 393216
4262.4565 1914.2604 10847.033 393216
4398.6074 1945.9735 11026.733 393473
4340.8101 1892.2109 10722.092 1314822
4548.6514 1954.1243 11072.919 1578509
5220.7275 2210.8645 12527.722 395012
5437.6177 2270.334 12864.701 526343
5659.5786 2330.2422 13204.167 526600
6280.0034 2550.3286 14451.273 592392
6786.8994 2718.9941 15407.005 2500134
6689.8853 2644.4492 14984.601 723979
6093.562 2377.0833 13469.589 0
5957.9785 2294.0542 12999.11 131072
6043.6221 2297.2417 13017.172 196608
6187.27 2322.1177 13158.13 393216
6359.1909 2356.8513 13354.947 655360
6216.3647 2275.5149 12894.059 917504
6286.0518 2273.0029 12879.824 1179648
6358.1909 2271.4277 12870.898 1179648
6443.6392 2274.5876 12888.804 917504
6532.811 2278.9724 12913.65 720896
6583.9521 2270.1423 12863.615 458752
6628.998 2259.4375 12802.957 327680
6834.6235 2303.0869 13050.293 196608
6931.5264 2309.531 13086.808 131072
7008.2231 2309.1741 13084.786 131072
6787.3413 2211.8508 12533.31 262144
6825.8564 2200.2544 12467.601 262144
6903.7651 2201.4692 12474.483 393216
6893.8462 2174.9492 12324.21 393216
6917.7295 2159.5396 12236.891 327680
6941.8452 2144.5217 12151.794 196608
6992.2896 2137.863 12114.063 196608
7421.3179 2245.9111 12726.311 591108
7408.3667 2219.3723 12575.93 1182731
7433.5718 2204.6799 12492.677 262144
6957.4102 2043.0514 11576.819 131072
7102.7446 2065.3044 11702.914 526856
7454.5991 2146.5945 12163.539 659473
7897.6919 2252.343 12762.757 725522
0 0 0 0
9830.7197 2750.7834 15587.137 7441041
9451.7256 2620.0452 14846.317 7111818
8392.4121 2304.8833 13060.472 3286831
7368.856 2005.2281 11362.496 458757
7270.6133 1960.5271 11109.2 857365
7345.041 1962.7722 11121.922 8098962
8070.0845 2137.2871 12110.799 6972780
0 0 0 0
9161.5527 2383.8284 13507.81 4
9062.458 2337.5603 13245.635 199692
8969.1074 2293.5579 12996.298 6911082
8180.2007 2073.96 11751.96 262144
8261.4619 2076.8293 11768.221 196608
8997.2627 2242.8127 12708.754 526083
9197.5127 2273.6433 12883.453 592646
8972.4131 2199.6853 12464.375 263682
9042.085 2198.6135 12458.302 329220
9227.209 2225.4033 12610.105 132354
9013.5713 2156.3643 12218.898 526342
9474.0391 2248.4089 12740.465 525829
8919.3818 2099.9922 11899.47 131072
8773.7021 2049.4429 11613.036 196608
8864.2939 2054.4424 11641.365 131072
9009.4404 2071.9104 11740.347 196608
9228.5283 2105.9839 11933.422 196608
9202.4209 2084.0093 11808.905 65536
8908.501 2002.1775 11345.21 65536
8741.1641 1949.8105 11048.476 65536
8739.2598 1934.851 10963.708 65536
8710.5332 1914.2183 10846.794 65536
8752.9062 1909.3987 10819.485 65536
8873.6895 1921.6295 10888.79 65536
8792.7705 1890.3201 10711.377 65536
8845.3721 1887.9595 10698 65536
8396.6533 1779.3944 10082.823 65536
8051.4614 1694.1512 9599.7988 0
8110.7402 1694.6158 9602.4316 0
8012.4434 1662.3809 9419.7744 0
8060.8853 1660.8269 9410.9688 0
7969.0225 1630.5857 9239.6084 0
8366.499 1700.1993 9634.0703 0
0 0 0 0
0 0 0 0
0 0 0 0
0 0 0 0
0 0 0 0
0 0 0 0
0 0 0 0
4892.2085 942.56519 5340.9849 196608
4983.6211 953.98737 5405.708 196608
5057.5664 961.94104 5450.7769 196608
5120.4995 967.71216 5483.4785 196608
5176.2153 972.05493 5508.0869 327680
5238.3545 977.54187 5539.1782 196608
5291.9028 981.36707 5560.853 262144
5361.6606 988.13214 5599.1875 262144
5423.5996 993.38165 5628.9331 262144
5480.709 997.68768 5653.333 262144
0 0 0 0
0 0 0 0
0 0 0 0
-7241.6372 1453.8645 7969.8247 256
-6591.8477 1332.1232 7302.4604 256
-7157.7246 1456.0659 7981.8931 256
-6839.6675 1400.6479 7678.1016 256
-6815.022 1404.9749 7701.8208 256
-6759.9395 1403.043 7691.231 256
-6695.2231 1399.0717 7669.4604 256
-6713.5684 1412.5219 7743.1924 0
-6552.791 1388.2106 7609.9219 256
-6665.2495 1421.8486 7794.3203 256
-6827.168 1466.5825 8039.5435 256
-6771.3101 1464.8354 8029.9663 256
-6712.7241 1462.4694 8016.9951 256
-6621.2085 1452.8436 7964.2285 256
-6609.6265 1460.7449 8007.5425 256
-6568.2886 1462.137 8015.1733 256
-6521.0981 1462.2371 8015.7222 256
-6459.9531 1459.1866 7999 256
-6422.4551 1461.4719 8011.5278 0
-6376.0278 1461.7443 8013.021 0
-6334.8687 1463.2375 8021.2065 0
-6291.2988 1464.1925 8026.4414 0
-5966.1479 1399.1282 7669.77 0
-6023.4268 1423.4363 7803.0229 0
-7283.3374 1734.5288 9508.377 0
-7320.2144 1756.9434 9631.249 0
-7162.9868 1732.7563 9498.6602 0
-7114.9448 1734.8074 9509.9033 0
-7078.0698 1739.6359 9536.3721 0
-5965.7314 1478.083 8102.5864 0
-5932.6187 1481.8406 8123.1851 0
-5979.1738 1505.7225 8254.1016 0
-6884.5254 1748.0574 9582.5381 0
-6828.1494 1748.205 9583.3467 0
-6784.4731 1751.6339 9602.1436 0
-6733.3447 1753.1805 9610.6221 0
-6686.9858 1756.0062 9626.1123 0
-6643.3687 1759.6068 9645.8496 0
-6585.3687 1759.4275 9644.8672 0
-6543.8804 1763.6952 9668.2617 0
-6503.4673 1768.3308 9693.6729 0
-6438.127 1766.2107 9682.0518 0
-6377.478 1765.3513 9677.3398 0
-6347.3633 1773.0052 9719.2979 0
-6313.1963 1779.6573 9755.7637 0
-6274.167 1785.0497 9785.3232 0
-6232.1333 1789.6799 9810.7051 0
-5402.6099 1566.1188 8585.1826 0
-6143.1572 1797.7688 9855.0469 0
-6111.2988 1805.6617 9898.3145 0
-5285.3804 1576.8125 8643.8037 0
-5241.9409 1579.2025 8656.9053 0
-5200.0049 1582.0973 8672.7744 0
-5159.5371 1585.5015 8691.4355 0
-5118.3657 1588.756 8709.2764 0
-5071.1079 1590.1685 8717.0195 0
-4980.5654 1577.897 8649.749 0
-4938.1367 1580.7715 8665.5068 0
-4869.4243 1575.2041 8634.9873 0
-4834.9668 1580.7174 8665.21 0
-4790.8013 1583.1412 8678.4971 0
-4790.6172 1600.3099 8772.6123 0
-4710.2915 1590.7903 8720.4277 0
-4710.2241 1608.4658 8817.3223 0
-4646.4912 1604.554 8795.8779 0
-4633.5 1618.2745 8871.0918 0
-4569.3472 1614.2372 8848.959 0
-4558.7671 1629.2517 8931.2666 0
-4515.439 1632.7787 8950.6006 0
-4473.7769 1636.999 8973.7363 0
-4431.5967 1641.1298 8996.3789 0
-4385.3872 1643.8508 9011.2959 0
-4340.9473 1647.3105 9030.2617 0
-4298.9902 1651.8112 9054.9336 0
-4255.9043 1655.9866 9077.8223 0
-4214.0322 1660.7474 9103.9199 0
-4168.5923 1664.2079 9122.8896 0
-4122.001 1667.2936 9139.8057 0
-4074.6685 1670.1583 9155.5088 0
-4034.9209 1676.2513 9188.9102 0
-3992.9741 1681.5857 9218.1514 0
-3947.9497 1685.7538 9241.001 0
-3909.6936 1692.9707 9280.5625 0
-3867.1743 1698.5219 9310.9922 0
-3823.1865 1703.5793 9338.7178 0
-3772.988 1705.9781 9351.8662 0
-3726.2886 1710.054 9374.21 0
-3679.53 1714.2263 9397.082 0
-3634.9504 1719.5581 9426.3096 0
-3589.8892 1724.8252 9455.1826 0
-3544.0735 1729.8914 9482.9551 0
-3500.7576 1736.3616 9518.4238 0
-3455.1172 1741.8722 9548.6318 0
-3409.2251 1747.4381 9579.1436 0
-3366.9917 1755.1 9621.1445 0
-3320.4822 1760.7592 9652.167 0
-3273.6404 1766.4381 9683.2979 0
-3227.6294 1772.7766 9718.0439 256
-3179.271 1778.0332 9746.8594 256
-3130.4258 1783.2078 9775.2256 256
-3078.4768 1786.7764 9794.7881 0
-3031.499 1793.4235 9831.2266 0
-2982.0269 1798.8273 9860.8496 256
-2931.7581 1803.9576 9888.9727 256
-2882.9871 1810.2383 9923.4023 0
-2838.0374 1819.2307 9972.6973 0
-2789.3071 1826.132 10010.528 0
-2739.7083 1832.7526 10046.822 0
-2691.4619 1840.5934 10089.804 0
-2642.668 1848.4084 10132.645 0
-2591.7561 1855.0719 10169.173 0
-2543.1587 1863.75 10216.744 0
-2490.6414 1869.9098 10250.511 0
-2440.0803 1877.8838 10294.223 0
-2385.1487 1882.8179 10321.271 0
-2330.4358 1888.1897 10350.718 0
-2276.8828 1894.818 10387.054 0
-2223.0898 1901.6105 10424.289 0
-2165.8477 1905.7577 10447.022 0
-2109.1824 1910.6719 10473.962 0
-2056.8914 1919.9684 10524.923 0
-2003.1719 1928.4727 10571.542 0
-1949.6998 1937.7736 10622.528 0
-1892.1824 1943.542 10654.149 0
-1836.3695 1951.5212 10697.891 0
-1782.4617 1962.1699 10756.265 0
-1727.917 1972.8839 10814.996 0
-1670.3483 1980.8392 10858.606 0
-1616.2659 1993.7347 10929.298 0
-1565.0557 2011.4016 11026.144 0
-1515.2767 2032.5323 11141.979 0
-1460.1622 2048.1106 11227.376 0
-1408.3937 2070.0986 11347.91 0
-1350.0703 2084.1792 11425.099 0
-1293.5115 2102.6201 11526.188 0
-1235.8694 2121.2637 11628.388 0
-1179.0553 2143.6216 11750.95 0
-1117.9205 2160.4448 11843.172 0
-1056.6655 2179.2808 11946.428 0
-994.17151 2198.0913 12049.543 0
-930.81354 2217.7634 12157.383 0
-864.28589 2232.5591 12238.49 0
-797.52399 2249.4138 12330.884 0
-729.7713 2266.6018 12425.105 0
-663.36053 2292.2974 12565.964 0
-593.22638 2310.0139 12663.082 0
-558.65253 2491.47 13657.793 65536
-450.35089 2349.9136 12881.806 65536
-423.55252 2662.7576 14596.761 65536
-301.36371 2382.6042 13061.01 131072
-239.70752 2552.6692 13993.276 131072
-147.75554 2409.4124 13207.968 196608
-69.511009 2418.2834 13256.597 196608
9.3436451 2435.5215 13351.093 196608
88.449402 2428.8103 13314.304 196608
168.07413 2435.959 13353.491 262144
249.19414 2453.2424 13448.236 196608
334.07498 2490.1641 13650.634 196608
427.90021 2566.3003 14067.999 196608
518.81238 2602.9312 14268.803 131072
594.97339 2565.6587 14064.482 65536
661.19061 2499.9719 13704.398 65536
748.74591 2520.5242 13817.063 65536
709.00671 2150.8518 11790.585 0
757.04913 2090.0239 11457.138 0
1015.0396 2571.0183 14093.861 65536
1145.6101 2680.5359 14694.218 65536
1215.7659 2643.1914 14489.502 65536
1335.0348 2710.501 14858.481 65536
1461.1832 2782.5593 15253.492 0
1570.0183 2815.1545 15432.173 0
1660.3348 2812.7788 15419.15 0
1785.1349 2866.0149 15710.98 0
2009.7699 3066.2751 16808.771 0
1986.5708 2887.3577 15827.979 0
2038.7061 2829.1621 15508.961 0
1658.4351 2201.8972 12070.407 0
1869.9739 2379.8135 13045.712 0
2294.6462 2804.0076 15371.067 0
2410.1619 2832.4004 15526.712 0
2509.9001 2840.8413 15572.983 0
2596.667 2834.5225 15538.345 0
2587.6614 2727.6824 14952.667 657930
2845.7522 2900.1384 15898.04 460551
2980.7185 2940.0652 16116.911 0
3068.9023 2932.7979 16077.073 65536
3101.4827 2874.4365 15757.146 196608
3221.2617 2897.9429 15886.004 196608
3417.0884 2986.5771 16371.881 196608
3560.7285 3025.9543 16587.74 196608
3606.3284 2982.1384 16347.55 196608
3711.6587 2988.7183 16383.618 196608
3800.7756 2982.24 16348.105 196608
3886.2566 2973.3025 16299.112 196608
4055.5225 3027.3433 16595.354 196608
4095.949 2984.926 16362.83 262144
4221.5098 3005.0789 16473.305 393216
4294.7017 2987.8848 16379.05 393216
4383.7734 2982.2554 16348.19 393216
4435.8755 2952.2659 16183.793 393216
4313.9873 2810.2083 15405.06 393216
4340.916 2768.9832 15179.069 393216
4354.5542 2721.1309 14916.752 393216
4379.7378 2682.2593 14703.665 393216
4405.6313 2645.3347 14501.252 393216
4525.7329 2665.3081 14610.742 262144
4573.1675 2642.5403 14485.933 196608
4541.3862 2575.686 14119.45 196608
4448.5195 2477.2405 13579.79 196608
4473.0308 2446.5034 13411.294 196608
4512.5317 2424.8975 13292.854 196608
4639.8652 2450.4214 13432.771 196608
4662.0576 2420.4934 13268.712 196608
4736.2866 2418.1289 13255.75 196608
4731.4131 2376.1165 13025.445 196608
4785.5195 2364.5996 12962.312 196608
4687.2617 2279.3545 12495.014 196608
4673.9067 2237.4121 12265.093 262144
4669.9907 2201.2068 12066.621 393216
4605.1895 2137.8323 11719.214 393216
4300.3174 1966.5605 10780.333 1116673
4318.6538 1945.9528 10667.364 1577479
4441.9429 1972.5479 10813.154 327680
4929.3081 2157.7554 11828.429 393216
5186.3921 2238.3682 12270.334 327680
5396.3364 2296.6829 12590.005 327936
5749.7925 2413.6458 13231.175 327936
5751.5312 2381.8008 13056.606 1906432
5960.188 2435.3511 13350.159 1248768
5969.2651 2407.0168 13194.835 589824
5989.5439 2383.8757 13067.98 524288
6069.7793 2384.8845 13073.511 524288
6183.6533 2398.918 13150.439 720896
6376.082 2442.6956 13390.42 786432
6345.3877 2400.9685 13161.68 917504
6258.355 2339.2 12823.075 851968
6297.7676 2325.6111 12748.583 720896
6375.9385 2326.4873 12753.387 524288
6495.4741 2342.2593 12839.846 393216
6543.8374 2332.2981 12785.24 327680
6566.6978 2313.5803 12682.634 262144
6670.623 2323.5244 12737.145 196608
6755.5654 2326.7068 12754.591 131072
6796.0576 2314.6797 12688.66 196608
6773.5879 2281.7078 12507.913 196608
6759 2252.0774 12345.485 393216
6759.4805 2228.0505 12213.774 458752
6861.2642 2237.5708 12265.963 458752
6928.5938 2235.7729 12256.108 458752
6991.3335 2232.5471 12238.424 524288
7020.0308 2218.6287 12162.125 524288
7066.0005 2210.397 12117.001 458752
7305.0439 2262.1199 12400.536 655360
7038.042 2157.6699 11827.96 458752
7034.1313 2135.1445 11704.48 458752
7074.2817 2126.3037 11656.017 262144
7656.3262 2278.9309 12492.692 131074
7842.6865 2311.9812 12673.867 4
0 0 0 0
0 0 0 0
9373.7207 2685.9304 14723.79 7371651
8124.8696 2306.554 12644.115 1249042
7361.1099 2070.5803 11350.551 393221
7276.2988 2028.1375 11117.887 526603
7521.252 2077.5474 11388.742 4540748
8156.6592 2232.9661 12240.721 1
8530.1914 2314.5801 12688.114 2
8820.9375 2372.4973 13005.605 258
8836.7041 2356.0918 12915.674 1385764
8787.3447 2322.7542 12732.923 8229259
8197.4082 2148.3154 11776.681 196612
8156.0186 2119.3723 11618.02 1316633
9099.0752 2344.5796 12852.565 4739673
10125.28 2587.2837 14183.026 3161667
10566.692 2677.7834 14679.13 3754318
9979.7441 2508.3308 13750.221 3030855
10211.22 2545.6643 13954.876 3229259
9579.5684 2368.9517 12986.17 3689806
8432.8604 2068.7129 11340.313 4807002
8464.1875 2059.9341 11292.189 131586
8632.6426 2084.4033 11426.326 65536
8821.9043 2113.4756 11585.695 65536
8930.4355 2122.9065 11637.394 65536
9012.6934 2125.9951 11654.324 131072
9228.2119 2160.2314 11842.002 0
9404.9844 2184.948 11977.494 0
8938.2393 2060.9158 11297.571 0
9127.0205 2088.7524 11450.167 0
9207.5869 2091.5952 11465.75 0
8949.6816 2018.0737 11062.719 0
9001.8379 2015.0309 11046.039 0
9075.3848 2016.7859 11055.659 0
9081.3691 2003.6091 10983.427 0
8807.5918 1929.3378 10576.284 0
8619.5674 1874.77 10277.154 0
8766.0771 1893.2202 10378.295 0
8045.2915 1725.4106 9458.3926 0
7955.1499 1694.2407 9287.5244 0
8086.4155 1710.3292 9375.7188 0
7721.144 1621.8955 8890.9414 0
0 0 0 0
0 0 0 0
0 0 0 0
0 0 0 0
0 0 0 0
0 0 0 0
0 0 0 0
4856.6509 967.22699 5302.1655 131328
4960.8359 981.60675 5380.9927 196608
5032.625 989.43323 5423.896 196608
5098.2163 995.94922 5459.6157 196608
5153.0869 1000.3018 5483.4756 262144
5218.4302 1006.6198 5518.1094 196608
5267.0381 1009.6507 5534.7246 196608
5330.6958 1015.5112 5566.8506 196608
5397.5 1021.895 5601.8457 196608
5443.0532 1024.2019 5614.4912 196608
0 0 0 0
0 0 0 0
0 0 0 0
-7094.7017 1470.7714 7808.1143 256
-6570.605 1371.0913 7278.9272 256
-7111.8442 1493.8678 7930.73 256
-6810.9209 1440.203 7645.8315 256
-6773.3247 1441.8732 7654.6982 256
-6713.123 1438.7212 7637.9648 256
-6658.874 1436.8108 7627.8223 256
-6492.4238 1410.498 7488.1318 0
-6367.3481 1392.8729 7394.563 256
-6315.8877 1391.2181 7385.7778 256
-6252.9756 1387.0001 7363.3853 256
-6768.6548 1511.9673 8026.8174 256
-6682.7837 1503.3816 7981.2373 256
-6633.9082 1503.0551 7979.5039 256
-6568.6367 1498.9825 7957.8833 256
-6515.377 1497.6119 7950.6069 256
-6474.582 1499.1072 7958.5449 256
-6410.1567 1495.1129 7937.3398 256
-6372.1787 1497.2737 7948.8115 0
-6323.4985 1496.9332 7947.0044 0
-6280.8022 1498.0151 7952.7476 0
-6234.0044 1498.1277 7953.3452 0
-6373.3125 1543.3076 8193.1992 0
-7277.8838 1775.9199 9428.1045 0
-7201.6831 1770.9608 9401.7773 0
-7138.9678 1769.2664 9392.7812 0
-7114.9355 1777.2076 9434.9404 0
-7067.6519 1779.4211 9446.6914 0
-7018.2812 1781.1403 9455.8184 0
-6960.5112 1780.7383 9453.6846 0
-6877.5503 1773.8329 9417.0244 0
-6876.3433 1788.0726 9492.6211 0
-6819.8999 1788.0659 9492.5859 0
-6770.9214 1790.0328 9503.0273 0
-6731.98 1794.7081 9527.8486 0
-6690.8481 1798.8744 9549.9668 0
-6640.2227 1800.5375 9558.7949 0
-6591.4902 1802.7471 9570.5254 0
-6555.5542 1808.5251 9601.2002 0
-6513.6406 1812.7413 9623.584 0
-6462.04 1814.3123 9631.9238 0
-6406.3403 1814.7504 9634.25 0
-6358.0605 1817.317 9647.875 0
-6307.5591 1819.2897 9658.3477 0
-6259.7832 1822.0922 9673.2256 0
-6204.9434 1822.8708 9677.3604 0
-6201.9106 1839.0266 9763.1279 0
-5375.063 1608.8978 8541.4082 0
-6125.2598 1850.9326 9826.3359 0
-6087.3657 1857.1891 9859.5508 0
-5256.6626 1619.3387 8596.8379 0
-5219.5376 1623.6843 8619.9072 0
-5176.4272 1626.2355 8633.4512 0
-5133.4443 1628.8781 8647.4805 0
-5091.5371 1631.9192 8663.625 0
-5047.1812 1634.2295 8675.8896 0
-5003.4424 1636.7892 8689.4795 0
-4968.7881 1642.4053 8719.2939 0
-4892.0063 1634.0679 8675.0322 0
-4845.7002 1635.8412 8684.4463 0
-4806.1548 1639.9595 8706.3096 0
-4758.0298 1641.2079 8712.9375 0
-4736.9761 1651.9247 8769.8311 0
-4697.668 1656.4427 8793.8174 0
-4656.0024 1660.2223 8813.8828 0
-4560.6812 1644.7375 8731.6758 0
-4575.4839 1669.0682 8860.8438 0
-4538.186 1674.7384 8890.9463 0
-4491.6421 1677.09 8903.4297 0
-4448.3872 1680.7402 8922.8086 0
-4405.7095 1684.6992 8943.8271 0
-4361.561 1688.1859 8962.3369 0
-4316.106 1691.2466 8978.5859 0
-4271.0005 1694.5228 8995.9785 0
-4233.0293 1700.7483 9029.0293 0
-4189.1826 1704.7428 9050.2354 0
-4144.3525 1708.436 9069.8418 0
-4101.5386 1713.0684 9094.4346 0
-4055.5232 1716.4694 9112.4902 0
-4012.981 1721.4528 9138.9453 0
-3973.9478 1728.0983 9174.2266 0
-3929.6807 1732.6213 9198.2383 0
-3888.6663 1738.7264 9230.6494 0
-3845.272 1743.9269 9258.2578 0
-3797.9683 1747.4795 9277.1182 0
-3752.3708 1751.9335 9300.7637 0
-3704.2024 1755.3022 9318.6484 0
-3656.2727 1758.8882 9337.6855 0
-3611.2075 1763.984 9364.7383 0
-3566.4731 1769.4034 9393.5088 0
-3523.9272 1776.098 9429.0498 0
-3479.2917 1781.9391 9460.0586 0
-3431.8672 1786.5199 9484.3779 0
-3389.7886 1794.0831 9524.5303 0
-3346.9441 1801.4912 9563.8584 0
-3302.9607 1808.5316 9601.2354 0
-3254.4412 1813.2921 9626.5078 0
-3206.376 1818.4805 9654.0518 256
-3158.811 1824.1469 9684.1338 256
-3108.9458 1828.6707 9708.1504 256
-3058.0315 1832.7368 9729.7373 0
-3013.7842 1841.0325 9773.7773 0
-2964.925 1846.7815 9804.2979 256
-2914.8293 1851.9752 9831.8711 256
-2864.1418 1856.9979 9858.5361 0
-2819.8286 1866.4495 9908.7129 0
-2771.0806 1873.3063 9945.1143 0
-2719.6116 1878.5825 9973.125 0
-2672.1638 1886.9335 10017.459 0
-2622.6248 1894.1543 10055.793 0
-2573.823 1902.2571 10098.811 0
-2526.1191 1911.5775 10148.291 0
-2474.5337 1918.3447 10184.218 0
-2423.1865 1925.6407 10222.951 0
-2369.1558 1931.1248 10252.064 0
-2314.3494 1936.2491 10279.269 0
-2263.8875 1945.3849 10327.77 0
-2211.4001 1953.2406 10369.475 0
-2152.7925 1955.986 10384.05 0
-2097.7703 1962.2473 10417.29 0
-2045.6122 1971.65 10467.208 0
-1993.3765 1981.5656 10519.848 0
-1940.4611 1991.4257 10572.193 0
-1881.4507 1995.4812 10593.724 0
-1826.0145 2003.7399 10637.567 0
-1769.5875 2011.4641 10678.575 0
-1717.0651 2024.3668 10747.073 0
-1663.7428 2037.2872 10815.666 0
-1605.5142 2044.9965 10856.594 0
-1554.2904 2062.6477 10950.301 0
-1504.3645 2083.6389 11061.74 0
-1446.3538 2094.8391 11121.2 0
-1397.8243 2121.502 11262.749 0
-1339.4067 2135.0845 11334.857 0
-1281.3682 2150.7417 11417.98 0
-1223.1489 2167.8303 11508.7 0
-1163.6525 2184.5454 11597.438 0
-1106.1897 2207.4236 11718.896 0
-1045.1948 2225.8542 11816.742 0
-986.29419 2251.7219 11954.068 0
-926.18457 2278.6309 12096.925 0
-860.33771 2294.7659 12182.584 0
-792.6554 2308.521 12255.607 0
-793.18896 2543.8352 13504.856 0
-718.79602 2564.7844 13616.072 0
-592.24542 2381.3308 12642.144 0
-517.771 2384.3801 12658.332 65536
-442.87192 2386.1782 12667.878 0
-368.60056 2392.7881 12702.969 196608
-294.56464 2404.7249 12766.34 196608
-219.64833 2415.2642 12822.291 196608
-144.49564 2433.0215 12916.562 196608
-67.88327 2438.5979 12946.167 196608
