# .PCD v0.7 - Point Cloud Data file format
VERSION 0.7
FIELDS x y z rgb
SIZE 4 4 4 4
TYPE F F F U
COUNT 1 1 1 1
WIDTH 1523
HEIGHT 1
VIEWPOINT 0 0 0 1 0 0 0
POINTS 1523
DATA ascii
-5614.5508 -402.30817 7273.3467 0
-5593.6196 -403.91827 7302.4551 0
-5565.5415 -405.03339 7322.6157 0
-5554.9604 -407.44949 7366.2964 0
-5533.417 -409.09354 7396.0186 0
-5512.5278 -410.81259 7427.0981 0
-5506.5737 -413.68143 7478.9639 0
-5471.6958 -414.4064 7492.0708 256
-5466.3975 -417.40192 7546.2261 256
-5464.6865 -420.72311 7606.271 256
-6650.2822 -516.27234 9333.709 256
-6613.6162 -517.74463 9360.3271 256
-6553.5718 -517.3963 9354.0293 256
-6507.0957 -518.12231 9367.1553 256
-6501.02 -522.10547 9439.167 256
-6626.5391 -536.81854 9705.165 0
-6673.3472 -545.3576 9859.543 0
-6614.751 -545.35773 9859.5459 0
-6557.1743 -545.44275 9861.083 0
-6503.8281 -545.88446 9869.0674 0
-6338.0635 -536.81262 9705.0576 0
-6245.6797 -533.84637 9651.4307 0
-6193.8896 -534.32703 9660.1201 0
-6136.4492 -534.32465 9660.0781 0
-6119.1089 -537.84692 9723.7568 0
-6081.0347 -539.59656 9755.3887 0
-6034.9268 -540.6601 9774.6162 256
-6010.8555 -543.73779 9830.2578 256
-5983.0908 -546.53845 9880.8916 256
-5941.8921 -548.1554 9910.124 256
-6116.0444 -569.87024 10302.708 256
-5993.8535 -564.133 10198.983 256
-5715.6152 -543.44141 9824.8994 256
-5527.2783 -530.95874 9599.2256 256
-5424.8262 -526.552 9519.5557 256
-5181.3755 -508.22235 9188.1729 0
-5080.1211 -503.59827 9104.5742 0
-5327.9707 -533.85431 9651.5742 0
-5295.8701 -536.41309 9697.835 0
-5246.4233 -537.25189 9712.999 0
-5204.5713 -538.89563 9742.7168 0
-5158.8066 -540.16681 9765.6982 0
-5113.2593 -541.48987 9789.6172 0
-5069.416 -543.02588 9817.3877 0
-5025.9409 -544.63763 9846.5264 0
-4981.1875 -546.14716 9873.8174 0
-4939.7139 -548.05658 9908.3379 0
-4897.647 -549.94543 9942.4863 0
-4854.1748 -551.72076 9974.583 0
-4806.5122 -553.0578 9998.7549 0
-4762.0117 -554.79669 10030.192 0
-4716.8828 -556.50549 10061.087 0
-4670.2085 -558.07361 10089.436 0
-4624.1855 -559.76129 10119.947 0
-4579.1704 -561.617 10153.498 0
-4535.3418 -563.6698 10190.61 0
-4490.583 -565.66107 10226.61 0
-4450.5166 -568.30609 10274.43 0
-4406.8047 -570.5528 10315.048 0
-4361.0342 -572.59247 10351.924 0
-4317.9092 -575.04297 10396.226 0
-4273.2036 -577.35101 10437.953 0
-4227.2061 -579.54993 10477.707 0
-4179.374 -581.55939 10514.036 0
-4130.4678 -583.47803 10548.724 0
-4081.6018 -585.46155 10584.584 0
-4031.4258 -587.31641 10618.118 0
-3980.2266 -589.0788 10649.98 0
-3928.6428 -590.84027 10681.826 0
-3880.491 -593.18433 10724.204 0
-3830.1633 -595.26843 10761.883 0
-3778.75 -597.25177 10797.74 0
-3729.467 -599.64612 10841.027 0
-3677.2771 -601.64911 10877.239 0
-3624.0066 -603.54382 10911.493 0
-3567.7146 -604.99512 10937.731 0
-3511.6096 -606.53265 10965.529 0
-3455.3486 -608.10083 10993.881 0
-3397.7083 -609.48212 11018.853 0
-3340.012 -610.90741 11044.621 0
-3281.2817 -612.19696 11067.935 0
-3223.2666 -613.67542 11094.663 0
-3167.5732 -615.66687 11130.667 0
-3109.3967 -617.25043 11159.296 256
-3052.8474 -619.23297 11195.139 256
-2994.7761 -620.98828 11226.873 65536
-2937.5784 -623.00891 11263.404 256
-2879.7573 -624.98846 11299.192 256
-2823.7957 -627.47577 11344.16 256
-2765.8562 -629.63446 11383.188 0
-2703.48 -630.86603 11405.454 0
-2641.3977 -632.23145 11430.139 0
-2580.1418 -633.87183 11459.796 0
-2517.7786 -635.32184 11486.01 65536
-2455.7021 -636.92706 11515.031 65536
-2396.1187 -639.28937 11557.739 65536
-2334.4097 -641.2074 11592.415 65536
-2274.2322 -643.67542 11637.035 65536
-2215.0388 -646.58563 11689.648 0
-2153.1289 -648.86572 11730.87 0
-2086.7903 -649.91895 11749.912 0
-2022.7522 -651.7865 11783.675 0
-1966.7323 -656.46429 11868.246 0
-1911.9988 -661.93555 11967.16 0
-1853.7399 -666.56189 12050.8 0
-1790.9479 -669.8645 12110.509 0
-1724.259 -671.92529 12147.766 0
-1662.7014 -676.25311 12226.008 0
-1599.9536 -680.47015 12302.249 0
-1532.2317 -682.87445 12345.716 65536
-1469.6117 -687.90863 12436.729 65536
-1402.38 -691.20306 12496.289 65536
-1337.4075 -696.04181 12583.769 65536
-1270.1711 -700.20563 12659.047 65536
-1204.0815 -705.56598 12755.956 65536
-1133.8221 -709.03888 12818.743 65536
-1064.3362 -713.5307 12899.951 65536
-991.87524 -716.57068 12954.912 65536
-922.18036 -722.28888 13058.29 65536
-850.88568 -727.6897 13155.933 65536
-775.44861 -730.28253 13202.809 65536
-666.84387 -698.70679 12631.949 65536
-629.02191 -742.69305 13427.179 0
-553.71497 -748.77203 13537.081 0
-476.27213 -753.53857 13623.256 256
-397.64972 -758.00922 13704.081 256
-317.4364 -760.96924 13757.595 256
-236.76993 -764.52002 13821.79 256
-155.41237 -768.4267 13892.418 256
-73.291672 -773.1391 13977.614 256
9.8121738 -775.5152 14020.571 256
93.712746 -780.27344 14106.597 256
178.10512 -782.69922 14150.453 256
261.9173 -781.83698 14134.864 256
346.43628 -782.99109 14155.729 256
431.01276 -783.79865 14170.329 256
516.62238 -785.91394 14208.571 0
602.85944 -788.25525 14250.899 0
695.11127 -796.91534 14407.467 0
781.94415 -798.14471 14429.691 0
870.82318 -801.01312 14481.549 0
961.83722 -805.15265 14556.389 0
1055.2863 -810.47919 14652.688 0
1148.2648 -814.65979 14728.268 0
1244.8589 -820.63153 14836.232 0
1343.9116 -827.3269 14957.277 0
1440.3738 -831.69556 15036.259 0
1534.7178 -834.40228 15085.193 0
1646.4421 -845.73798 15290.132 0
1759.5112 -856.54242 15485.467 0
1859.16 -860.06439 15549.141 0
1969.5299 -867.97772 15692.205 0
2079.553 -875.02936 15819.693 0
2192.7473 -882.74786 15959.234 0
2307.9478 -890.60028 16101.199 0
2429.9348 -900.34198 16277.321 0
2551.5852 -909.21783 16437.787 0
2714.7236 -931.67743 16843.836 0
2864.0447 -947.96619 17138.32 0
3022.3806 -966.01746 17464.67 0
3182.8062 -983.51569 17781.021 0
3360.7673 -1005.1337 18171.855 0
3478.7539 -1008.0272 18224.164 0
3645.03 -1024.3159 18518.65 256
3716.0759 -1013.6729 18326.234 1645335
3867.8757 -1025.0369 18531.684 1776921
4163.3828 -1072.8013 19395.219 65792
0 0 0 0
0 0 0 0
0 0 0 0
0 0 0 0
0 0 0 0
0 0 0 0
0 0 0 0
0 0 0 0
0 0 0 0
0 0 0 0
0 0 0 0
5428.4092 -1049.9314 18981.752 8424073
0 0 0 0
0 0 0 0
0 0 0 0
0 0 0 0
0 0 0 0
0 0 0 0
6540.7803 -1104.4136 19966.738 263428
0 0 0 0
0 0 0 0
0 0 0 0
0 0 0 0
7052.2593 -1091.7399 19737.611 0
7166.5498 -1091.2806 19729.307 0
7125.0029 -1067.4879 19299.158 0
7278.3301 -1073.1833 19402.125 0
7284.7402 -1057.376 19116.344 0
7329.0625 -1047.4725 18937.301 0
7405.4458 -1042.3816 18845.262 0
7520.0483 -1042.7421 18851.777 0
7575.7441 -1035.0436 18712.596 0
7687.0332 -1035.0535 18712.775 256
7785.4326 -1033.3523 18682.02 4869451
8003.5239 -1047.3622 18935.305 4212805
7840.4219 -1011.7913 18292.217 5133653
8120.0889 -1033.5504 18685.6 9212303
7958.9658 -999.37402 18067.725 328964
8393.3643 -1039.8893 18800.203 0
8457.333 -1034.049 18694.615 0
8542.4639 -1030.9141 18637.938 0
8667.7588 -1032.6443 18669.219 66050
0 0 0 0
9014.1475 -1047.1034 18930.627 8752523
0 0 0 0
9047.5156 -1025.3827 18537.936 256
9087.4551 -1017.5181 18395.752 0
9135.7832 -1010.7686 18273.729 256
9181.2949 -1003.8699 18149.006 256
9103.9902 -983.85883 17787.225 0
9005.2617 -962.01831 17392.369 0
9079.7588 -958.96899 17337.24 0
9152.8252 -955.83875 17280.648 0
9101.9736 -939.98047 16993.947 65536
9194.9404 -939.15991 16979.111 65536
9278.9521 -937.45245 16948.242 65536
9274.126 -926.90271 16757.514 65536
9285.5654 -918.18561 16599.916 0
9368.1895 -916.61664 16571.551 0
9407.002 -910.83832 16467.084 0
9483.2275 -908.76416 16429.586 0
9522.9922 -903.27399 16330.328 0
9583.5273 -899.84479 16268.331 65536
9717.998 -903.35687 16331.827 65536
9816.7285 -903.51007 16334.597 65536
9922.3193 -904.28558 16348.617 65536
9970.208 -899.83832 16268.214 1118735
10985.897 -981.98407 17753.33 1249808
10440.866 -924.38763 16712.043 65536
10561.782 -926.28119 16746.275 0
10676.728 -927.62054 16770.49 256
10670.676 -918.5199 16605.959 989205
11864.493 -1011.923 18294.598 9083283
10775.82 -910.72382 16465.014 9873833
10334.632 -865.57605 15648.785 7041654
10965.886 -910.25482 16456.535 131844
11569.151 -951.841 17208.373 262
11286.984 -920.48853 16641.551 3763051
0 0 0 0
13364.161 -1071.1166 19364.762 11321022
13368.638 -1062.3267 19205.848 10860985
13132.35 -1034.7155 18706.664 8488073
11503.091 -898.73505 16248.27 393222
12077.205 -935.73511 16917.193 8690329
12362.875 -949.96002 17174.367 8555661
13475.625 -1026.9841 18566.891 7503229
0 0 0 0
0 0 0 0
0 0 0 0
0 0 0 0
0 0 0 0
10154.682 -737.65051 13336.015 3
10409.796 -750.32587 13565.173 4
10908.271 -780.21259 14105.497 4
11059.176 -784.97339 14191.566 2
11288.938 -795.21686 14376.759 2
11474.998 -802.2511 14503.931 256
12146.841 -842.88965 15238.638 0
12372.614 -852.20227 15407.001 256
12151.603 -830.83057 15020.62 256
12267.405 -832.63116 15053.174 256
12416.087 -836.62128 15125.311 256
12591.59 -842.34821 15228.849 256
12984.894 -862.45984 15592.448 258
13233.051 -872.71405 15777.834 0
13397.329 -877.33112 15861.307 1513754
0 0 0 0
0 0 0 0
0 0 0 0
0 0 0 0
0 0 0 0
0 0 0 0
13680.395 -853.81329 15436.126 0
13774.47 -853.95801 15438.742 65793
13486.694 -830.58423 15016.167 66050
12976.402 -793.90411 14353.026 263429
13531.343 -822.4491 14869.091 256
13501.15 -815.28931 14739.649 256
13445.058 -806.66803 14583.784 0
13537.953 -807.0387 14590.486 1908768
13627.708 -807.21869 14593.741 257
13107.966 -771.52197 13948.378 256
13510.037 -790.19006 14285.879 256
13543.255 -787.18573 14231.563 256
13697.257 -791.19562 14304.059 256
14103.087 -809.61255 14637.02 256
14140.407 -806.77863 14585.784 2
0 0 0 0
0 0 0 0
0 0 0 0
-7882.2847 -428.27353 8674.8926 258
-6624.4702 -362.3017 7338.5996 513
-8397.7725 -462.33011 9364.7246 856850
-7855.6914 -435.37192 8818.6738 659471
-7406.0527 -413.20929 8369.7588 256
-6131.5337 -344.41281 6976.252 256
-7681.7197 -434.4256 8799.5049 256
-8022.8774 -456.82925 9253.3027 256
-7078.9746 -405.86481 8220.9922 0
-6147.7812 -354.92569 7189.1953 0
-6122.0952 -355.91641 7209.2627 0
-6071.4146 -355.45779 7199.9731 0
-6021.5752 -355.04227 7191.5566 0
-5973.5938 -354.73114 7185.2544 0
-5940.2705 -355.29224 7196.6196 0
-5900.4609 -355.4707 7200.2349 0
-5861.9922 -355.73315 7205.5508 0
-5814.8145 -355.46707 7200.1611 0
-5765.7539 -355.08109 7192.3428 0
-5717.6548 -354.74896 7185.6157 0
-5696.8325 -356.11697 7213.3257 0
-5673.4336 -357.34344 7238.1685 0
-5636.9395 -357.75757 7246.5566 0
-5617.0908 -359.24261 7276.6372 0
-5589.4844 -360.25073 7297.0566 0
-5568.2896 -361.69107 7326.2314 0
-5546.813 -363.13565 7355.4922 0
-5527.7354 -364.76147 7388.4243 0
-5511.9312 -366.63107 7426.2939 0
-5488.8506 -368.04297 7454.8926 0
-5466.3208 -369.51511 7484.7109 256
-5467.3232 -372.61517 7547.5044 256
-5758.3687 -395.69736 8015.0459 256
-6669.71 -462.14508 9360.9766 256
-6599.2891 -461.11191 9340.0498 256
-6559.0073 -462.18506 9361.7871 256
-6515.2119 -463.02692 9378.8389 256
-6474.2549 -464.08664 9400.3047 256
-6441.2183 -465.73758 9433.7451 256
-6455.6509 -470.87994 9537.9062 0
-6401.4102 -471.06006 9541.5537 0
-6276.0591 -465.96371 9438.3252 0
-6314.4839 -473.04453 9581.751 0
-6304.8965 -476.62479 9654.2705 0
-6259.0195 -477.50232 9672.0449 0
-6199.4038 -477.33817 9668.7207 0
-6196.3384 -481.56598 9754.3564 0
-6152.7129 -482.69153 9777.1562 0
-6093.7637 -482.62506 9775.8086 0
-6053.376 -484.04141 9804.498 256
-6035.7349 -487.32193 9870.9463 256
-6003.1919 -489.45178 9914.0879 256
-5997.3555 -493.82297 10002.628 256
-6121.8037 -509.11667 10312.41 256
-6086.4292 -511.2937 10356.507 256
-5733.6348 -486.57779 9855.874 256
-5520.064 -473.2887 9586.6963 256
-5467.4023 -473.66254 9594.2686 256
-5420.3223 -474.53296 9611.8994 0
-5379.8228 -476.00415 9641.6992 0
-5753.2065 -514.52142 10421.886 0
-5746.0659 -519.47565 10522.236 0
-5254.4668 -480.25931 9727.8896 0
-5450.9336 -503.75946 10203.896 0
-5165.8984 -482.78867 9779.123 0
-5121.2397 -484.06107 9804.8965 0
-5075.3955 -485.24945 9828.9678 0
-5028.2397 -486.33862 9851.0293 0
-4986.8555 -488.01837 9885.0527 0
-4945.0098 -489.69235 9918.96 0
-4899.7046 -491.06006 9946.6641 0
-4854.2285 -492.44379 9974.6924 0
-4807.9404 -493.77838 10001.726 0
-4763.6401 -495.35309 10033.622 0
-4718.731 -496.90363 10065.028 0
-4671.4756 -498.24365 10092.172 0
-4624.752 -499.67615 10121.188 0
-4579.0249 -501.25534 10153.175 0
-4535.0229 -503.06818 10189.895 0
-4490.8374 -504.90939 10227.189 0
-4448.2075 -506.97842 10269.099 0
-4404.6328 -508.99585 10309.963 0
-4358.4751 -510.76758 10345.85 0
-4316.209 -513.05249 10392.132 0
-4273.2051 -515.31482 10437.957 0
-4228.0913 -517.38562 10479.901 0
-4180.5137 -519.21234 10516.902 0
-4132.0161 -520.97852 10552.678 0
-4083.3362 -522.77576 10589.082 0
-4033.634 -524.4964 10623.935 0
-3983.5168 -526.21692 10658.784 0
-3932.3464 -527.85175 10691.897 0
-3883.2327 -529.82074 10731.781 0
-3833.6992 -531.79736 10771.818 0
-3783.3726 -533.72919 10810.948 0
-3731.5505 -535.51318 10847.084 0
-3679.2581 -537.2912 10883.099 0
-3625.1814 -538.86761 10915.03 0
-3570.147 -540.35651 10945.188 0
-3514.1924 -541.75891 10973.595 0
-3457.5754 -543.11017 11000.966 0
-3400.0115 -544.36206 11026.322 0
-3341.4124 -545.49402 11049.251 0
-3283.5811 -546.79932 11075.69 0
-3227.6814 -548.48621 11109.858 0
-3170.2727 -549.98181 11140.153 0
-3111.5188 -551.3028 11166.911 0
-3057.0754 -553.46185 11210.644 0
-2997.3425 -554.7381 11236.494 65536
-2938.7878 -556.29553 11268.041 0
-2881.2581 -558.12421 11305.081 0
-2824.7139 -560.2356 11347.85 0
-2766.5242 -562.11597 11385.937 0
-2704.1155 -563.21191 11408.136 0
-2641.8308 -564.39075 11432.014 0
-2580.9683 -565.94354 11463.467 0
-2518.7307 -567.271 11490.354 65536
-2457.8835 -568.99432 11525.261 65536
-2397.6077 -570.95239 11564.923 65536
-2337.0188 -572.94928 11605.371 65536
-2275.5735 -574.85138 11643.898 65536
-2216.667 -577.5343 11698.242 0
-2155.4531 -579.7702 11743.531 0
-2088.9492 -580.6853 11762.068 0
-2028.8038 -583.49255 11818.93 0
-1966.1735 -585.76074 11864.874 0
-1910.6628 -590.39771 11958.798 0
-1850.7457 -593.97882 12031.335 0
-1788.6508 -597.12073 12094.976 0
-1722.319 -599.05212 12134.097 256
-1658.9105 -602.21356 12198.133 0
-1596.926 -606.20447 12278.971 0
-1531.0913 -609.04596 12336.527 65536
-1467.0944 -612.94116 12415.426 65536
-1399.1989 -615.53387 12467.943 65536
-1333.6754 -619.51843 12548.652 65536
-1266.7158 -623.26849 12624.611 65536
-1202.1051 -628.71918 12735.018 65536
-1133.3051 -632.56403 12812.897 65536
-1064.0428 -636.6864 12896.397 65536
-992.25415 -639.81952 12959.86 65536
-921.2934 -644.0589 13045.731 65536
-850.62347 -649.29938 13151.88 65536
-776.41626 -652.62708 13219.284 65536
-700.93054 -655.50848 13277.647 65536
-626.87994 -660.63336 13381.456 0
-551.11572 -665.17932 13473.535 0
-476.32922 -672.65155 13624.89 256
-397.32309 -676.00549 13692.825 256
-317.07162 -678.42267 13741.786 256
-236.37843 -681.24408 13798.936 256
-155.10234 -684.49097 13864.703 256
-73.156723 -688.79474 13951.878 256
9.8074207 -691.85083 14013.78 256
93.748039 -696.69537 14111.909 256
178.20743 -698.99951 14158.581 256
261.87714 -697.72174 14132.698 256
346.26944 -698.52216 14148.912 256
431.71069 -700.7124 14193.275 256
517.17401 -702.21649 14223.742 0
604.73462 -705.74567 14295.228 0
694.41089 -710.57013 14392.95 0
782.59424 -712.97626 14441.687 0
828.87622 -680.50586 13783.983 0
961.28021 -718.2229 14547.96 0
1054.7849 -723.04956 14645.727 0
1149.3418 -727.80664 14742.083 0
1247.6704 -734.10895 14869.74 0
1347.304 -740.29462 14995.034 0
1441.1588 -742.7345 15044.454 0
1463.5236 -710.19763 14385.404 0
1675.5686 -768.21741 15560.623 0
1704.4003 -740.56128 15000.436 65793
1863.3274 -769.37122 15583.994 0
1980.4952 -779.02673 15779.571 0
2097.7949 -787.85852 15958.465 0
2212.9216 -795.14551 16106.066 0
2325.146 -800.82867 16221.181 0
2477.4844 -819.32538 16595.84 0
2602.9846 -827.86975 16768.912 0
2735.3479 -837.88629 16971.801 0
2871.9023 -848.42853 17185.34 0
3051.0383 -870.39435 17630.268 0
3259.6528 -899.03174 18210.332 256
3379.0876 -902.02277 18270.916 256
3548.7927 -917.82892 18591.078 256
3699.2249 -927.84637 18793.988 256
3877.2236 -943.98834 19120.951 66048
3981.2351 -941.71039 19074.809 131842
0 0 0 0
0 0 0 0
0 0 0 0
0 0 0 0
0 0 0 0
0 0 0 0
0 0 0 0
0 0 0 0
0 0 0 0
0 0 0 0
0 0 0 0
0 0 0 0
0 0 0 0
5724.457 -968.104 19609.426 132100
0 0 0 0
0 0 0 0
0 0 0 0
0 0 0 0
0 0 0 0
0 0 0 0
0 0 0 0
0 0 0 0
0 0 0 0
0 0 0 0
7108.1587 -982.15625 19894.061 0
7202.9702 -978.97247 19829.57 0
7287.7769 -974.55322 19740.057 0
7349.3076 -967.21075 19591.332 0
7349.8403 -952.19489 19287.178 0
7377.3159 -941.07703 19061.98 0
7453.2822 -936.38776 18966.996 0
7557.0684 -935.28113 18944.582 65536
7639.0635 -931.54974 18869 0
7714.437 -927.13049 18779.486 0
7784.8154 -922.24554 18680.539 987406
7728.0762 -902.65045 18283.631 256
7976.0908 -918.70087 18608.74 0
8196.2178 -931.14404 18860.783 0
8017.3384 -898.53326 18200.236 0
8451.5957 -934.59259 18930.635 0
8492.4688 -926.77472 18772.281 0
8640.8594 -930.74091 18852.617 0
8759.5303 -931.44519 18866.883 0
8936.0225 -938.20239 19003.754 0
8948.501 -927.78583 18792.762 0
7945.5391 -813.64252 16480.732 0
9117.6689 -922.30164 18681.676 0
9139.2393 -913.36108 18500.58 65536
9184.0723 -906.93011 18370.318 65536
9228.6826 -900.62866 18242.68 65536
9190.3477 -886.4729 17955.947 65536
9091.6494 -866.88654 17559.215 65536
9134.1963 -861.05945 17441.186 65536
9222.0645 -859.58765 17411.373 65536
9228.2646 -850.62054 17229.74 65536
9308.2412 -848.57629 17188.332 0
9364.2881 -844.4184 17104.111 65536
9353.0654 -834.34894 16900.15 65536
9363.1348 -826.37262 16738.586 65536
9452.5225 -825.49103 16720.729 65536
9499.2217 -820.93854 16628.516 65536
9520.7793 -814.32947 16494.645 256
9488.3906 -803.28784 16270.992 256
9528.834 -798.57288 16175.488 256
9683.874 -803.46002 16274.479 256
9911.0801 -814.17883 16491.594 461320
10831.437 -881.07123 17846.533 6711141
10908.156 -878.70709 17798.646 5329232
11275.703 -899.59088 18221.658 524803
11055.11 -873.6012 17695.225 131072
10600.074 -829.74976 16806.99 0
10692.122 -829.14154 16794.672 516
11151.047 -856.73175 17353.525 791573
10331.43 -786.48639 15930.671 2369574
11875.194 -895.797 18144.811 395016
11866.467 -887.08289 17968.303 460551
11004.007 -815.27228 16513.744 259
11328.762 -831.91302 16850.809 1543
11344.713 -825.78412 16726.666 331021
0 0 0 0
0 0 0 0
13225.779 -938.04742 19000.613 10004135
12796.386 -899.90851 18228.092 5264726
10858.594 -757.22217 15337.909 131079
11337.463 -784.03406 15880.997 6058864
11010.043 -755.1051 15295.027 10793393
0 0 0 0
0 0 0 0
0 0 0 0
14783.924 -981.51508 19881.074 7964807
0 0 0 0
0 0 0 0
0 0 0 0
0 0 0 0
10993.263 -701.80469 14215.401 3
11218.256 -710.70618 14395.704 2
11392.39 -716.27515 14508.507 2
11683.85 -729.08167 14767.91 256
11833.494 -732.91388 14845.533 256
12100.899 -743.92902 15068.649 256
12261.646 -748.27332 15156.646 256
12373.837 -749.61267 15183.775 256
12532.133 -753.70551 15266.678 256
12640.618 -754.76538 15288.146 256
12897.803 -764.62549 15487.867 256
13594.587 -800.22217 16208.896 256
15179.783 -887.24481 17971.582 256
14122.73 -819.6933 16603.293 256
14570.266 -839.80066 17010.578 256
14011.98 -802.05688 16246.06 2
14369.246 -816.87805 16546.268 2
0 0 0 0
13830.433 -775.63049 15710.779 258
13963.113 -777.82007 15755.13 258
13534.185 -748.9043 15169.426 2829612
12282.253 -675.13214 13675.135 3158577
12204.229 -666.43329 13498.936 132099
13690.735 -742.724 15044.242 256
13689.459 -737.83606 14945.233 256
13699.508 -733.61749 14859.785 0
12579.519 -669.32648 13557.538 197379
13429.374 -709.99738 14381.348 256
13418.434 -704.93231 14278.752 0
13461.176 -702.73334 14234.211 0
13701.624 -710.81854 14397.981 0
13818.813 -712.44867 14431 0
13953.759 -714.96838 14482.038 256
14223.117 -724.30212 14671.098 2
0 0 0 0
0 0 0 0
0 0 0 0
-7943.2256 -379.62823 8741.9619 1
-7432.4521 -357.55573 8233.6836 2
-8746.4355 -423.55679 9753.5352 257
-8606.4648 -419.5592 9661.4805 257
-6985.5581 -342.82846 7894.5479 258
-6680.5933 -330.07883 7600.9531 256
-7632.0752 -379.65747 8742.6357 256
-7455.2554 -373.40381 8598.6279 256
-7397.7778 -373.0824 8591.2266 0
-6593.2104 -334.81766 7710.0781 0
-6184.4331 -316.25708 7282.6709 0
-6074.1626 -312.8074 7203.2324 0
-6021.2339 -312.28265 7191.1489 0
-5970.4326 -311.86157 7181.4521 0
-5935.4463 -312.26642 7190.7749 0
-5897.1875 -312.50375 7196.2402 0
-5856.4946 -312.61459 7198.793 0
-5814.4521 -312.65451 7199.7119 0
-5781.4614 -313.18536 7211.9365 0
-5741.4805 -313.34268 7215.5591 0
-5697.1836 -313.26501 7213.77 0
-5678.9766 -314.63165 7245.2407 0
-5641.6055 -314.94928 7252.5547 0
-5605.0269 -315.31638 7261.0088 0
-5588.1787 -316.8078 7295.3521 0
-5554.9258 -317.38519 7308.6484 0
-5545.0537 -319.31808 7353.1587 0
-5491.7832 -318.76273 7340.3701 0
-6405.9126 -374.79947 8630.7666 0
-5494.9302 -324.09454 7463.1494 0
-5483.8882 -326.07547 7508.7651 256
-5495.1035 -329.42313 7585.854 256
-6795.7422 -410.76462 9458.9609 256
-6694.1284 -407.99777 9395.2471 256
-6711.7441 -412.51248 9499.21 256
-6615.7065 -410.05914 9442.7148 256
-6570.1621 -410.72028 9457.9404 256
-6599.1284 -416.09097 9581.6152 256
-6504.7319 -413.70914 9526.7666 256
-6447.8286 -413.69104 9526.3496 0
-6360.644 -411.71255 9480.79 0
-6344.1885 -414.31778 9540.7822 0
-6327.8936 -416.98053 9602.0996 0
-6361.54 -423.0127 9741.0059 0
-6315.0571 -423.77847 9758.6396 0
-6252.0942 -423.44223 9750.8975 0
-6339.1206 -433.35327 9979.126 0
-6198.2173 -427.72272 9849.4668 0
-6180.5112 -430.56735 9914.9717 0
-6131.2842 -431.24966 9930.6846 256
-6086.3735 -432.2518 9953.7617 256
-5992.5972 -429.76917 9896.5918 256
-5998.0674 -434.42542 10003.814 256
-5941.2964 -434.62186 10008.338 256
-6047.145 -446.83865 10289.662 256
-5730.0283 -427.73175 9849.6748 256
-5515.5088 -415.96811 9578.7852 256
-5157.8428 -393.05066 9051.0498 256
-5118.3101 -394.1489 9076.3389 0
-5358.6982 -417.05612 9603.8398 0
-5323.0361 -418.74088 9642.6357 0
-5855.3535 -465.62918 10722.365 0
-5736.439 -461.19223 10620.192 0
-5214.0903 -423.86078 9760.5361 0
-5168.5903 -424.88925 9784.2188 0
-5124.8491 -426.08731 9811.8076 0
-5077.9189 -427.04474 9833.8545 0
-5033.0498 -428.1998 9860.4531 0
-4991.0615 -429.6301 9893.3896 0
-4945.9546 -430.82281 9920.8555 0
-4899.8345 -431.95508 9946.9277 0
-4855.2334 -433.25043 9976.7578 0
-4810.3003 -434.54785 10006.634 0
-4765.3682 -435.8779 10037.262 0
-4718.7705 -437.08734 10065.112 0
-4674.3989 -438.53671 10098.488 0
-4628.5972 -439.88785 10129.602 0
-4582.2642 -441.22348 10160.358 0
-4537.5166 -442.74942 10195.497 0
-4493.5649 -444.39545 10233.401 0
-4449.4697 -446.07224 10272.014 0
-4405.0967 -447.7674 10311.05 0
-4360.2412 -449.46063 10350.041 0
-4316.1523 -451.28253 10391.995 0
-4272.834 -453.23911 10437.051 0
-4228.686 -455.16397 10481.376 0
-4180.436 -456.69833 10516.708 0
-4132.9897 -458.36832 10555.164 0
-4083.1816 -459.82382 10588.682 0
-4033.53 -461.3428 10623.66 0
-3983.4795 -462.86377 10658.684 0
-3931.8542 -464.24796 10690.559 0
-3882.5447 -465.95551 10729.88 0
-3833.5298 -467.75601 10771.342 0
-3782.5359 -469.37219 10808.558 0
-3731.8418 -471.08197 10847.931 0
-3680.0815 -472.715 10885.535 0
-3626.0217 -474.10574 10917.561 0
-3570.4961 -475.35199 10946.259 0
-3514.3711 -476.56326 10974.152 0
-3456.5833 -477.59061 10997.81 0
-3399.5596 -478.76517 11024.856 0
-3341.7954 -479.87952 11050.518 0
-3284.1094 -481.05002 11077.472 0
-3227.6191 -482.4472 11109.646 0
-3170.5178 -483.80945 11141.015 0
-3112.252 -485.04828 11169.542 0
-3055.6838 -486.61151 11205.54 0
-2997.8831 -488.04376 11238.521 65536
-2939.4033 -489.42819 11270.401 0
-2882.1743 -491.09033 11308.677 0
-2824.1006 -492.68445 11345.386 0
-2766.5706 -494.4537 11386.128 0
-2704.9976 -495.57101 11411.856 0
-2643.0217 -496.67014 11437.167 0
-2581.8435 -497.98108 11467.354 0
-2520.2048 -499.27188 11497.079 0
-2459.6489 -500.85513 11533.538 65536
-2399.4233 -502.59836 11573.68 65536
-2337.7515 -504.13257 11609.01 65536
-2276.6868 -505.89502 11649.595 65536
-2218.6357 -508.45877 11708.632 0
-2156.9109 -510.31921 11751.474 0
-2093.9277 -511.99661 11790.1 0
-2031.1932 -513.85303 11832.85 0
-1968.7692 -515.92395 11880.537 0
-1909.8744 -519.10815 11953.863 0
-1844.4905 -520.7066 11990.672 0
-1786.1724 -524.50836 12078.217 0
-1721.8002 -526.77631 12130.442 0
-1657.0875 -529.13373 12184.729 0
-1594.8981 -532.54907 12263.377 0
-1529.3115 -535.10297 12322.187 65536
-1464.2181 -538.09497 12391.086 65536
-1397.8745 -540.92017 12456.143 65536
-1330.9963 -543.84277 12523.444 65536
-1264.674 -547.35229 12604.261 65536
-1199.7793 -551.96057 12710.378 65536
-1131.5004 -555.52661 12792.495 65536
-1061.0988 -558.48901 12860.713 65536
-989.58234 -561.27924 12924.965 65536
-918.43121 -564.76361 13005.202 65536
-847.69427 -569.16644 13106.589 65536
-773.47528 -571.88586 13169.212 65536
-687.45026 -565.5058 13022.293 0
-626.34271 -580.60474 13369.987 0
-550.72369 -584.68518 13463.95 0
-474.31854 -589.17651 13567.375 0
-395.69681 -592.19043 13636.778 256
-316.06509 -594.85614 13698.163 256
-235.88829 -597.98975 13770.323 256
-154.70837 -600.55896 13829.486 256
-72.838707 -603.24017 13891.229 256
9.773469 -606.45538 13965.268 256
93.38652 -610.46021 14057.489 256
177.58353 -612.69763 14109.013 256
261.37857 -612.55774 14105.791 256
346.17081 -614.25525 14144.881 256
431.91263 -616.64508 14199.914 256
517.80078 -618.42847 14240.98 0
606.60724 -622.70648 14339.493 0
694.37573 -624.99628 14392.221 0
783.34918 -627.74933 14455.618 0
876.47046 -632.95367 14575.462 0
968.16528 -636.2843 14652.158 0
1061.1387 -639.83606 14733.948 0
1156.4818 -644.16632 14833.664 0
1250.2332 -647.05939 14900.284 0
1290.5519 -623.74469 14363.401 0
1440.8788 -653.19318 15041.531 0
1541.4778 -657.97467 15151.638 0
1642.1666 -662.26459 15250.426 0
1692.6429 -646.91492 14896.957 0
1852.3547 -672.76489 15492.224 0
1974.938 -683.3205 15735.294 0
2101.2603 -694.15668 15984.826 0
2222.5984 -702.4801 16176.495 0
2350.9788 -712.24683 16401.4 0
2505.6663 -728.88855 16784.621 0
2647.4319 -740.64087 17055.25 0
2780.1641 -749.09241 17249.869 0
2912.2502 -756.7749 17426.779 0
3129.2195 -785.22992 18082.031 0
3200.3552 -776.41565 17879.061 256
3445.926 -809.1264 18632.314 256
3598.3411 -818.60773 18850.646 256
3758.8511 -829.30243 19096.92 256
4023.1458 -861.59668 19840.582 256
0 0 0 0
0 0 0 0
0 0 0 0
0 0 0 0
0 0 0 0
0 0 0 0
0 0 0 0
0 0 0 0
0 0 0 0
0 0 0 0
0 0 0 0
0 0 0 0
0 0 0 0
0 0 0 0
0 0 0 0
0 0 0 0
0 0 0 0
0 0 0 0
0 0 0 0
0 0 0 0
0 0 0 0
0 0 0 0
0 0 0 0
0 0 0 0
0 0 0 0
0 0 0 0
7237.0654 -865.19452 19923.434 0
7334.063 -862.67566 19865.43 0
7395.4536 -856.11469 19714.346 0
7411.1045 -844.54596 19447.945 0
7415.5005 -832.0697 19160.645 0
7493.5474 -828.11005 19069.463 0
7626.6582 -830.2627 19119.035 0
7717.562 -827.82495 19062.896 0
7766.2031 -820.98987 18905.502 65536
7841.9985 -817.17938 18817.756 0
7962.2656 -818.04523 18837.693 0
8061.4795 -816.75385 18807.957 0
8129.6245 -812.39319 18707.541 0
8334.0215 -821.58228 18919.143 0
8480.4482 -824.88782 18995.262 0
8538.001 -819.57538 18872.93 0
8640.6582 -818.67419 18852.178 256
8834.1191 -826.28943 19027.537 395014
9003.1973 -831.46021 19146.609 263171
9089.5479 -828.95734 19088.975 0
9109.8477 -820.56659 18895.756 0
9159.1992 -814.96527 18766.77 65536
9182.3887 -807.19885 18587.926 65536
9226.334 -801.42004 18454.854 65536
9269.6035 -795.71887 18323.57 65536
9290.2422 -788.2301 18151.119 65536
9212.4131 -772.65466 17792.453 65536
9212.7295 -763.91248 17591.141 65536
9297.0127 -762.25073 17552.875 65536
9302.4473 -754.23303 17368.246 65536
9426.9873 -755.94214 17407.604 65536
9423.0557 -747.42407 17211.451 65536
9431.4395 -740.05524 17041.764 65536
9461.4004 -734.51819 16914.258 65536
9551.6943 -733.73206 16896.156 65536
9612.5205 -730.72217 16826.846 65536
9691.7646 -729.16003 16790.873 256
9628.4824 -717.01611 16511.227 0
9666.1162 -712.5564 16408.529 256
9764.6025 -712.62677 16410.15 921872
10475.091 -756.9184 17430.084 2896177
0 0 0 0
10917.992 -773.62054 17814.695 4278341
10686.392 -749.93732 17269.326 1513752
11239.112 -781.22235 17989.746 2108968
11595.837 -798.42242 18385.826 3948861
11457.96 -781.5639 17997.613 0
10460.99 -706.95935 16279.642 0
10463.328 -700.63702 16134.054 0
10418.083 -691.27228 15918.404 256
10479.672 -689.10101 15868.406 2
10660.417 -694.73383 15998.117 514
11990.033 -774.47656 17834.408 771
12235.795 -783.42535 18040.479 5796463
12836.62 -814.75507 18761.928 9281438
12917.818 -812.84778 18718.008 11320508
12499.771 -779.82648 17957.604 9477534
12067.515 -746.48541 17189.836 5396826
10762.817 -660.18878 15202.624 5
10931.163 -664.93286 15311.87 3097923
0 0 0 0
0 0 0 0
0 0 0 0
0 0 0 0
14648.336 -855.43707 19698.74 6911349
0 0 0 0
13758.149 -790.81061 18210.543 4801610
0 0 0 0
11102.646 -628.28857 14468.036 131077
11297.424 -634.39758 14608.713 65539
11453.577 -638.26099 14697.677 3
11599.7 -641.51117 14772.521 2
11870.136 -651.53595 15003.369 2
12060.901 -657.07074 15130.823 1
12197.964 -659.61963 15189.518 0
12388.974 -665.02692 15314.035 0
12634.057 -673.23669 15503.087 256
12888.443 -681.81982 15700.737 256
13053.066 -685.565 15786.98 256
13242.875 -690.57013 15902.236 256
13385.028 -693.0368 15959.037 256
13687.025 -703.68677 16204.282 256
13755.784 -702.28033 16171.896 256
13988.277 -709.19458 16331.114 256
13950.491 -702.40503 16174.767 256
15372.052 -768.68335 17701.004 256
14050.289 -697.81256 16069.014 256
13803.437 -680.92419 15680.112 256
13793.171 -675.8548 15563.376 0
13755.295 -669.50909 15417.25 0
13238.182 -640.07599 14739.472 1
13727.252 -659.35962 15183.53 1
13630.384 -650.43091 14977.923 2
13608.383 -645.16754 14856.72 2
13623.981 -641.7431 14777.862 0
13731.09 -642.64539 14798.64 256
13543.834 -629.84692 14503.922 256
13465.011 -622.22107 14328.315 256
13533.135 -621.4389 14310.303 256
13734.803 -626.7605 14432.848 256
13920.008 -631.26935 14536.677 256
14094.771 -635.25208 14628.39 256
14398.063 -644.9433 14851.556 2
0 0 0 0
0 0 0 0
0 0 0 0
-7938.1675 -327.4631 8736.3955 256
-7792.4287 -323.56754 8632.4658 256
-7316.9321 -305.83698 8159.4321 256
-7259.6191 -305.46591 8149.5327 256
-7693.9482 -325.91583 8695.1162 256
-9275.249 -395.55664 10553.064 256
-7754.416 -332.94989 8882.7783 256
-7809.6392 -337.6196 9007.3613 256
-7768.0386 -338.13904 9021.2197 0
-7701.4658 -337.57114 9006.0684 0
-7394.7163 -326.39417 8707.8779 0
-8180.1719 -363.60806 9700.708 0
-7389.6577 -330.80127 8825.4551 0
-7428.6367 -334.92352 8935.4326 0
-7418.3247 -336.86685 8987.2783 0
-7376.7881 -337.41013 9001.7725 0
-7299.7812 -336.32706 8972.8779 0
-7252.1689 -336.59244 8979.957 0
-7199.3818 -336.61972 8980.6855 0
-8405.3037 -395.94016 10563.297 0
-8321.6973 -394.95175 10536.928 0
-7132.0303 -341.05621 9099.0469 0
-6988.502 -336.74603 8984.0557 0
-6935.3262 -336.75671 8984.3398 0
-6932.0566 -339.20959 9049.7812 0
-6883.2412 -339.45471 9056.3203 0
-6837.4639 -339.85471 9066.9922 0
-6786.7109 -340.01181 9071.1826 0
-6749.208 -340.84055 9093.293 0
-6713.1943 -341.75845 9117.7822 0
-6670.3252 -342.33948 9133.2832 256
-6643.187 -343.74402 9170.7549 256
-6596.751 -344.16501 9181.9863 256
-6561.6187 -345.18762 9209.2686 256
-6512.3486 -345.47751 9217.0029 256
-6456.2451 -345.40668 9215.1133 256
-6414.5229 -346.11063 9233.8936 256
-6387.2451 -347.61288 9273.9717 256
-6346.8525 -348.42126 9295.5391 256
-6301.8911 -348.99081 9310.7344 0
-6258.4722 -349.65665 9328.498 0
-6206.5469 -349.85492 9333.7881 0
-6153.4902 -349.9924 9337.4561 0
-6118.1328 -351.14822 9368.292 0
-5967.8608 -345.66925 9222.1182 0
-5921.106 -346.14017 9234.6816 0
-5880.0161 -346.95413 9256.3975 0
-5890.356 -350.8468 9360.25 0
-5898.1807 -354.66245 9462.0479 0
-5850.4209 -355.17706 9475.7773 256
-5808.0552 -356.03232 9498.5947 256
-5747.3384 -355.7684 9491.5537 256
-5715.6675 -357.31509 9532.8174 256
-5659.0752 -357.31915 9532.9258 256
-5620.3184 -358.46082 9563.3848 256
-5569.2227 -358.83087 9573.2568 256
-5519.8242 -359.319 9586.2803 256
-5473.7397 -360.03528 9605.3896 256
-5428.3213 -360.81094 9626.084 0
-5395.0288 -362.41772 9668.9512 0
-5345.2441 -362.93927 9682.8652 0
-5299.5298 -363.75153 9704.5361 0
-5264.5513 -365.32669 9746.5596 0
-5217.5449 -366.09302 9767.0039 0
-5170.0405 -366.84116 9786.9639 0
-5119.1235 -367.36145 9800.8447 0
-5073.3467 -368.26685 9825 0
-5028.8667 -369.28857 9852.2588 0
-4984.811 -370.36588 9881 0
-4940.8403 -371.47528 9910.5977 0
-4896.8379 -372.60904 9940.8447 0
-4853.9546 -373.85663 9974.1299 0
-4810.145 -375.0629 10006.312 0
-4767.1304 -376.36212 10040.974 0
-4723.0444 -377.60858 10074.229 0
-4675.7935 -378.63083 10101.501 0
-4630.0972 -379.80719 10132.885 0
-4585.3872 -381.0965 10167.282 0
-4541.6777 -382.50452 10204.848 0
-4499.0562 -384.04352 10245.906 0
-4454.8447 -385.48718 10284.422 0
-4411.6011 -387.05594 10326.274 0
-4366.3477 -388.49014 10364.537 0
-4320.1392 -389.87915 10401.595 0
-4274.52 -391.36243 10441.168 0
-4227.4521 -392.75488 10478.317 0
-4178.7681 -394.03656 10512.511 0
-4131.2563 -395.46939 10550.737 0
-4082.7114 -396.84592 10587.462 0
-4031.2859 -397.9812 10617.749 0
-3981.6221 -399.32922 10653.714 0
-3931.3792 -400.66183 10689.267 0
-3880.8579 -402.00937 10725.218 0
-3834.71 -403.86255 10774.658 0
-3785.2339 -405.42215 10816.268 0
-3731.8259 -406.60727 10847.885 0
-3678.5237 -407.84573 10880.927 0
-3625.8486 -409.19934 10917.039 0
-3570.3418 -410.27689 10945.787 0
-3515.0085 -411.41473 10976.143 0
-3457.1956 -412.2998 10999.757 0
-3399.386 -413.21954 11024.294 0
-3340.8718 -414.08801 11047.464 0
-3283.5063 -415.13657 11075.438 0
-3227.0051 -416.33954 11107.532 0
-3169.6799 -417.48413 11138.069 0
-3112.1533 -418.65057 11169.188 0
-3058.7188 -420.43033 11216.67 0
-2997.3557 -421.17523 11236.544 0
-2938.9343 -422.37686 11268.603 0
-2881.5303 -423.78421 11306.149 0
-2826.801 -425.66153 11356.233 0
-2765.3464 -426.5932 11381.09 0
-2703.0562 -427.43942 11403.666 0
-2643.1824 -428.72113 11437.861 0
-2581.8389 -429.82587 11467.334 0
-2519.8628 -430.88229 11495.519 0
-2460.0986 -432.38638 11535.646 65536
-2399.7358 -433.8685 11575.188 65536
-2339.7629 -435.51062 11618.998 65536
-2278.1501 -436.93814 11657.083 65536
-2218.8967 -438.92191 11710.009 0
-2157.2827 -440.55215 11753.501 0
-2095.6528 -442.28802 11799.813 0
-2033.3234 -443.99146 11845.258 0
-1969.5575 -445.4921 11885.294 0
-1909.802 -448.04529 11953.41 0
-1801.2198 -438.89822 11709.377 0
-1783.8008 -452.12222 12062.18 0
-1719.6095 -454.10239 12115.008 0
-1655.2404 -456.20654 12171.146 0
-1592.2942 -458.91315 12243.354 0
-1526.4681 -461.00925 12299.276 65536
-1463.3701 -464.18152 12383.909 65536
-1396.4149 -466.40149 12443.136 65536
-1329.8427 -469.00482 12512.59 65536
-1265.1516 -472.61923 12609.021 65536
-1198.5614 -475.93478 12697.476 65536
-1128.5312 -478.23813 12758.926 65536
-1058.5901 -480.9137 12830.308 65536
-988.85718 -484.10666 12915.493 65536
-918.7467 -487.63663 13009.669 65536
-847.9436 -491.41397 13110.444 65536
-773.74005 -493.78564 13173.719 65536
-699.41028 -496.60175 13248.85 0
-625.23962 -500.2597 13346.44 0
-549.61713 -503.65033 13436.898 0
-473.43716 -507.59592 13542.164 256
-395.2175 -510.52316 13620.26 256
-315.78067 -512.98114 13685.836 256
-235.54794 -515.40326 13750.455 256
-154.66252 -518.21191 13825.389 256
-72.896515 -521.09296 13902.252 256
9.776926 -523.64014 13970.207 256
93.356964 -526.74493 14053.041 66050
178.02983 -530.172 14144.472 256
261.6969 -529.36609 14122.971 256
346.41885 -530.56732 14155.018 256
432.03195 -532.39722 14203.838 256
518.61115 -534.62482 14263.268 0
606 -536.94391 14325.139 0
694.67505 -539.69086 14398.425 0
782.24152 -541.06848 14435.179 0
872.88989 -544.09479 14515.918 0
966.42865 -548.21631 14625.876 0
1058.7795 -551.03931 14701.191 0
1156.5067 -556.01678 14833.984 0
1256.6853 -561.38409 14977.181 0
1353.6893 -564.7171 15066.101 0
1449.6089 -567.21216 15132.666 0
1551.4596 -571.60089 15249.753 0
1661.5546 -578.37488 15430.478 0
1779.2062 -586.93311 15658.803 0
1883.4949 -590.45135 15752.666 0
2037.6572 -608.53082 16235.008 0
2197.8066 -626.68256 16719.279 0
2358.6455 -643.45203 17166.672 0
2488.8315 -650.81537 17363.119 0
2555.2305 -641.57654 17116.635 0
2709.4258 -654.24524 17454.625 0
2860.1702 -665.17719 17746.277 0
2885.3254 -647.16254 17265.664 256
2972.249 -643.76367 17174.986 2303265
3223.752 -675.05359 18009.77 0
3374.7542 -683.96368 18247.484 256
3632.8896 -713.35583 19031.637 256
0 0 0 0
0 0 0 0
0 0 0 0
0 0 0 0
0 0 0 0
0 0 0 0
0 0 0 0
0 0 0 0
0 0 0 0
0 0 0 0
0 0 0 0
0 0 0 0
0 0 0 0
0 0 0 0
0 0 0 0
0 0 0 0
0 0 0 0
0 0 0 0
0 0 0 0
0 0 0 0
0 0 0 0
0 0 0 0
0 0 0 0
0 0 0 0
0 0 0 0
0 0 0 0
0 0 0 0
0 0 0 0
0 0 0 0
0 0 0 0
7477.835 -747.17694 19933.951 0
7466.6211 -734.42078 19593.629 0
7475.7637 -724.02789 19316.357 65536
7555.4785 -720.68097 19227.064 0
7720.1836 -725.41974 19353.49 0
7715.6606 -714.3515 19058.199 657928
7896.8394 -720.54785 19223.514 0
7969.1992 -716.77991 19122.988 0
8078.8564 -716.42542 19113.531 0
8167.8945 -714.27765 19056.23 0
8220.9746 -709.08722 18917.754 0
8387.4736 -713.68744 19040.484 0
8547.0566 -717.58459 19144.457 65793
8599.2666 -712.48315 19008.355 0
8633.6504 -706.05615 18836.889 65536
8734.3779 -705.14972 18812.707 0
8891.3105 -708.74658 18908.666 65536
8996.9668 -708.21722 18894.545 65536
9083.1045 -706.18347 18840.285 65536
9140.0469 -701.95697 18727.527 65536
9197.3936 -697.86292 18618.301 65536
9259.9727 -694.25848 18522.139 65536
9310.3779 -689.83673 18404.17 65536
9344.7451 -684.34308 18257.605 65536
9330.4375 -675.45203 18020.4 0
9380.8184 -671.39246 17912.096 0
9579.2588 -677.90186 18085.76 2631974
9536.3623 -667.37744 17804.979 3552820
9004.0635 -623.21039 16626.645 1315602
9781.0059 -669.63678 17865.256 65536
9529.2461 -645.39435 17218.492 65536
9570.0938 -641.27423 17108.57 65536
9639.6787 -639.14606 17051.793 65536
9765.0303 -640.72125 17093.816 0
9775.3154 -634.79175 16935.625 256
9690.9404 -622.89874 16618.33 256
9665.4453 -614.99213 16407.389 256
10154.639 -639.66492 17065.635 592394
10217.091 -637.23407 17000.783 3685179
10516.731 -649.49927 17328.006 0
10277.125 -628.54639 16769.004 256
11249.899 -681.43268 18179.959 256
10317.636 -619.01794 16514.795 256
11521.438 -684.72754 18267.861 256
10354.784 -609.6474 16264.797 0
10313.213 -601.5838 16049.668 0
10368.526 -599.26758 15987.873 0
10382.34 -594.61664 15863.791 0
10407.476 -590.69202 15759.086 257
10710.079 -602.44501 16072.646 768
12238.295 -682.3219 18203.682 2832183
10608.255 -586.25946 15640.83 6912633
11858.286 -649.64899 17332 8886166
12297.815 -667.92621 17819.619 10793650
11547.579 -621.82379 16589.652 6318956
11021.128 -588.45056 15699.287 3158325
10672.813 -565.06915 15075.492 2
10868.595 -570.6441 15224.228 8096137
12211.706 -635.86902 16964.365 3753542
0 0 0 0
0 0 0 0
0 0 0 0
0 0 0 0
13909.827 -695.57605 18557.291 6055526
13517.193 -670.62451 17891.607 7831423
12751.455 -627.69629 16746.324 6317158
10041.92 -490.48978 13085.788 526859
10959.747 -531.20618 14172.062 658702
11443.575 -550.42657 14684.843 0
11412.825 -544.79254 14534.532 1581599
11755.136 -556.91742 14858.013 8289919
12328.75 -579.73822 15466.849 0
12303.984 -574.29169 15321.541 256
12478.717 -578.16833 15424.966 0
12619.364 -580.42078 15485.06 197379
12886.778 -588.42883 15698.707 256
13126.087 -595.04785 15875.295 2
13327.975 -599.88794 16004.425 2
13432.588 -600.31219 16015.743 2
13599.268 -603.4848 16100.385 2
13531.28 -596.27209 15907.958 256
13624.599 -596.21838 15906.524 256
13551.036 -588.9129 15711.621 256
13819.874 -596.48596 15913.663 256
13621.257 -583.91718 15578.34 256
13429.953 -571.82947 15255.852 256
13469.94 -569.68591 15198.664 256
13559.774 -569.66498 15198.105 256
13674.429 -570.68024 15225.192 256
13740.621 -569.67291 15198.317 256
13704.724 -564.47388 15059.612 256
13712.543 -561.13129 14970.436 256
13698.194 -556.93048 14858.361 256
13752.952 -555.57513 14822.201 256
13711.414 -550.37177 14683.381 256
13670.144 -545.24481 14546.6 256
13634.646 -540.41119 14417.644 256
12871.716 -506.98618 13525.896 256
14004.289 -548.17194 14624.692 256
14205.268 -552.60907 14743.069 256
14365.862 -555.43036 14818.339 257
0 0 0 0
0 0 0 0
0 0 0 0
-7936.7524 -275.49054 8734.8379 256
-7813.6548 -273.00345 8655.9805 256
-7317.52 -257.36334 8160.0879 256
-7274.8794 -257.57074 8166.6636 256
-10002.736 -356.53064 11304.334 256
-9880.5977 -354.55865 11241.81 256
-7956.292 -287.45001 9114.0303 256
-7909.272 -287.71002 9122.2744 256
-7826.4995 -286.66412 9089.1123 0
-7775.1172 -286.76138 9092.1963 0
-7716.1934 -286.5799 9086.4424 0
-8074.3193 -301.99432 9575.1797 0
-9019.5068 -339.7406 10771.98 0
-8931.6738 -338.83728 10743.34 0
-8838.9727 -337.73492 10708.388 0
-9076.3262 -349.31937 11075.69 0
-7352.9399 -285.05902 9038.2207 0
-7198.6338 -281.13068 8913.667 0
-8613.459 -338.8783 10744.641 0
-8550.3896 -338.90958 10745.632 0
-7158.3896 -285.87045 9063.9482 0
-8482.6104 -341.32184 10822.117 0
-7034.0718 -285.19833 9042.6377 0
-6877.4521 -280.99509 8909.3672 0
-6904.8486 -284.30334 9014.2607 0
-6892.5059 -286.01434 9068.5107 0
-8273.8857 -346.04263 10971.796 0
-7821.1982 -329.70819 10453.889 0
-7543.7065 -320.55682 10163.73 0
-6758.4131 -289.50531 9179.1973 0
-6616.7104 -285.74185 9059.8711 256
-6646.6162 -289.38837 9175.4893 256
-6542.4268 -287.20847 9106.3721 256
-6412.6372 -283.85904 9000.1729 256
-6366.9087 -284.20554 9011.1592 256
-6323.5527 -284.66473 9025.7188 256
-6288.208 -285.49554 9052.0605 256
-6254.5093 -286.41599 9081.2451 256
-6277.7593 -289.98306 9194.3447 256
-6190.6001 -288.46802 9146.3076 0
-6134.1665 -288.37048 9143.2158 0
-6107.1201 -289.66513 9184.2637 0
-6091.3755 -291.52396 9243.2012 0
-6128.0483 -295.94812 9383.4756 0
-5930.7764 -289.05161 9164.8115 0
-5937.604 -292.06677 9260.4121 0
-5897.7134 -292.81882 9284.2568 0
-5840.3525 -292.7095 9280.79 0
-5796.2363 -293.26825 9298.5059 0
-5727.8979 -292.60037 9277.3301 256
-5702.6045 -294.13977 9326.1387 256
-5673.3525 -295.50317 9369.3682 256
-5691.1792 -299.37012 9491.9746 256
-5661.0303 -300.76556 9536.2197 256
-5621.9609 -301.71048 9566.1797 256
-5573.0264 -302.13989 9579.7949 256
-5523.8564 -302.56531 9593.2832 256
-5484.2964 -303.5314 9623.915 256
-5452.8384 -304.97104 9669.5605 0
-5402.0249 -305.34726 9681.4893 0
-5358.916 -306.17178 9707.6318 0
-5308.9922 -306.62067 9721.8643 0
-5264.5649 -307.40033 9746.585 0
-5213.3267 -307.79526 9759.1064 0
-5165.7134 -308.41553 9778.7725 0
-5119.5859 -309.13959 9801.7305 0
-5073.4243 -309.87823 9825.1504 0
-5028.937 -310.73755 9852.3965 0
-4984.834 -311.64111 9881.0449 0
-4941.5664 -312.61911 9912.0537 0
-4898.3301 -313.62268 9943.874 0
-4854.9277 -314.63998 9976.1289 0
-4813.0464 -315.78229 10012.348 0
-4769.3154 -316.83029 10045.576 0
-4725.4111 -317.89319 10079.276 0
-4683.1836 -319.09766 10117.466 0
-4633.4019 -319.81207 10140.117 0
-4592.4648 -321.16379 10182.977 0
-4549.0698 -322.37744 10221.456 0
-4504.9595 -323.5726 10259.351 0
-4460.6318 -324.7847 10297.782 0
-4414.5317 -325.89966 10333.134 0
-4367.9932 -327.01331 10368.443 0
-4319.8501 -328.0369 10400.898 0
-4274.0024 -329.26712 10439.904 0
-4226.7388 -330.42291 10476.55 0
-4178.6299 -331.54614 10512.163 0
-4130.7148 -332.71909 10549.354 0
-4082.512 -333.90466 10586.944 0
-4031.1509 -334.86505 10617.395 0
-3982.8926 -336.11774 10657.113 0
-3931.085 -337.10663 10688.467 0
-3878.3306 -338.04544 10718.233 0
-3830.9387 -339.49081 10764.062 0
-3779.0085 -340.57629 10798.479 0
-3731.7881 -342.13107 10847.774 0
-3678.8171 -343.20404 10881.795 0
-3623.7671 -344.11795 10910.771 0
-3569.7314 -345.16327 10943.915 0
-3513.7817 -346.05887 10972.312 0
-3457.447 -346.94971 11000.557 0
-3398.71 -347.62918 11022.101 0
-3340.7827 -348.41983 11047.169 0
-3283.583 -349.31955 11075.696 0
-3227.1917 -350.34387 11108.174 0
-3169.698 -351.28879 11138.134 0
-3112.2034 -352.2739 11169.368 0
-3055.3083 -353.37131 11204.163 0
-2998.0071 -354.46957 11238.985 0
-2939.3997 -355.45999 11270.388 0
-2881.9312 -356.63748 11307.722 0
-2825.5156 -358.00464 11351.069 0
-2765.103 -358.91986 11380.088 0
-2704.6331 -359.87329 11410.318 0
-2643.082 -360.72827 11437.427 0
-2581.9504 -361.68716 11467.829 0
-2520.2754 -362.61984 11497.401 65536
-2459.5996 -363.75226 11533.307 65536
-2399.2844 -365.00449 11573.011 65536
-2338.2864 -366.22366 11611.666 65536
-2277.6479 -367.57507 11654.515 65536
-2218.5405 -369.26602 11708.129 0
-2157.2549 -370.69223 11753.349 0
-2095.75 -372.17499 11800.361 0
-2033.2528 -373.578 11844.847 0
-1970.5216 -375.0372 11891.112 0
-1908.3871 -376.72269 11944.554 0
-1703.71 -349.31287 11075.484 0
-1782.0063 -380.0498 12050.045 0
-1718.1531 -381.77505 12104.746 0
-1654.504 -383.69849 12165.731 0
-1590.4188 -385.69189 12228.936 0
-1525.9174 -387.77042 12294.838 65536
-1461.2667 -390.01828 12366.109 65536
-1396.373 -392.43585 12442.763 65536
-1329.9054 -394.65677 12513.181 65536
-1262.8647 -396.96069 12586.229 65536
-1195.5389 -399.45944 12665.456 65536
-1126.9203 -401.83298 12740.713 65536
-1057.2638 -404.15176 12814.233 65536
-988.42712 -407.16824 12909.876 65536
-917.92365 -409.94806 12998.014 65536
-846.84827 -412.95996 13093.51 65536
-774.58826 -415.94519 13188.16 65536
-700.04059 -418.23587 13260.79 0
-626.28992 -421.64435 13368.86 0
-550.56317 -424.51962 13460.025 0
-473.58545 -427.24399 13546.406 256
-395.13568 -429.48431 13617.439 256
-316.43491 -432.5358 13714.19 256
-236.06592 -434.63318 13780.692 256
-155.27623 -437.7731 13880.247 256
-73.174316 -440.13812 13955.233 256
9.7833986 -440.90204 13979.455 256
92.047691 -437.00696 13855.955 256
175.49376 -439.75168 13942.981 256
261.57605 -445.22275 14116.449 256
345.93698 -445.81815 14135.327 256
431.54111 -447.46994 14187.7 256
518.19879 -449.49561 14251.927 0
605.55286 -451.47128 14314.569 0
694.64209 -454.09448 14397.741 0
782.38452 -455.35846 14437.817 0
873.86115 -458.33109 14532.069 0
965.80597 -460.99249 14616.452 0
1059.2278 -463.86136 14707.415 0
1155.7816 -467.55994 14824.684 0
1255.3004 -471.84903 14960.675 0
1319.402 -463.13846 14684.493 0
1449.9073 -477.37173 15135.781 0
1551.85 -481.08734 15253.59 0
1657.4792 -485.4726 15392.631 0
1764.1454 -489.68692 15526.252 0
1870.0026 -493.26883 15639.822 0
1984.6931 -498.73129 15813.018 0
2087.1541 -500.76553 15877.517 0
2295.7546 -526.9881 16708.941 0
2381.2698 -523.95349 16612.725 0
2578.533 -544.76959 17272.73 0
2681.2251 -544.77655 17272.951 0
2804.4897 -548.80884 17400.801 0
2882.79 -544.06824 17250.492 0
2984.3926 -543.89996 17245.158 1776921
0 0 0 0
3557.7581 -606.72113 19236.996 256
3799.1436 -627.7135 19902.592 256
0 0 0 0
0 0 0 0
0 0 0 0
0 0 0 0
0 0 0 0
0 0 0 0
0 0 0 0
0 0 0 0
0 0 0 0
0 0 0 0
0 0 0 0
0 0 0 0
0 0 0 0
0 0 0 0
0 0 0 0
0 0 0 0
0 0 0 0
0 0 0 0
0 0 0 0
0 0 0 0
0 0 0 0
0 0 0 0
0 0 0 0
0 0 0 0
0 0 0 0
0 0 0 0
0 0 0 0
0 0 0 0
0 0 0 0
0 0 0 0
0 0 0 0
0 0 0 0
7568.9048 -616.81451 19557.021 0
7485.189 -600.76636 19048.191 65536
7607.5952 -601.49347 19071.246 65536
7653.9087 -596.2713 18905.668 65536
7747.1523 -594.80334 18859.125 0
8167.0371 -618.09814 19597.723 3552820
8039.833 -599.91528 19021.207 460551
8125.8242 -597.92426 18958.078 0
8157.6846 -592.05896 18772.111 0
8365.3232 -598.93738 18990.201 0
8578.1787 -606.00116 19214.168 0
8994.1064 -627.03674 19881.133 592391
0 0 0 0
0 0 0 0
8975.4395 -602.00867 19087.58 65536
9035.7207 -598.48737 18975.932 65536
9116.8672 -596.41785 18910.314 65536
9147.9004 -591.1604 18743.619 65536
9224.3662 -588.92999 18672.902 0
9266.2344 -584.57001 18534.662 256
9424.7822 -587.58691 18630.316 256
9713.0908 -598.52972 18977.275 658696
9671.0371 -589.09772 18678.219 4145727
8594.4004 -517.57477 16410.479 0
9476.7441 -564.3075 17892.209 0
9714.9102 -572.07019 18138.338 131585
9839.6553 -573.05701 18169.625 65536
9567.1201 -551.13605 17474.588 65536
9562.3691 -544.94666 17278.344 65536
9620.5742 -542.43829 17198.814 0
9878.125 -551.10437 17473.584 723722
10264.545 -566.70502 17968.225 3487283
9943.8643 -543.34723 17227.633 256
9771.4814 -528.48633 16756.445 0
9761.1406 -522.60077 16569.836 0
9747.6201 -516.66431 16381.61 0
9944.043 -521.86304 16546.443 65536
9960.3301 -517.599 16411.246 65536
9989.4717 -514.07916 16299.645 65536
10048.251 -512.13751 16238.082 65536
10035.875 -506.64072 16063.798 0
10013.354 -500.74023 15876.714 0
10013.402 -496.06793 15728.571 0
10044.429 -493.00256 15631.38 0
10002.537 -486.44717 15423.532 0
10037.846 -483.73117 15337.417 256
10006.619 -477.88657 15152.105 512
10811.089 -511.70062 16224.23 1975843
