# .PCD v0.7 - Point Cloud Data file format
VERSION 0.7
FIELDS x y z rgb
SIZE 4 4 4 4
TYPE F F F U
COUNT 1 1 1 1
WIDTH 1420
HEIGHT 1
VIEWPOINT 0 0 0 1 0 0 0
POINTS 1420
DATA ascii
-4486.0239 1499.0437 9448.8809 0
-4441.7578 1503.0679 9474.2461 0
-4397.6016 1507.2329 9500.5 0
-4355.146 1512.097 9531.1592 0
-4312.3398 1516.9658 9561.8486 0
-4269.1865 1521.8409 9592.5781 0
-4223.5889 1525.9647 9618.5713 0
-4188.8896 1534.1935 9670.4395 0
-4141.189 1537.8231 9693.3184 0
-4092.1968 1541.0687 9713.7764 0
-4047.7849 1546.1569 9745.8477 0
-4003.3513 1551.3843 9778.7979 0
-3958.0681 1556.4315 9810.6123 0
-3912.6392 1561.5717 9843.0117 0
-3865.6948 1566.2538 9872.5244 0
-3817.6418 1570.6241 9900.0723 0
-3772.1042 1576.1825 9935.1074 0
-3726.053 1581.6995 9969.8828 0
-3678.1873 1586.6119 10000.848 0
-3630.0427 1591.5638 10032.061 0
-3582.7817 1597.0747 10066.797 0
-3536.5723 1603.2496 10105.719 0
-3487.7114 1608.4152 10138.279 0
-3440.6521 1614.6075 10177.312 0
-3395.5903 1621.976 10223.757 0
-3351.5554 1630.1122 10275.041 0
-3301.0574 1635.3486 10308.049 0
-3256.0095 1643.5342 10359.644 0
-3205.7749 1649.3668 10396.408 0
-3155.5681 1655.4431 10434.709 0
-3105.2561 1661.7067 10474.19 0
-3054.5327 1668.0022 10513.872 0
-3003.7114 1674.5059 10554.866 0
-2953.197 1681.4617 10598.711 0
-2902.8745 1688.8325 10645.171 0
-2849.1096 1694.4843 10680.796 0
-2794.0366 1699.5979 10713.029 0
-2739.4648 1705.2623 10748.732 0
-2685.321 1711.4697 10787.86 0
-2628.8215 1716.4426 10819.206 0
-2573.9683 1722.7671 10859.07 0
-2359.4404 1619.7971 10210.022 0
-2340.2566 1649.0382 10394.337 0
-2283.7615 1652.8611 10418.434 0
-2227.4749 1657.0521 10444.851 0
-2259.8948 1729.3654 10900.661 0
-2190.8809 1726.0347 10879.667 0
-2129.8501 1728.9822 10898.246 0
-2078.2234 1739.9882 10967.619 0
-2036.926 1760.635 11097.762 0
-1980.3264 1768.9946 11150.455 0
-1921.5814 1775.9502 11194.298 0
-1871.9839 1792.1621 11296.486 0
-1834.7375 1821.8445 11483.583 0
-1780.4871 1836.2839 11574.598 0
-1736.7864 1863.201 11744.265 0
-1683.9683 1882.1821 11863.907 0
-1625.9353 1896.739 11955.663 0
-1567.2413 1911.8196 12050.72 0
-1506.5953 1925.8495 12139.154 0
-1442.2648 1936.344 12205.304 0
-1380.9467 1952.2085 12305.302 0
-1319.5812 1969.7766 12416.039 0
-1260.6748 1993.3143 12564.403 0
-1198.6415 2014.5604 12698.323 0
-1133.7729 2033.5768 12818.188 0
-1061.6646 2041.4111 12867.571 0
-990.3042 2052.012 12934.392 0
-926.17383 2080.6396 13114.839 0
-856.4884 2100.9021 13242.559 0
-785.99261 2123.0769 13382.332 0
-712.87903 2142.3772 13503.986 0
-636.57782 2155.7798 13588.467 0
-559.09918 2168.5105 13668.713 0
-483.41107 2193.6948 13827.457 65536
-403.21854 2204.5686 13895.997 0
-320.81467 2205.8396 13904.008 0
-240.67796 2228.9893 14049.927 65793
-157.94542 2239.9233 14118.848 0
-74.547615 2255.5168 14217.138 328965
10.888564 2468.3403 15558.621 0
96.111511 2295.2654 14467.683 0
182.44724 2299.6682 14495.435 0
271.00012 2320.229 14625.036 0
362.14374 2347.5984 14797.552 0
515.88837 2690.7878 16960.77 0
596.48029 2602.5986 16404.889 0
631.19391 2367.1343 14920.693 0
724.02448 2380.7864 15006.745 0
824.78723 2414.6665 15220.301 0
941.1153 2482.9146 15650.487 0
1052.8479 2527.8518 15933.738 0
1162.2279 2560.1899 16137.575 0
1210.6293 2463.5125 15528.189 0
1327.5494 2510.0833 15821.739 0
1431.3898 2527.3984 15930.88 0
1666.7745 2760.4214 17399.688 0
1744.4126 2720.2288 17146.344 0
1850.4445 2726.3069 17184.654 0
1957.4863 2733.1589 17227.846 0
2014.4417 2672.8723 16847.842 0
2217.0186 2802.3645 17664.066 0
2308.3906 2785.9373 17560.521 0
2486.2114 2870.7505 18095.123 0
2444.6633 2705.7346 17054.982 0
2562.4165 2723.1523 17164.771 0
2691.6228 2750.9419 17339.936 256
2805.8735 2761.96 17409.387 256
2927.636 2779.3257 17518.848 256
3071.1248 2815.4163 17746.336 256
3238.8381 2870.5801 18094.049 256
3314.4746 2843.2134 17921.549 256
3412.6362 2836.272 17877.795 256
3625.6736 2922.3408 18420.311 0
3895.5254 3047.8149 19211.209 263171
0 0 0 0
0 0 0 0
4363.0952 3137.7332 19777.988 196608
4488.3911 3143.1592 19812.189 196608
0 0 0 0
4704.4429 3130.2178 19730.617 65536
4835.1714 3138.958 19785.707 65536
4942.8149 3132.6521 19745.959 0
5057.1396 3130.7747 19734.127 0
5160.7358 3122.4912 19681.912 65536
5260.9106 3112.5508 19619.256 131072
5362.5596 3103.895 19564.695 65536
5522.2891 3128.5103 19719.852 65536
5616.3276 3115.6602 19638.855 65536
5687.3574 3090.8293 19482.34 65536
5768.5312 3072.3921 19366.125 65536
6001.0933 3133.7305 19752.756 131072
6106.3735 3127.5239 19713.637 196608
6108.231 3069.5786 19348.391 196608
6084.3716 3001.0896 18916.686 196608
6119.6353 2963.7192 18681.129 262144
6214.7339 2956.1418 18633.367 262144
6341.5273 2963.6423 18680.645 393216
6442.7295 2959.1301 18652.203 393216
6568.2046 2965.731 18693.811 327680
6656.6094 2955.6521 18630.281 262144
6752.9941 2949.3884 18590.799 196608
6836.9399 2937.9812 18518.896 196608
7200.6816 3045.2649 19195.135 196608
6955.9951 2895.9028 18253.664 196608
6984.228 2863.0044 18046.297 196608
6970.6704 2814.2292 17738.854 196608
7057.0688 2806.6609 17691.148 196608
7149.9136 2801.8411 17660.768 196608
7256.2856 2802.3845 17664.193 196608
7296.9199 2777.8872 17509.779 196608
7396.4556 2776.1863 17499.059 196608
7373.8818 2729.3359 17203.748 196608
7404.0303 2703.0144 17037.836 196608
5455.6934 1964.856 12385.022 196608
7515.5068 2670.6604 16833.9 196608
7490.9312 2626.9561 16558.42 196608
7479.8198 2589.0461 16319.463 196608
7506.7148 2565.0935 16168.482 196608
7523.2222 2538.2415 15999.227 196608
7541.2305 2512.5598 15837.35 196608
7536.0708 2479.8877 15631.408 196608
7556.4395 2456.3096 15482.789 196608
7525.5591 2416.8403 15234.003 196608
7528.3857 2389.0056 15058.554 196608
7535.8574 2363.2817 14896.409 196608
7542.0503 2337.7588 14735.531 196608
7568.4893 2319.0254 14617.449 196608
7567.4819 2292.4031 14449.642 196608
7568.7222 2267.051 14289.841 262144
7556.3911 2238.2422 14108.25 393216
7521.4785 2203.45 13888.945 458752
7565.6729 2192.3364 13818.895 524288
7549.0615 2164.031 13640.477 524288
7556.4385 2143.1304 13508.735 524288
7552.3672 2119.4563 13359.512 458752
7566.3252 2101.2825 13244.955 655360
7629.7637 2097.082 13218.48 655360
7654.6499 2082.4795 13126.436 655360
7645.8872 2059.1096 12979.128 655360
7845.7036 2091.8176 13185.296 655360
7738.8701 2042.9285 12877.135 720896
7666.5381 2004.0155 12631.855 655360
7694.3628 1991.7837 12554.756 655360
7718.501 1978.8423 12473.182 655360
6579.3682 1670.7485 10531.184 655360
6631.5425 1668.1287 10514.669 720896
6623.9194 1650.656 10404.534 720896
6555.4731 1618.49 10201.783 851968
6597.9873 1614.0577 10173.846 917504
7808.1636 1892.7557 11930.555 917504
7818.0283 1878.0916 11838.123 917504
6819.0825 1623.5084 10233.416 917504
6871.1685 1621.4471 10220.424 851968
7361.3867 1721.9061 10853.643 851968
7051.7593 1635.1522 10306.81 720896
7966.9263 1831.4504 11544.131 720896
8024.4971 1828.9342 11528.271 720896
8067.5112 1823.171 11491.943 655360
8115.9761 1818.726 11463.925 589824
8177.1323 1817.1753 11454.151 524288
8230.4121 1813.9144 11433.597 458752
8285.2715 1811.0521 11415.555 524288
8326.8691 1805.3608 11379.682 458752
8366.0869 1799.2498 11341.162 458752
8398.9443 1791.8793 11294.703 393216
8593.0957 1818.7644 11464.167 393216
8396.1104 1763.0918 11113.248 262144
8363.2852 1742.4912 10983.396 196608
8364.3076 1729.2072 10899.664 196608
8332.8232 1709.4586 10775.184 0
8310.6758 1691.9122 10664.584 0
8330.376 1683.0864 10608.952 0
8356.5068 1675.6826 10562.284 0
8403.4316 1672.5281 10542.399 131072
8485.4824 1676.3593 10566.549 196608
8487.6191 1664.4629 10491.563 196608
8546.5547 1663.7971 10487.366 196608
8594.6094 1661.0382 10469.977 196608
8634.7881 1656.8077 10443.311 131072
8672.6641 1652.199 10414.261 131072
8696.1064 1644.9254 10368.413 131072
8979.2188 1686.5266 10630.637 196608
9424.5752 1757.8074 11079.938 196608
8727.3691 1616.4745 10189.079 0
8752.7373 1610.0016 10148.279 0
8781.3223 1604.2053 10111.743 0
8816.9834 1599.7715 10083.795 65536
8882.7432 1600.8215 10090.415 196608
8908.7334 1594.7389 10052.074 196608
8929.1455 1587.7452 10007.991 262144
8900.5166 1572.1815 9909.8887 393216
8874.7998 1557.3335 9816.2979 393216
8867.5068 1545.8914 9744.1748 458752
8882.6455 1538.4828 9697.4766 458752
8912.7949 1533.7528 9667.6621 458752
8910.6182 1523.5563 9603.3906 393216
8981.0156 1525.8197 9617.6572 393216
8967.7695 1513.9335 9542.7354 262144
8583.3428 1439.9281 9076.2598 262144
8726.7842 1454.8484 9170.3057 196608
9154.1064 1516.6156 9559.6416 196608
8785.167 1446.5133 9117.7676 196608
8872.0596 1451.8649 9151.5 196608
0 0 0 0
0 0 0 0
0 0 0 0
0 0 0 0
-6957.5938 1268.608 7707.6348 256
-6919.5571 1270.0347 7716.3022 256
-6874.9917 1270.2739 7717.7563 256
-6912.1533 1285.7184 7811.5913 256
-6966.7827 1304.6428 7926.5698 256
-6741.4575 1271.042 7722.4224 256
-6737.4258 1278.9894 7770.7085 0
-7661.9263 1464.5298 8897.9893 256
-6647.7031 1279.4985 7773.8018 256
-6771.1577 1312.3812 7973.5864 256
-6656.3145 1299.2153 7893.5947 256
-6618.2593 1300.9569 7904.1758 256
-6556.3394 1297.9985 7886.2017 256
-6483.7466 1292.8695 7855.0396 256
-6540.5312 1313.6512 7981.3022 256
-6310.1196 1276.6324 7756.3882 256
-6461.7241 1316.925 8001.1929 256
-6474.5137 1329.3146 8076.4668 256
-6494.7559 1343.4307 8162.2314 256
-6110.9897 1273.5616 7737.7314 256
-5425.022 1139.1753 6921.2451 66307
-5389.8838 1140.4443 6928.9551 329992
-5994.3291 1278.104 7765.3291 256
-5818.6597 1250.2743 7596.2446 256
-5767.0391 1248.8723 7587.7271 256
-5584.5649 1218.8882 7405.5537 0
-5574.7778 1226.418 7451.3018 0
-5544.6655 1229.5609 7470.3975 0
-5526.502 1235.4258 7506.0308 0
-5529.2427 1246.0972 7570.8662 256
-5504.1753 1250.6252 7598.3774 256
-5471.3867 1253.4595 7615.5972 256
-5475.082 1264.7689 7684.3091 256
-5760.9575 1342.0017 8153.5498 256
-5762.7012 1353.7958 8225.2061 256
-5402.3672 1280.0029 7776.8657 256
-5356.6206 1280.1162 7777.5542 256
-5348.001 1289.1812 7832.6299 256
-5308.9424 1291.0033 7843.7012 0
-5277.8179 1294.8044 7866.7949 0
-5234.9395 1295.7639 7872.6245 0
-5191.397 1296.575 7877.5522 0
-5173.7773 1303.934 7922.2627 0
-5139.9932 1307.3169 7942.8169 0
-5102.3169 1309.7634 7957.6812 0
-5168.8472 1339.2557 8136.8662 0
-5042.3647 1318.823 8012.7236 0
-5026.7275 1327.2683 8064.0352 0
-5185.2559 1382.3063 8398.4268 256
-5253.8169 1414.1969 8592.1836 256
-5204.4165 1414.6498 8594.9346 256
-6141.208 1685.8325 10242.551 256
-6097.5073 1690.5944 10271.481 256
-6040.9834 1691.8612 10279.178 256
-5973.2529 1689.983 10267.768 256
-5916.9326 1691.3279 10275.938 256
-5872.792 1696.2185 10305.652 0
-5817.6699 1698.0071 10316.519 0
-5763.6558 1700.1606 10329.603 0
-5715.6113 1704.1403 10353.782 0
-4972.769 1498.7944 9106.1699 0
-4838.522 1474.3788 8957.8281 0
-4796.2261 1477.7505 8978.3135 0
-5011.3135 1561.392 9486.4912 0
-4735.8848 1492.3661 9067.1133 0
-4682.292 1492.4604 9067.6865 0
-4681.8496 1509.6958 9172.4023 0
-4720.3369 1540.0385 9356.7539 0
-4712.145 1555.6934 9451.8682 0
-5183.3896 1731.9197 10522.56 0
-4551.7544 1539.4459 9353.1543 0
-5080.7021 1739.5861 10569.139 0
-4584.7437 1589.4255 9656.8135 0
-4422.8916 1552.7532 9434.0049 0
-4376.4424 1556.174 9454.7881 0
-4335.0405 1561.5017 9487.1582 0
-4292.8857 1566.6954 9518.7129 0
-4248.7095 1571.2798 9546.5664 0
-4206.7759 1576.8293 9580.2832 0
-4168.9844 1584.1047 9624.4863 0
-4121.1074 1587.6971 9646.3125 0
-4075.1729 1592.1499 9673.3662 0
-4031.0518 1597.4487 9705.5596 0
-3986.8857 1602.8832 9738.5781 0
-3942.2329 1608.2792 9771.3623 0
-3896.5818 1613.4233 9802.6162 0
-3849.9773 1618.3229 9832.3838 0
-3803.1445 1623.2759 9862.4775 0
-3755.8384 1628.1788 9892.2656 0
-3709.8872 1633.8345 9926.627 0
-3660.9319 1638.3284 9953.9307 0
-3614.0366 1643.9071 9987.8252 0
-3566.437 1649.3463 10020.872 0
-3519.0559 1655.0731 10055.666 0
-3472.2488 1661.2725 10093.331 0
-3426.1958 1668.0568 10134.551 0
-3381.9036 1675.9565 10182.547 0
-3331.4126 1681.0164 10213.289 0
-3286.6323 1689.199 10263.003 0
-3239.7458 1696.5881 10307.897 0
-3190.6614 1703.0891 10347.395 0
-3140.7266 1709.3823 10385.631 0
-3090.5454 1715.7915 10424.57 0
-3040.6409 1722.6196 10466.056 0
-2990.114 1729.3728 10507.086 0
-2941.1516 1737.3384 10555.481 0
-2889.4387 1743.9908 10595.9 0
-2836.1355 1749.9586 10632.158 0
-2781.8679 1755.5898 10666.371 0
-2727.7292 1761.5668 10702.686 0
-2673.6536 1767.871 10740.988 0
-2618.1655 1773.5269 10775.351 0
-2564.0137 1780.3939 10817.073 0
-2509.5415 1787.3864 10859.557 0
-2412.1863 1763.3986 10713.815 0
-2399.3855 1801.5988 10945.906 0
-2338.6309 1804.9178 10966.072 0
-2284.542 1813.7194 11019.548 0
-2227.3372 1820.4935 11060.705 0
-2170.4302 1827.9307 11105.891 0
-2114.6111 1836.7792 11159.651 0
-2056.3708 1844.0299 11203.704 0
-1997.8948 1851.547 11249.375 0
-1941.6887 1861.7614 11311.435 0
-1885.0812 1872.3097 11375.522 0
-1828.4346 1883.6025 11444.134 0
-1773.5968 1897.7034 11529.806 0
-1733.0304 1928.8212 11718.867 0
-1681.7172 1950.0831 11848.048 0
-1624.0964 1965.5702 11942.142 0
-1564.946 1980.5365 12033.072 0
-1513.4581 2007.0979 12194.45 0
-1451.3021 2021.4722 12281.783 0
-1390.297 2039.0566 12388.621 0
-1327.9921 2056.595 12495.178 0
-1264.2018 2073.7747 12599.555 0
-1203.2559 2098.0769 12747.208 0
-1136.6918 2115.1909 12851.187 0
-1063.1842 2120.9192 12885.99 0
-992.86865 2134.3987 12967.887 0
-929.01379 2165.2048 13155.054 0
-861.42773 2192.1772 13318.93 0
-789.56885 2212.6343 13443.22 0
-716.25635 2233.166 13567.964 0
-639.22162 2245.8293 13644.902 0
-560.29108 2254.5444 13697.852 0
-485.09467 2283.8025 13875.614 0
-406.29987 2304.6357 14002.188 256
-323.95001 2310.8413 14039.894 256
-269.7962 2592.2678 15749.745 592650
-200.62483 2951.7751 17933.99 3554106
-93.281876 2928.0737 17789.988 1843487
11.704559 2752.7192 16724.594 2895662
112.55363 2788.6204 16942.717 0
187.00978 2445.4827 14857.929 0
278.7417 2475.9153 15042.826 0
375.33823 2524.283 15336.691 0
477.70447 2584.9697 15705.404 0
566.56989 2564.7026 15582.269 0
654.56549 2546.7458 15473.17 0
750.61658 2560.6943 15557.916 0
852.3233 2588.7612 15728.439 0
957.87842 2621.8132 15929.253 0
1068.8906 2662.5127 16176.529 0
1293.6157 2956.3689 17961.9 2565925
1388.0797 2930.4236 17804.266 197378
1340.4268 2629.3777 15975.212 0
1434.8033 2628.334 15968.871 0
1564.7661 2688.5637 16334.808 0
1688.0819 2731.0032 16592.654 0
1794.3235 2742.6592 16663.473 0
1880.9498 2724.6819 16554.248 0
1988.999 2737.9817 16635.053 0
2091.4255 2742.6482 16663.406 0
2203.8679 2759.4338 16765.389 0
2329.147 2790.1448 16951.979 0
2450.8147 2814.1619 17097.898 0
2596.3303 2862.5601 17391.949 0
2721.502 2885.6807 17532.422 256
2848.8721 2909.3411 17676.176 256
2988.2053 2943.1016 17881.293 256
3108.0471 2956.0051 17959.689 256
3241.9268 2980.9592 18111.303 256
3355.449 2986.1926 18143.1 256
3493.9414 3012.6304 18303.727 256
3678.0813 3075.6428 18686.568 0
3829.6592 3108.5305 18886.383 0
0 0 0 0
4175.0498 3201.2261 19449.57 0
4231.6558 3157.2144 19182.17 131072
4398.2051 3195.3877 19414.1 0
4629.0918 3277.1575 19910.904 0
4637.502 3201.2742 19449.863 0
4813.5444 3241.9851 19697.209 65536
4955.625 3258.4319 19797.133 65536
5059.3052 3249.4521 19742.576 65536
5196.8301 3262.1245 19819.568 0
5328.71 3270.7703 19872.096 65536
5455.667 3276.0847 19904.387 65536
5557.4414 3266.3728 19845.379 65536
5657.8745 3256.2925 19784.135 65536
5741.0435 3236.8887 19666.244 65536
0 0 0 0
6005.7617 3253.6567 19768.121 65536
0 0 0 0
6159.5747 3211.3411 19511.025 196608
6084.9053 3113.7913 18918.346 196608
6135.7842 3082.8613 18730.426 262144
6221.209 3070.0815 18652.781 262144
6368.6655 3087.8254 18760.586 262144
6471.6392 3083.7625 18735.9 262144
6565.1846 3075.4199 18685.215 393216
6661.9419 3068.835 18645.207 262144
6808.0884 3084.8442 18742.473 262144
6925.2344 3087.4092 18758.057 196608
6941.4375 3045.603 18504.057 196608
6874.0898 2969.0144 18038.73 196608
6999.7031 2976.8408 18086.281 262144
6986.8564 2926.4368 17780.043 196608
7084.6255 2923.1755 17760.229 262144
7155.7812 2909.1904 17675.26 262144
7291.2925 2921.395 17749.412 262144
7316.9062 2889.8474 17557.738 196608
7489.9316 2916.5889 17720.211 196608
7387.2324 2836.7102 17234.895 196608
5505.2422 2085.1101 12668.427 196608
5504.2651 2056.6125 12495.285 196608
7495.3638 2763.2842 16788.783 196608
7558.1025 2749.8071 16706.9 196608
7447.1895 2674.3203 16248.27 196608
7500.0264 2658.8169 16154.076 196608
7514.8433 2630.3977 15981.409 196608
7511.9883 2596.5791 15775.938 196608
7496.9102 2559.4214 15550.182 196608
7513.2817 2533.7749 15394.361 196608
7493.5327 2496.7107 15169.172 196608
7493.772 2467.1084 14989.318 65536
7494.8691 2438.4805 14815.386 0
7506.4355 2413.8845 14665.948 196608
7502.8037 2385.0215 14490.587 196608
7498.4771 2356.5955 14317.88 196608
7471.9663 2321.9136 14107.165 262144
7462.4614 2293.2275 13932.878 393216
7455.5986 2265.9739 13767.294 458752
7527.7085 2263.0535 13749.551 524288
7498.7764 2230.146 13549.615 524288
7473.667 2199.0625 13360.763 655360
7477.7627 2177.1357 13227.543 655360
7494.2822 2159.2444 13118.842 655360
7571.8643 2159.1343 13118.171 655360
7595.7124 2143.8594 13025.367 720896
7598.2412 2122.9365 12898.247 720896
7822.4492 2163.75 13146.215 720896
7667.1357 2099.8154 12757.771 720896
7615.3179 2065.2004 12547.461 720896
7631.4463 2049.5042 12452.097 655360
7634.8491 2030.7247 12337.999 655360
7681.2026 2023.6182 12294.821 589824
6705.1021 1749.8175 10631.301 655360
6693.6245 1730.5148 10514.024 786432
6630.1343 1698.2463 10317.973 851968
6617.7847 1679.5488 10204.372 851968
7777.7935 1956.0251 11884.149 917504
7792.105 1941.9889 11798.87 917504
6764.7544 1670.9099 10151.886 917504
6884.002 1685.3326 10239.513 851968
6934.6465 1682.8542 10224.455 851968
7043.3535 1694.3868 10294.523 720896
7922.311 1889.4208 11479.483 720896
7982.9019 1887.6152 11468.514 720896
8057.4297 1889.1078 11477.582 655360
8085.0337 1879.6664 11420.219 655360
8142.1821 1877.1934 11405.194 524288
8190.8735 1872.8276 11378.67 458752
8255.6943 1872.1912 11374.802 524288
8291.3535 1865.0059 11331.146 458752
8343.0693 1861.5186 11309.959 524288
8389.5732 1856.9335 11282.102 458752
8982.5 1972.4064 11983.676 458752
8443.0879 1839.3759 11175.428 393216
8360.7324 1807.2174 10980.044 262144
8357.2051 1792.4641 10890.408 196608
8342.4268 1775.5431 10787.602 196608
8305.2803 1754.156 10657.66 65536
8340.4619 1748.2533 10621.798 65536
8374.9814 1742.3014 10585.636 65536
8402.0186 1734.8934 10540.627 65536
8441.4004 1730.125 10511.656 65536
8459.5 1721.0968 10456.805 65536
8540.3545 1724.8748 10479.758 65536
9106.9492 1825.9918 11094.11 65536
8612.1768 1714.3749 10415.964 196608
8637.2295 1707.0912 10371.71 196608
8651.2734 1697.7502 10314.958 65536
8687.8613 1692.9337 10285.694 65536
10589.896 2049.1494 12449.94 65536
10313.467 1981.8129 12040.826 65536
8693.3945 1658.9917 10079.475 65536
8705.6484 1649.9606 10024.604 65536
8749.0752 1646.9198 10006.13 65536
8802.959 1645.8755 9999.7842 196608
8830.5049 1639.9536 9963.8057 131072
8845.8252 1631.8555 9914.6035 327680
8830.1709 1618.1882 9831.5654 393216
8783.9863 1599.1423 9715.8496 458752
8219.8623 1486.6694 9032.502 458752
8683.5498 1560.3428 9480.1162 458752
8724.5332 1557.6006 9463.4561 458752
8807.0498 1562.261 9491.7705 458752
8718.3701 1536.6871 9336.3926 393216
8818.8887 1544.5736 9384.3086 393216
8964.9287 1560.2838 9479.7588 393216
8656.4258 1497.1816 9096.3711 327680
9098.7158 1563.9114 9501.7979 327680
8441.21 1441.9479 8760.7891 196608
8461.5127 1436.5548 8728.0225 196608
0 0 0 0
0 0 0 0
0 0 0 0
0 0 0 0
-7094.0908 1340.204 7858.8467 256
-7037.2725 1338.2812 7847.5718 256
-7003.7886 1340.7999 7862.3413 256
-6965.5869 1342.4432 7871.9775 256
-6950.6729 1348.6274 7908.2407 256
-6856.5703 1339.4261 7854.2856 256
-6872.7808 1351.7961 7926.8223 0
-6804.2725 1347.5587 7901.9741 256
-6787.5591 1353.5913 7937.3486 256
-6754.0254 1356.3306 7953.4116 256
-6658.2778 1346.5269 7895.9238 256
-6597.5386 1343.714 7879.4287 256
-6602.1738 1354.2709 7941.333 256
-6560.8359 1355.4814 7948.4326 256
-6498.6592 1352.3732 7930.2056 256
-6529.165 1368.6477 8025.6377 256
-6490.4419 1370.5431 8036.7524 256
-6455.2153 1373.2104 8052.394 256
-6239.686 1337.2756 7841.6748 256
-6050.8472 1306.563 7661.5786 256
-5843.3936 1271.3348 7455.0034 256
-5412.9971 1186.6925 6958.668 0
-6030.2749 1332.197 7811.8945 256
-6196.1299 1379.4584 8089.0308 256
-5956.5732 1336.4951 7837.0981 256
-6026.9609 1362.946 7992.2041 256
-5804.9111 1323.1597 7758.8999 256
-5858.5815 1346.0864 7893.3408 256
-5858.7866 1356.9998 7957.3354 0
-5799.0825 1354.1017 7940.3418 256
-5816.0923 1369.2161 8028.9712 256
-5845.2046 1387.4532 8135.9121 256
-5855.563 1401.506 8218.3164 256
-5804.0962 1400.8729 8214.6045 256
-5785.105 1408.134 8257.1826 256
-6883.0493 1689.7152 9908.3516 256
-5785.1699 1432.453 8399.7871 256
-5695.7524 1422.5886 8341.9434 256
-5673.2866 1429.42 8382.002 0
-5737.8848 1458.5029 8552.542 0
-5710.9546 1464.6326 8588.4854 0
-5683.8237 1470.8207 8624.7725 0
-5654.2983 1476.4963 8658.0537 0
-5614.4849 1479.5648 8676.0469 0
-5581.606 1484.5348 8705.1904 0
-5541.6543 1487.6989 8723.7441 0
-5503.1655 1491.3191 8744.9736 0
-5465.8062 1495.3174 8768.4189 0
-5431.3579 1500.1968 8797.0312 256
-5392.7188 1504.0023 8819.3467 256
-5352.6182 1507.4708 8839.6855 256
-5314.6147 1511.6046 8863.9258 256
-5275.8672 1515.6074 8887.3975 256
-5178.4155 1502.6565 8811.4551 256
-5197.4541 1523.5892 8934.2021 256
-5151.9609 1525.8419 8947.4121 256
-5110.3984 1529.3177 8967.7939 0
-5068.8677 1532.8765 8988.6621 0
-5026.9297 1536.3866 9009.2451 0
-4985.7578 1540.2089 9031.6592 0
-4948.2095 1545.246 9061.1963 0
-4902.772 1547.9033 9076.7783 0
-4856.6279 1550.3939 9091.3828 0
-4818.064 1555.3878 9120.667 0
-4776.0391 1559.3655 9143.9912 0
-4733.9365 1563.4088 9167.7012 0
-4693.0176 1567.9419 9194.2822 0
-4650.1401 1571.9197 9217.6084 0
-4608.8188 1576.5247 9244.6113 0
-4563.9048 1579.9968 9264.9717 0
-4521.1128 1584.2976 9290.1914 0
-4479.3579 1589.0725 9318.1914 0
-4430 1591.2361 9330.8779 0
-4388.0713 1596.1567 9359.7324 0
-4352.6846 1603.6141 9403.4629 0
-4310.1602 1608.6016 9432.708 0
-4268.7769 1614.1521 9465.2559 0
-4225.1748 1619.0006 9493.6865 0
-4184.0117 1624.9272 9528.4404 0
-4151.3281 1634.3552 9583.7256 0
-4102.2959 1637.5197 9602.2812 0
-4054.8401 1641.4113 9625.1016 0
-4011.4963 1647.1028 9658.4756 0
-3967.0925 1652.5179 9690.2295 0
-3922.3804 1657.9624 9722.1553 0
-3876.7324 1663.1682 9752.6816 0
-3832.2957 1669.0592 9787.2266 0
-3785.8547 1674.2458 9817.6406 0
-3741.6072 1680.58 9854.7832 0
-3691.9705 1684.6565 9878.6875 0
-3644.0686 1689.6689 9908.0811 0
-3597.1516 1695.3103 9941.1611 0
-3550.9966 1701.5054 9977.4883 0
-3504.165 1707.5809 10013.115 0
-3456.2456 1713.3276 10046.812 0
-3410.9102 1720.5792 10089.336 0
-3364.6885 1727.6356 10130.714 0
-3315.6279 1733.465 10164.896 0
-3269.7688 1741.2155 10210.345 0
-3223.2844 1748.9199 10255.522 0
-3174.781 1755.8047 10295.895 0
-3125.2229 1762.365 10334.364 0
-3075.7124 1769.2161 10374.538 0
-3025.3198 1775.8297 10413.319 0
-2977.375 1784.1862 10462.321 0
-2927.7285 1791.8578 10507.308 0
-2876.0503 1798.5933 10546.804 0
-2823.2102 1804.8861 10583.704 0
-2769.8992 1811.1576 10620.48 0
-2716.3442 1817.5586 10658.015 0
-2663.8374 1824.9834 10701.553 0
-2609.9363 1831.7927 10741.482 0
-2555.5134 1838.568 10781.212 0
-2500.1479 1844.9962 10818.907 0
-2443.7058 1850.9485 10853.811 0
-2389.4185 1858.8998 10900.437 0
-2336.5754 1868.4495 10956.435 0
-2272.4026 1869.2267 10960.992 0
-2219.2524 1879.3846 11020.558 0
-2162.0291 1886.606 11062.903 0
-2104.7834 1894.2603 11107.787 0
-2047.1635 1902.0626 11153.539 0
-1990.7981 1911.5917 11209.417 0
-1934.3215 1921.6703 11268.517 0
-1878.2805 1932.9197 11334.483 0
-1820.9696 1943.651 11397.41 0
-1767.7859 1959.787 11492.03 0
-1724.8904 1989.0836 11663.823 0
-1675.4055 2012.9174 11803.582 0
-1617.0208 2027.6737 11890.112 0
-1558.0477 2043.0076 11980.029 0
-1503.9233 2066.4724 12117.625 0
-1453.9812 2098.3335 12304.455 0
-1396.7661 2122.5168 12446.266 0
-1334.4235 2141.1777 12555.691 0
-1264.2375 2148.7188 12599.911 0
-1197.0238 2162.5791 12681.187 0
-1137.8531 2193.8093 12864.318 0
-1070.2615 2212.1333 12971.768 0
-998.47821 2223.9658 13041.153 0
-927.35498 2239.384 13131.564 0
-858.76514 2264.3154 13277.761 0
-786.41089 2283.3628 13389.453 0
-712.44769 2301.5015 13495.816 0
-641.6698 2335.8376 13697.161 0
-563.64508 2349.939 13779.85 65792
-540.3028 2635.573 15454.784 592135
-424.6879 2495.9233 14635.89 0
-324.43915 2397.9004 14061.092 0
-242.59467 2415.0776 14161.817 256
-209.89638 3199.7 18762.779 460807
-100.96036 3283.5332 19254.369 1184787
12.90591 3144.8594 18441.197 328966
120.68561 3098.0696 18166.826 1
200.09875 2711.1306 15897.848 0
298.85852 2750.4595 16128.469 0
399.51086 2783.8738 16324.409 0
498.37073 2794.1807 16384.846 0
596.59357 2798.1296 16408.004 0
680.1748 2741.9458 16078.546 0
780.35059 2758.2598 16174.209 0
882.20404 2776.2747 16279.847 0
987.8327 2801.4348 16427.385 0
1094.1605 2823.8735 16558.963 0
1205.6547 2854.8418 16740.559 0
1392.3876 3045.6631 17859.52 0
1409.8984 2865.5203 16803.176 0
1423.3333 2701.4724 15841.213 0
1533.3079 2729.6443 16006.411 0
1661.4799 2785.0278 16331.175 0
1781.8165 2821.8882 16547.322 0
1877.386 2817.7205 16522.883 0
1985.6874 2832.126 16607.355 0
2084.3481 2832.0686 16607.018 0
2211.9604 2869.5747 16826.951 0
2337.8638 2901.7151 17015.42 0
2476.9175 2946.8354 17280.002 0
2611.5247 2983.2834 17493.73 0
2742.353 3012.7891 17666.748 256
2870.2954 3037.0649 17809.1 256
3009.7576 3071.3696 18010.26 256
3134.7996 3089.1077 18114.275 256
3277.1392 3122.1482 18308.021 256
3388.3523 3124.3633 18321.01 256
3533.6511 3156.8916 18511.754 256
3688.0457 3195.3364 18737.191 0
3854.5273 3241.6931 19009.023 0
4011.8035 3277.8882 19221.268 65536
4098.2998 3255.8484 19092.027 65536
4192.5527 3240.9924 19004.914 196608
4344.2275 3270.1409 19175.838 196608
4465.5127 3275.5073 19207.307 196608
4579.1187 3275.1147 19205.004 196608
4714.73 3290.0964 19292.855 262144
4825.1738 3287.2214 19275.996 262144
4977.7964 3312.5479 19424.51 196608
5135.0586 3339.7441 19583.986 196608
5299.4409 3370.2629 19762.945 65536
5392.8232 3355.2834 19675.107 65536
5590.3179 3404.3413 19962.779 65536
0 0 0 0
5797.1016 3386.5195 19858.273 65536
5802.417 3321.9915 19479.887 131072
5986.5938 3360.3862 19705.029 196608
6186.0479 3405.7188 19970.855 196608
6296.751 3401.4023 19945.545 196608
6119.5337 3244.5898 19026.008 196608
6168.2925 3211.106 18829.662 196608
6257.5273 3199.5112 18761.672 196608
6382.1426 3206.0964 18800.287 196608
6478.5898 3198.5481 18756.023 262144
6581.0063 3194.1519 18730.246 262144
6673.666 3185.2454 18678.02 262144
6754.1909 3170.9336 18594.094 262144
6825.8096 3152.9683 18488.748 262144
7031.0151 3196.3013 18742.848 262144
6889.0684 3082.928 18078.037 262144
6936.5054 3056.4863 17922.986 262144
7000.5479 3038.0515 17814.885 262144
7077.7524 3025.7925 17743 262144
7151.9209 3012.6145 17665.725 393216
7229.0791 3001.0591 17597.965 393216
7277.7559 2978.1782 17463.793 262144
7401.584 2986.2612 17511.191 196608
7440.6167 2960.3833 17359.445 196608
7505.6221 2945.4053 17271.615 196608
6191.2061 2396.8132 14054.717 196608
7475.4893 2855.4739 16744.266 196608
7522.5391 2835.696 16628.289 196608
7444.6904 2769.9597 16242.816 196608
7512.1123 2759.2654 16180.107 131072
7521.2441 2727.7021 15995.021 196608
7515.9746 2691.7688 15784.312 196608
7516.4868 2658.7664 15590.788 196608
7483.4448 2614.843 15333.227 196608
7410.5464 2558.2183 15001.183 196608
7439.1919 2537.5771 14880.146 262144
7414.8027 2499.5432 14657.116 262144
7407.666 2468.1404 14472.974 196608
7413.1406 2441.6125 14317.417 196608
7378.2095 2402.5295 14088.236 196608
7400.7451 2382.8262 13972.698 393216
7374.8955 2348.1545 13769.386 393216
7357.5967 2316.9365 13586.326 458752
7453.6772 2321.7126 13614.332 524288
7428.4634 2289.0098 13422.566 524288
7402.2676 2256.7029 13233.121 655360
7413.0249 2236.2227 13113.027 655360
7438.2402 2220.4846 13020.739 655360
7522.542 2222.5278 13032.721 655360
7527.1299 2201.2175 12907.76 655360
7545.2998 2184.2695 12808.378 720896
7751.9902 2221.689 13027.803 720896
7621.3965 2162.6602 12681.663 720896
7554.0718 2122.5652 12446.548 720896
7583.5811 2110.1924 12373.996 720896
7608.6953 2096.8462 12295.734 720896
7626.6978 2081.8127 12207.579 720896
7634.4487 2064.2905 12104.83 720896
7649.3032 2048.9983 12015.158 720896
7684.5015 2039.3878 11958.804 851968
7803.1284 2051.8921 12032.127 917504
7761.4697 2022.4037 11859.209 917504
7763.229 2004.6572 11755.146 917504
6805.0376 1741.5555 10212.339 851968
6865.7246 1741.5533 10212.326 851968
6882.0322 1730.3926 10146.881 851968
6949.2212 1732.1082 10156.94 720896
7958.6826 1966.6348 11532.186 720896
8006.1128 1961.4631 11501.859 720896
8057.0024 1957.2192 11476.974 655360
8081.9092 1946.788 11415.805 655360
8141.5376 1944.8246 11404.292 524288
8187.7451 1939.7139 11374.323 524288
8245.3184 1937.3575 11360.506 524288
8294.6328 1933.1149 11335.628 458752
8347.542 1929.7716 11316.022 458752
8398.6377 1926.0656 11294.291 393216
8402.0771 1911.5762 11209.326 393216
8426.7148 1902.0997 11153.757 196608
8388.6006 1878.7169 11016.643 196608
8384.8555 1863.3345 10926.44 65536
8354.7021 1842.3646 10803.476 65536
8297.3027 1815.7522 10647.423 0
8336.9297 1810.6151 10617.299 0
8366.5273 1803.3932 10574.95 0
8376.5889 1792.0994 10508.725 0
8403.7217 1784.5981 10464.737 0
8433.123 1777.6849 10424.199 0
8491.2031 1776.8744 10419.446 0
8529.748 1772.017 10390.963 65536
8571.335 1767.8568 10366.567 65536
8588.4375 1758.7422 10313.12 65536
8616.4395 1751.9727 10273.425 65536
8386.9121 1693.3041 9929.3965 65536
10330.461 2071.1299 12144.937 65536
10669.195 2124.1997 12456.134 65536
10218.271 2020.4033 11847.479 65536
8770.1338 1722.2032 10098.858 65536
8673.1777 1691.587 9919.3281 65536
8739.9111 1693.0939 9928.1641 196608
8778.2266 1689.1125 9904.8174 196608
8827.834 1687.3428 9894.4395 262144
8736.6973 1658.8724 9727.4922 393216
8532.5205 1609.4542 9437.708 393216
8453.3623 1584.109 9289.0859 393216
8452.2422 1573.6221 9227.5908 458752
8592.6445 1589.4486 9320.3965 458752
8580.0605 1576.9546 9247.1328 393216
8660.5586 1581.6187 9274.4824 393216
8665.1592 1572.4508 9220.7227 327680
8845.0732 1595.012 9353.0195 262144
8851.2441 1586.1564 9301.0908 262144
8891.7979 1583.5338 9285.7129 262144
8872.8027 1570.4041 9208.7207 262144
8973.1846 1578.4344 9255.8105 262144
0 0 0 0
0 0 0 0
0 0 0 0
0 0 0 0
-7086.4858 1385.4249 7850.4209 256
-7003.8145 1378.3375 7810.2607 256
-6978.2192 1382.4631 7833.6382 256
-6979.7544 1392.0548 7887.9888 256
-7014.1523 1408.3748 7980.4648 256
-6964.9136 1408.0094 7978.3945 256
-6944.2407 1413.4532 8009.2417 0
-6963.0845 1427.0712 8086.4067 256
-6915.7646 1427.2239 8087.272 256
-6910.3018 1436.0774 8137.4399 256
-6864.6377 1436.6425 8140.6416 256
-6886.6562 1451.4806 8224.7217 256
-6748.9697 1432.6299 8117.9048 256
-6712.7339 1435.198 8132.457 256
-6689.3105 1440.5626 8162.855 256
-6615.7822 1435.1365 8132.1084 256
-6585.8838 1439.1644 8154.9326 256
-6540.0161 1439.7368 8158.1763 256
-6431.8833 1426.5083 8083.2173 256
-6231.1655 1392.3917 7889.8979 256
-6127.4194 1379.5912 7817.3643 256
-6176.0088 1401.1553 7939.5562 256
-6234.7329 1425.3687 8076.7593 256
-6169.6479 1421.433 8054.4585 256
-6223.3486 1445.0171 8188.0962 256
-6178.7119 1445.9597 8193.4375 256
-6151.6958 1451.0737 8222.416 256
-6113.2017 1453.5404 8236.3936 256
-6077.2017 1456.6449 8253.9844 256
-7140.498 1725.4346 9777.0635 256
-7035.3096 1713.9646 9712.0703 256
-7048.4614 1731.374 9810.7197 256
-6994.9097 1732.5522 9817.3955 256
-6944.0288 1734.4176 9827.9648 256
-5917.1699 1490.4752 8445.6816 256
-5968.0918 1516.1636 8591.2432 256
-5917.3638 1516.2487 8591.7256 256
-5753.0054 1486.9658 8425.7959 256
-6724.7983 1753.4054 9935.5586 0
-6659.0635 1751.6471 9925.5957 0
-6613.5811 1755.2324 9945.9111 0
-6580.5059 1762.2046 9985.4189 0
-6536.2344 1766.2786 10008.504 0
-5530.8452 1508.3201 8546.7988 0
-5561.6987 1530.7935 8674.1426 0
-5517.7808 1532.9147 8686.1621 0
-5476.21 1535.7341 8702.1387 0
-5441.8237 1540.6416 8729.9463 0
-5406.417 1545.3517 8756.6357 256
-5367.7949 1549.2255 8778.5859 256
-5329.5381 1553.2815 8801.5693 256
-5290.8364 1557.287 8824.2666 256
-5244.7715 1559.184 8835.0156 256
-5127.4517 1539.7222 8724.7363 256
-5111.46 1550.6014 8786.3828 256
-5044.876 1546.1991 8761.4375 256
-5015.6733 1553.2815 8801.5693 0
-4983.3955 1559.5508 8837.0938 0
-4944.9917 1564.0159 8862.3955 0
-4880.8735 1560.3568 8841.6621 0
-4925.3359 1591.7078 9019.3096 0
-4883.3042 1595.4891 9040.7363 0
-4841.1611 1599.3177 9062.4307 0
-4800.9673 1603.8835 9088.3027 0
-4754.9302 1606.5792 9103.5771 0
-4714.5293 1611.2629 9130.1172 0
-4673.8486 1615.9591 9156.7275 0
-4632.0459 1620.3733 9181.7412 0
-4585.75 1623.3025 9198.3389 0
-4544.5981 1628.145 9225.7783 0
-4504.3164 1633.4214 9255.6768 0
-4461.8564 1638.0288 9281.7842 0
-4419.3369 1642.729 9308.418 0
-4380.9575 1649.1069 9344.5586 0
-4332.7988 1651.9204 9360.501 0
-4290.4316 1657.0439 9389.5322 0
-4247.3774 1662.0336 9417.8057 0
-4204.3091 1667.1508 9446.8027 0
-4163.8975 1673.4741 9482.6338 0
-4131.5845 1683.2708 9538.1455 0
-4083.0293 1686.6306 9557.1836 0
-4038.8962 1691.9375 9587.2549 0
-3994.3066 1697.2024 9617.0879 0
-3949.239 1702.4142 9646.6201 0
-3904.5481 1707.9441 9677.9551 0
-3858.739 1713.1432 9707.415 0
-3811.6008 1717.901 9734.375 0
-3766.8865 1723.9146 9768.4512 0
-3726.6421 1732.1942 9815.3672 0
-3675.9956 1735.8254 9835.9424 0
-3630.7629 1742.1716 9871.9033 0
-3582.2705 1747.1365 9900.0361 0
-3535.4363 1753.0894 9933.7676 0
-3487.999 1758.9403 9966.9219 0
-3442.96 1766.2235 10008.192 0
-3396.6072 1773.0774 10047.028 0
-3348.4705 1779.2285 10081.884 0
-3301.7012 1786.3435 10122.2 0
-3252.7502 1792.5206 10157.202 0
-3207.0906 1800.7791 10203.999 0
-3158.571 1807.7192 10243.324 0
-3109.4399 1814.5753 10282.174 0
-3061.2075 1822.2412 10325.612 0
-3011.5 1829.3248 10365.751 0
-2964.0496 1838.1039 10415.497 0
-2913.7734 1845.4677 10457.224 0
-2864.5186 1853.8136 10504.516 0
-2814.761 1862.1987 10552.029 0
-2761.9321 1868.8878 10589.933 0
-2708.2139 1875.2732 10626.114 0
-2654.4448 1881.9272 10663.819 0
-2600.9944 1889.1384 10704.681 0
-2544.949 1894.7791 10736.644 0
-2489.2393 1900.9661 10771.702 0
-2433.7212 1907.6302 10809.464 0
-2378.7778 1915.1183 10851.895 0
-2324.6797 1923.7233 10900.654 0
-2264.8276 1927.9233 10924.454 0
-2208.8254 1935.7456 10968.777 0
-2152.9873 1944.1917 11016.637 0
-2096.1226 1952.2117 11062.081 0
-2038.0981 1959.6356 11104.148 0
-1981.3949 1968.8694 11156.472 0
-1924.985 1979.0442 11214.126 0
-1867.7703 1989.0916 11271.06 0
-1811.519 2000.9509 11338.26 0
-1757.1699 2015.9088 11423.018 0
-1711.7759 2042.7555 11575.143 0
-1661.8636 2066.2329 11708.176 0
-1611.842 2091.6206 11852.033 0
-1577.1899 2140.1843 12127.217 0
-1513.2512 2151.7554 12192.783 0
-1460.6354 2181.4006 12360.766 0
-1389.8732 2185.6499 12384.844 0
-1356.4773 2252.4207 12763.197 0
-1288.5508 2266.3677 12842.227 0
-1197.2683 2238.4048 12683.777 0
-1119.7172 2234.0811 12659.276 0
-1049.9244 2245.729 12725.279 0
-978.79065 2256.0942 12784.013 0
-906.50616 2265.3289 12836.34 0
-838.05286 2286.7144 12957.52 0
-769.76202 2312.916 13105.989 0
-693.97925 2319.9719 13145.971 0
-627.12195 2362.4412 13386.621 258
-621.36572 2680.8723 15190.989 461325
-538.836 2720.0217 15412.828 2040613
-452.96085 2754.8628 15610.252 1317915
-392.24313 3000.0686 16999.695 527627
-298.46021 3074.7812 17423.049 592650
-205.95859 3249.0933 18410.777 263429
-96.139488 3235.7151 18334.971 460808
12.988463 3275.2793 18559.158 256
122.3294 3249.7087 18414.266 256
210.34903 2949.3376 16712.232 0
303.35355 2889.1267 16371.051 0
406.84839 2933.8066 16624.227 0
502.83566 2917.4668 16531.639 0
599.63586 2910.4143 16491.676 0
675.10913 2816.3733 15958.799 0
769.80634 2815.8196 15955.66 0
869.99341 2833.2656 16054.517 0
976.86926 2866.8931 16245.065 0
1073.197 2866.2996 16241.702 0
1170.8751 2869.113 16257.644 0
1281.7245 2901.3115 16440.096 0
1364.5922 2870.0962 16263.215 0
1454.9825 2857.7856 16193.459 0
1567.3704 2887.5283 16361.994 0
1680.3663 2914.8508 16516.814 0
1789.3213 2932.5344 16617.018 0
1882.218 2923.4265 16565.408 0
1992.5436 2940.949 16664.697 0
2086.2227 2933.4055 16621.953 0
2177.5122 2923.3359 16564.895 0
2295.6982 2948.6846 16708.531 0
2430.1133 2991.9119 16953.477 0
2549.4722 3013.8982 17078.061 0
2664.2871 3029.0354 17163.834 256
2779.5669 3043.5649 17246.164 256
2913.3276 3076.5771 17433.227 256
3047.0615 3107.2952 17607.287 256
3208.0393 3162.8328 17921.988 256
3321.8247 3169.769 17961.291 256
3471.594 3209.5408 18186.656 256
3642.2129 3265.6047 18504.338 66049
3983.5374 3466.9504 19645.25 3487540
0 0 0 0
0 0 0 0
0 0 0 0
4476.3965 3487.0679 19759.244 131585
4598.2935 3490.4536 19778.432 1381649
0 0 0 0
0 0 0 0
4984.8984 3514.3923 19914.078 657927
5088.5308 3504.2527 19856.621 65536
5145.4673 3463.144 19623.682 65536
5233.3022 3444.1929 19516.297 65536
5355.8623 3448.4219 19540.26 65536
5489.4351 3459.4111 19602.531 65536
5564.7202 3433.9749 19458.396 65536
5616.3188 3395.2546 19238.992 65536
5754.1895 3409.1936 19317.977 131072
5969.9761 3467.8469 19650.332 196608
6119.4526 3486.4705 19755.861 196608
6203.8022 3467.9863 19651.121 196608
6121.1025 3358.5286 19030.885 196608
6199.8076 3339.9954 18925.867 196608
6256.5928 3310.5242 18758.871 196608
6350.8608 3301.5706 18708.137 196608
6446.8403 3293.7998 18664.105 262144
6597.5098 3313.7615 18777.215 262144
6710.3672 3314.3828 18780.736 262144
6752.3486 3280.5493 18589.021 262144
6818.5654 3259.3906 18469.127 262144
6930.2598 3260.2966 18474.26 196608
6859.7388 3176.7896 18001.072 196608
6919.6455 3155.321 17879.424 262144
6978.3403 3133.958 17758.371 262144
7078.9927 3131.7937 17746.107 262144
7131.2544 3108.5994 17614.678 327680
7227.4692 3104.958 17594.045 327680
7238.2275 3065.2319 17368.939 262144
7374.6406 3079.0869 17447.447 196608
7400.8174 3047.1694 17266.59 196608
7498.5762 3045.1948 17255.4 196608
7460.8115 2988.9795 16936.859 196608
7465.6426 2951.0989 16722.211 196608
7518.6865 2933.0208 16619.773 196608
7543.7471 2904.6372 16458.939 65536
7566.7563 2876.2002 16297.804 65536
7528.7119 2825.5686 16010.903 131072
7517.2578 2786.0559 15787.006 196608
7476.7842 2736.8945 15508.437 196608
7461.6294 2698.0857 15288.529 196608
7447.0127 2660.4028 15075.001 0
7380.7349 2605.3799 14763.217 0
7352.9712 2565.0852 14534.891 196608
7325.3789 2525.7859 14312.203 196608
7331.1084 2498.7458 14158.982 262144
7332.832 2470.97 14001.592 458752
7310.5176 2435.8079 13802.349 589824
7247.123 2387.8904 13530.827 786432
7263.2236 2366.9309 13412.061 786432
7352.104 2369.886 13428.806 720896
7334.3574 2338.7761 13252.525 655360
7313.7554 2307.4272 13074.888 655360
7362.7915 2298.4763 13024.168 655360
7375.2544 2278.4133 12910.481 655360
7473.4072 2284.9626 12947.594 655360
7456.1357 2256.448 12786.017 720896
7498.4302 2246.353 12728.814 720896
7680.8735 2278.0259 12908.286 720896
7559.8032 2219.9451 12579.175 655360
7511.6621 2184.2078 12376.672 720896
7525.6348 2167.0493 12279.446 720896
7536.4844 2149.3303 12179.041 655360
7565.7192 2137.1416 12109.975 655360
7600.4897 2126.7314 12050.986 655360
7627.2959 2114.3081 11980.59 786432
6832.4165 1876.4478 10632.77 851968
6681.6719 1818.2301 10302.884 851968
7736.4214 2086.1326 11820.936 917504
7743.79 2069.3274 11725.711 851968
7788.4038 2062.6863 11688.079 851968
6801.251 1785.3243 10116.426 851968
6839.0469 1779.5144 10083.504 917504
6921.8696 1785.4194 10116.964 720896
7910.416 2022.8319 11462.247 720896
7966.1641 2019.6942 11444.467 720896
8065.4873 2027.564 11489.061 655360
8069.8843 2011.6384 11398.819 655360
8126.1416 2008.7982 11382.726 524288
8173.4165 2003.8025 11354.418 524288
8230.4229 2001.2551 11339.983 524288
8292.0439 1999.8622 11332.09 458752
8335.6494 1994.1815 11299.9 458752
8407.0771 1995.1942 11305.64 393216
8416.8418 1981.6731 11229.023 393216
8434.5645 1970.2239 11164.146 262144
8393.3574 1945.2953 11022.89 196608
8390.04 1929.4663 10933.196 65536
8386.2461 1913.7717 10844.265 65536
8319.5801 1884.0787 10676.011 0
8333.0488 1872.8451 10612.356 0
8358.0811 1864.3597 10564.274 0
8361.916 1851.3077 10490.316 0
8394.0361 1844.6653 10452.677 0
8421.9258 1837.1971 10410.359 0
8457.3848 1831.4774 10377.948 0
8493.0654 1825.8877 10346.275 0
8525.751 1819.7395 10311.437 0
8550.6074 1812.0198 10267.693 0
8551.2695 1799.3184 10195.722 0
8565.4727 1789.6252 10140.797 0
8541.2373 1772.0927 10041.448 65536
8828.9678 1819.079 10307.694 65536
8787.8584 1798.1321 10189 65536
9682.0361 1967.5365 11148.919 65536
8579.2881 1731.5909 9811.9482 65536
8662.0498 1736.4916 9839.7178 131072
8712.8477 1734.9618 9831.0488 196608
8730.9668 1726.9884 9785.8682 196608
8601.0947 1690.0414 9576.5107 327680
8605.3311 1679.7583 9518.2422 393216
8500.0586 1648.3729 9340.3994 393216
8377.3818 1614.0417 9145.8633 393216
8528.5869 1632.5808 9250.9141 393216
8428.459 1603.0793 9083.7451 393216
8491.9287 1604.8712 9093.8994 393216
8602.4268 1615.472 9153.9688 327680
8568.332 1598.9568 9060.3857 196608
8728.8936 1618.7465 9172.5225 262144
8676.9268 1599.1223 9061.3232 196608
8724.7764 1598.0225 9055.0908 196608
8896.1787 1619.427 9176.3789 196608
0 0 0 0
0 0 0 0
0 0 0 0
0 0 0 0
-7257.2314 1466.5881 8039.5737 256
-7177.9946 1460.1895 8004.4971 256
-7085.7144 1451.0342 7954.3101 256
-7121.0195 1468.059 8047.6362 256
-7043.9648 1461.9932 8014.3848 256
-7015.2065 1465.937 8036.0049 256
-6955.8247 1463.4922 8022.6025 0
-6942.7832 1470.8304 8062.8296 256
-6897.167 1471.322 8065.5239 256
-6869.1426 1475.5995 8088.9722 256
-6830.1772 1477.5702 8099.7759 256
-6777.4062 1476.5613 8094.2446 256
-6727.4346 1476.1521 8092.002 256
-6659.2646 1471.7151 8067.6792 256
-6618.4019 1473.2925 8076.3262 256
-6532.4346 1464.7791 8029.6567 256
-6554.5806 1480.5613 8116.1724 256
-6552.2983 1491.0187 8173.4976 256
-6437.0059 1475.7239 8089.6543 256
-6410.228 1480.6442 8116.6265 256
-6273.5742 1460.0675 8003.8286 256
-6293.6396 1475.9286 8090.7764 256
-6282.7695 1484.7233 8138.9873 256
-6247.6406 1487.8773 8156.2773 256
-7307.2207 1753.8248 9614.1533 256
-7509.874 1816.6697 9958.6582 256
-7451.7954 1816.9403 9960.1416 256
-7387.2358 1815.6222 9952.916 256
-7304.5029 1809.7802 9920.8906 256
-7147.6421 1785.3273 9786.8447 256
-7034.6338 1771.5166 9711.1377 256
-5941.6943 1508.6621 8270.2158 256
-5910.2847 1513.2048 8295.1182 256
-5882.6489 1518.7983 8325.7812 256
-5817.7822 1514.7931 8303.8242 256
-5805.8335 1524.6152 8357.668 256
-5747.0195 1522.1938 8344.3945 256
-5761.8926 1539.4175 8438.8115 0
-5733.4482 1545.2689 8470.8877 0
-5706.6484 1551.6711 8505.9834 0
-5674.8936 1556.8285 8534.2549 0
-5643.96 1562.306 8564.2822 0
-5610.1553 1567.0814 8590.46 0
-5571.7896 1570.6587 8610.0703 0
-5535.2651 1574.8263 8632.916 0
-5498.3257 1578.9525 8655.5352 0
-5457.1782 1581.937 8671.8955 0
-5418.9697 1585.8386 8693.2832 0
-5384.5674 1590.9397 8721.2461 256
-5351.2383 1596.4598 8751.5078 256
-5313.3745 1600.7228 8774.876 256
-5274.0151 1604.6149 8796.2119 256
-5233.1504 1608.1224 8815.4395 256
-5192.5786 1611.7919 8835.5547 256
-5153.1489 1615.8944 8858.0439 256
-5110.0518 1618.9196 8874.6279 256
-5072.2412 1623.7003 8900.835 0
-5009.77 1620.6044 8883.8633 0
-4988.187 1630.8104 8939.8105 0
-4948.5698 1635.2765 8964.293 0
-4911.6143 1640.7289 8994.1826 0
-4869.5181 1644.5653 9015.2129 0
-4826.8613 1648.2957 9035.6621 0
-4786.8472 1653.0225 9061.5732 0
-4744.8013 1657.147 9084.1836 0
-4706.3511 1662.6372 9114.2793 0
-4663.9126 1666.8297 9137.2617 0
-4620.8813 1670.9066 9159.6113 0
-4577.0317 1674.7812 9180.8516 0
-4531.4077 1678.0922 9199.001 256
-4480.8369 1679.6298 9207.4297 256
-4452.3721 1689.5944 9262.0537 256
-4409.999 1694.4644 9288.75 0
-4369.3037 1700.1105 9319.7021 0
-4320.4336 1702.6801 9333.7881 0
-4276.1953 1707.1656 9358.377 0
-4236.6777 1713.6788 9394.0811 0
-4193.0508 1718.6818 9421.5059 0
-4150.5645 1724.2936 9452.2695 0
-4118.2505 1734.3439 9507.3623 0
-4071.2021 1738.382 9529.499 0
-4028.7939 1744.5436 9563.2754 0
-3983.7368 1749.7178 9591.6396 0
-3938.9583 1755.1664 9621.5078 256
-3893.8682 1760.6348 9651.4844 256
-3846.9771 1765.4399 9677.8262 256
-3801.168 1770.8953 9707.7305 256
-3755.6616 1776.6619 9739.3428 256
-3749.9739 1801.7406 9876.8193 256
-3665.1658 1788.9976 9806.9648 256
-3619.1936 1795.1055 9840.4463 256
-3572.0518 1800.824 9871.7949 0
-3523.3289 1805.9232 9899.748 0
-3476.8665 1812.374 9935.1104 0
-3432.6482 1820.2378 9978.2178 0
-3385.2947 1826.6862 10013.566 0
-3336.947 1832.8193 10047.188 0
-3291.4846 1840.7896 10090.879 0
-3240.939 1846.16 10120.319 0
-3195.6677 1854.795 10167.654 0
-3148.0654 1862.3839 10209.255 0
-3099.1543 1869.4813 10248.162 0
-3050.1711 1876.819 10288.386 0
-3003.3987 1885.8452 10337.866 0
-2955.0833 1894.2592 10383.99 0
-2906.3865 1902.7825 10430.713 0
-2858.3809 1912.1398 10482.008 0
-2807.1221 1919.6892 10523.393 0
-2753.6116 1926.0078 10558.03 0
-2699.2341 1932.0005 10590.881 0
-2644.6831 1938.1522 10624.604 0
-2589.3027 1943.9822 10656.562 0
-2534.4556 1950.515 10692.374 0
-2480.3662 1957.9817 10733.306 0
-2425.6255 1965.3152 10773.507 0
-2371.6885 1973.715 10819.553 0
-2316.4451 1981.4658 10862.041 0
-2256.9685 1985.936 10886.546 0
-2200.1685 1993.0946 10925.788 0
-2144.0493 2001.3245 10970.902 0
-2088.1233 2010.2563 11019.865 0
-2031.2476 2018.8226 11066.824 0
-1974.7919 2028.3938 11119.292 0
-1918.2007 2038.4835 11174.603 0
-1862.1987 2049.9463 11237.438 0
-1805.8777 2061.897 11302.95 0
-1750.6949 2076.1213 11380.925 0
-1701.8602 2099.3193 11508.093 0
-1650.4371 2121.1335 11627.675 0
-1617.0448 2169.04 11890.29 0
-1567.6254 2198.8447 12053.674 0
-1515.8361 2228.0203 12213.609 0
-1453.4996 2243.8489 12300.379 0
-1387.5087 2255.4138 12363.774 0
-1328.2363 2279.8035 12497.476 0
-1298.9277 2361.5596 12945.647 0
-1198.2869 2315.7573 12694.567 0
-1122.2263 2314.4944 12687.644 0
-1054.5569 2331.6021 12781.426 0
-979.80737 2334.4966 12797.293 0
-903.26624 2333.2505 12790.462 0
-839.80774 2368.675 12984.652 0
-768.65491 2387.3708 13087.14 0
-697.95306 2411.8347 13221.247 0
-625.81171 2436.9004 13358.652 2
-615.23785 2743.8281 15041.176 592653
-601.8808 3140.5908 17216.156 517
-505.80887 3179.8809 17431.537 1975338
-409.16818 3234.9143 17733.223 530202
-310.89606 3310.7629 18149.01 4609625
-205.19925 3346.1326 18342.9 1186589
-97.975449 3408.5591 18685.111 259
13.084731 3410.6758 18696.715 330253
121.65047 3340.5083 18312.068 1382939
218.2054 3162.5295 17336.422 1185302
312.67514 3078.1936 16874.107 0
397.36517 2961.9233 16236.733 0
494.62582 2966.4822 16261.725 0
588.00549 2950.0793 16171.808 0
667.44531 2878.1738 15777.634 0
762.65039 2883.5928 15807.34 0
859.19122 2892.3193 15855.177 0
963.21259 2922.0142 16017.959 0
1059.0408 2923.7476 16027.461 0
1155.3378 2926.3826 16041.906 0
1272.4694 2977.3655 16321.385 0
1346.9277 2928.3499 16052.689 0
1442.2982 2928.2764 16052.287 0
1575.7644 3000.7585 16449.621 0
1683.1001 3017.9177 16543.686 0
1796.5541 3043.5483 16684.188 0
1892.4563 3038.3179 16655.516 0
1988.9702 3034.5413 16634.812 0
2075.7134 3016.9209 16538.221 0
2165.2241 3004.7344 16471.416 0
2276.6658 3022.7195 16570.008 0
2405.321 3061.1206 16780.516 0
2530.5325 3092.2554 16951.191 0
2643.7966 3106.9656 17031.83 256
2757.4209 3120.9985 17108.756 256
2893.3801 3158.4143 17313.861 256
3037.5671 3201.9329 17552.424 256
3192.9089 3253.9297 17837.461 256
3320.5732 3275.2844 17954.523 256
3478.8567 3324.5708 18224.703 256
3630.8762 3365.0754 18446.742 256
4025.9739 3621.8855 19854.529 66049
0 0 0 0
0 0 0 0
0 0 0 0
4509.3306 3631.0229 19904.619 131843
4527.8896 3552.7622 19475.607 922132
0 0 0 0
0 0 0 0
0 0 0 0
0 0 0 0
5177.5156 3602.0708 19745.908 65536
5224.7676 3554.3792 19484.471 65536
5336.2539 3551.5059 19468.721 65536
5448.0239 3548.9399 19454.654 0
5545.959 3537.6553 19392.793 65536
5643.9619 3526.8726 19333.686 65536
5725.293 3506.3101 19220.965 65536
0 0 0 0
6115.5723 3601.6013 19743.334 131072
6177.813 3569.762 19568.797 196608
6037.7139 3424.3406 18771.623 196608
6123.7993 3410.1514 18693.84 131072
6224.2026 3404.2986 18661.756 65536
6312.6294 3392.2153 18595.518 0
6664.6084 3519.7354 19294.561 723722
6579.189 3415.8491 18725.074 196608
