# .PCD v0.7 - Point Cloud Data file format
VERSION 0.7
FIELDS x y z rgb
SIZE 4 4 4 4
TYPE F F F U
COUNT 1 1 1 1
WIDTH 1487
HEIGHT 1
VIEWPOINT 0 0 0 1 0 0 0
POINTS 1487
DATA ascii
1261.7228 -653.0058 15037.217 0
1354.791 -654.7926 15078.362 0
1449.8862 -657.27649 15135.561 0
1545.3916 -659.64532 15190.108 0
1652.3962 -666.39014 15345.427 0
1757.7568 -671.80096 15470.026 0
1862.0535 -676.28748 15573.34 0
1977.4042 -684.17377 15754.942 0
2088.1812 -689.836 15885.331 256
2197.3208 -694.49084 15992.521 256
2312.7495 -700.66498 16134.697 256
2491.7258 -724.83331 16691.238 256
2569.2114 -718.758 16551.338 256
2721.8293 -733.37457 16887.924 256
2821.7529 -733.25836 16885.248 256
2940.9475 -737.98596 16994.113 256
3016.8577 -731.89862 16853.936 256
3309.8882 -777.18384 17896.75 256
3415.1797 -776.93933 17891.119 256
3542.4922 -781.56775 17997.703 0
3705.8289 -793.6402 18275.701 0
3835.8472 -798.09253 18378.229 0
4023.9788 -814.05475 18745.803 197378
4177.5698 -822.35748 18936.996 0
4372.8101 -838.20831 19302.004 0
4412.1011 -824.11963 18977.572 723723
4580.6675 -834.27808 19211.498 131586
4696.7275 -834.61206 19219.189 329221
4629.7051 -803.1687 18495.121 256
5004.9819 -848.13519 19530.596 256
0 0 0 0
5292.7568 -857.14282 19738.02 5000779
0 0 0 0
0 0 0 0
0 0 0 0
0 0 0 0
0 0 0 0
0 0 0 0
0 0 0 0
0 0 0 0
0 0 0 0
0 0 0 0
0 0 0 0
0 0 0 0
0 0 0 0
0 0 0 0
6278.2407 -763.05157 17571.316 6977400
6860.4419 -820.16907 18886.6 7766659
7297.2153 -858.34143 19765.621 258
7365.7485 -852.67603 19635.16 3225142
7245.3364 -825.65552 19012.941 395015
7284.3584 -817.35461 18821.791 3685178
7290.6152 -805.68402 18553.043 1
7436.9014 -809.60522 18643.34 65536
7594.9688 -814.67493 18760.082 2
7742.4072 -818.4743 18847.574 259
7871.5376 -820.25757 18888.639 461578
0 0 0 0
0 0 0 0
8165.5659 -815.98486 18790.248 256
8173.2324 -805.73126 18554.133 0
8191.1802 -796.75092 18347.334 0
8339.2822 -800.5 18433.668 0
8319.835 -788.27734 18152.207 0
8308.7529 -777.14984 17895.967 0
8358.3447 -771.90704 17775.238 0
8377.1426 -763.98669 17592.85 256
8474.375 -763.32666 17577.65 256
9191.0049 -817.79523 18831.938 592134
8877.9805 -780.43921 17971.713 256
8785.8174 -763.1557 17573.715 256
8725.1787 -748.9845 17247.385 0
8747.5176 -742.18268 17090.754 0
8822.8496 -739.98151 17040.066 256
8864.3545 -735.02545 16925.939 256
8890.252 -728.90094 16784.906 256
8961.5 -726.58936 16731.676 256
9122.7363 -731.54462 16845.783 0
9232.6338 -732.32007 16863.641 0
9248.9307 -725.73444 16711.988 0
9256.9395 -718.6452 16548.74 256
9335.126 -717.09595 16513.064 256
9490.3652 -721.43628 16613.012 256
9645.2305 -725.65912 16710.254 256
9814.832 -730.89319 16830.783 256
9986.1592 -736.14893 16951.811 0
10141.904 -740.16248 17044.234 0
10330.808 -746.49261 17190.002 0
10468.679 -749.04736 17248.832 0
10699.529 -758.14087 17458.234 256
10775.151 -756.16614 17412.762 0
10930.585 -759.77673 17495.904 256
11169.438 -769.06305 17709.748 512
11415.153 -778.64404 17930.375 768
11542.576 -780.05353 17962.832 770
11963.44 -801.08636 18447.17 926499
10604.685 -703.65381 16203.523 11981774
13003.906 -855.08453 19690.623 11850188
13277.211 -865.26904 19925.148 11980750
0 0 0 0
0 0 0 0
0 0 0 0
12540.781 -789.12286 18171.68 3089200
0 0 0 0
10860.927 -671.84698 15471.086 10
10915.416 -669.54913 15418.172 6
10429.762 -634.43317 14609.531 9615286
12242.732 -738.56586 17007.467 10661811
12068.82 -722.11212 16628.576 196867
11076.398 -657.34985 15137.249 6
10757.707 -633.29266 14583.269 4
10931.116 -638.35785 14699.908 3
10984.223 -636.37305 14654.202 1
10931.623 -628.34344 14469.3 2
11046.203 -629.97357 14506.838 2
11212.977 -634.5321 14611.811 2
11344.269 -637.02814 14669.288 256
11455.552 -638.37103 14700.211 0
10760.532 -595.10181 13703.82 131586
10507.805 -576.7594 13281.438 0
11506.551 -626.87012 14435.372 1
11591.785 -626.83984 14434.675 3
12107.101 -649.89624 14965.611 259
11960.067 -637.32153 14676.044 257
11909.436 -630.02875 14508.107 2964793
12121.658 -636.64618 14660.492 8816260
12439.551 -648.67957 14937.593 65536
12588.436 -651.79163 15009.257 256
12428.434 -638.97919 14714.216 0
12497.169 -638.02374 14692.214 0
12515.605 -634.53131 14611.792 0
12686.485 -638.76257 14709.228 0
12922.938 -646.21484 14880.836 256
12761.977 -633.82812 14595.599 256
12607.585 -621.9328 14321.677 256
12646.827 -619.68488 14269.913 256
12760.27 -621.07843 14302.003 256
13336.661 -644.83752 14849.119 0
14098.552 -677.19421 15594.221 0
12754.785 -608.64807 14015.76 256
12785.932 -606.17548 13958.822 256
12841.343 -604.87769 13928.938 256
12882.412 -602.92535 13883.979 0
12954.073 -602.42053 13872.354 256
13034.956 -602.34814 13870.688 256
13452.826 -617.75116 14225.383 256
13671.573 -623.87512 14366.403 256
13739.86 -623.09973 14348.549 1
14362.753 -647.33008 14906.518 1
14609.541 -654.41614 15069.693 2
0 0 0 0
0 0 0 0
0 0 0 0
-7786.8115 -321.21939 8569.8193 256
-7121.1597 -295.69421 7888.833 256
-7093.6899 -296.5058 7910.4849 256
-7623.3794 -320.772 8557.8838 256
-8022.855 -339.84836 9066.8223 256
-7045.834 -300.47995 8016.5112 256
-6275.8745 -269.46603 7189.0908 256
-6220.9658 -268.93945 7175.0415 256
-6177.748 -268.91443 7174.375 0
-6128.0967 -268.60712 7166.1758 256
-6078.0459 -268.27786 7157.3916 256
-6037.792 -268.37943 7160.1011 256
-6006.6484 -268.89026 7173.7295 256
-5972.1392 -269.25665 7183.5044 256
-5935.4399 -269.52887 7190.7676 256
-5908.8882 -270.2692 7210.5181 256
-5871.1587 -270.50534 7216.8184 256
-5832.896 -270.72018 7222.5503 256
-5803.1138 -271.33475 7238.9463 256
-5765.9873 -271.61255 7246.3574 0
-5750.4282 -272.91812 7281.189 0
-5732.0952 -274.11081 7313.0088 0
-5702.0591 -274.75784 7330.271 0
-5665.3545 -275.09103 7339.1602 0
-5647.5571 -276.35458 7372.8701 0
-5607.4639 -276.53833 7377.7729 0
-5608.271 -278.75793 7436.9897 0
-5608.0308 -280.96036 7495.7476 0
-5589.5635 -282.27753 7530.8892 0
-6711.2793 -341.66095 9115.1807 0
-6712.7876 -344.51877 9191.4238 0
-6629.5874 -343.04031 9151.9805 0
-6596.2666 -344.13971 9181.3115 0
-6548.8247 -344.51459 9191.3125 0
-6504.3701 -345.05423 9205.71 0
-6468.8643 -346.08182 9233.125 0
-6425.9141 -346.72528 9250.292 0
-6365.1792 -346.41193 9241.9316 0
-6367.0518 -349.53012 9325.1221 0
-6316.2793 -349.78763 9331.9922 0
-6273.7979 -350.51291 9351.3418 0
-6233.8257 -351.39261 9374.8115 0
-6266.1182 -356.39838 9508.3604 0
-6221.9438 -357.10645 9527.251 0
-6250.4185 -362.03546 9658.7529 0
-6180.3843 -361.29724 9639.0576 0
-6117.5342 -360.96906 9630.3018 0
-6085.5688 -362.47424 9670.459 0
-5909.3789 -355.33582 9480.0127 0
-6063.5815 -368.11798 9821.0283 256
-6171.7061 -378.32401 10093.315 256
-6123.0132 -379.02325 10111.97 256
-6096.0815 -381.09668 10167.287 256
-6050.8564 -382.05658 10192.896 256
-5746.2065 -366.48993 9777.5938 256
-5436.98 -350.31033 9345.9375 256
-5396.2441 -351.27441 9371.6582 256
-5352.9346 -352.08932 9393.3994 256
-5314.0708 -353.21692 9423.4824 0
-5277.4136 -354.51675 9458.1611 0
-5233.3721 -355.3432 9480.21 0
-5187.2808 -356.04697 9498.9854 0
-5141.8105 -356.8093 9519.3232 0
-5156.9058 -361.83823 9653.4902 0
-5077.9189 -360.30466 9612.5762 0
-5034.0518 -361.2565 9637.9707 0
-4991.8892 -362.35397 9667.25 0
-4952.0527 -363.6478 9701.7686 0
-4915.46 -365.21317 9743.5303 0
-4874.6787 -366.50092 9777.8867 0
-4832.3716 -367.70364 9809.9736 0
-4792.5391 -369.12637 9847.9307 65536
-4752.6792 -370.58209 9886.7686 0
-4712.4077 -372.04175 9925.7109 0
-4670.6519 -373.4198 9962.4756 0
-4630.6816 -374.97781 10004.042 0
-4584.9487 -376.10364 10034.078 0
-4540.4058 -377.35803 10067.544 0
-4498.5254 -378.87021 10107.887 0
-4457.999 -380.53885 10152.405 0
-4420.0771 -382.47867 10204.157 0
-4376.7803 -384.00089 10244.769 0
-4331.6143 -385.39975 10282.089 0
-4286.9219 -386.88138 10321.617 0
-4242.9121 -388.46851 10363.961 0
-4198.0522 -390.0235 10405.446 0
-4150.6646 -391.38657 10441.812 0
-4101.3838 -392.6098 10474.446 0
-4055.0881 -394.16092 10515.828 0
-4006.7532 -395.55923 10553.134 0
-3956.5188 -396.81155 10586.545 0
-3907.7021 -398.24881 10624.89 0
-3857.6067 -399.60089 10660.961 0
-3805.676 -400.80475 10693.079 0
-3756.3025 -402.32339 10733.596 0
-3705.9802 -403.79117 10772.755 0
-3653.3811 -405.05814 10806.556 0
-3600.1101 -406.29462 10839.544 0
-3545.573 -407.43063 10869.852 0
-3487.54 -408.19965 10890.368 0
-3432.8337 -409.3945 10922.245 0
-3376.0518 -410.38306 10948.619 0
-3318.343 -411.29562 10972.966 0
-3259.0596 -412.04575 10992.978 0
-3202.1187 -413.12872 11021.871 0
-3145.1458 -414.25272 11051.858 0
-3084.446 -414.92334 11069.75 0
-3025.8674 -415.91476 11096.2 0
-2967.4368 -416.97116 11124.383 65536
-2908.1887 -417.95822 11150.717 0
-2848.5291 -418.93079 11176.664 0
-2793.1619 -420.59613 11221.094 0
-2737.6912 -422.327 11267.271 0
-2681.1282 -423.97189 11311.156 0
-2617.835 -424.60977 11328.175 0
-2556.2549 -425.56662 11353.702 0
-2493.606 -426.39252 11375.736 65536
-2432.748 -427.57922 11407.396 65536
-2374.0044 -429.21631 11451.071 65536
-2310.0488 -429.9798 11471.441 65536
-2250.5481 -431.6442 11515.846 131072
-2192.6604 -433.73209 11571.549 65536
-2127.925 -434.55682 11593.552 0
-2060.8345 -434.93964 11603.765 256
-1758.0591 -383.88538 10241.688 3620412
-1853.5967 -419.26306 11185.529 6318439
-2035.5471 -477.54544 12740.446 257
-1945.2498 -473.99365 12645.688 256
-1830.34 -463.91806 12376.881 0
-1697.239 -448.19489 11957.402 0
-1710.3812 -471.40411 12576.602 0
-1639.9167 -472.63843 12609.531 0
-1575.5571 -475.83459 12694.803 0
-1504.0802 -477.09473 12728.422 0
-1441.0363 -481.30499 12840.747 0
-1370.9305 -483.49557 12899.189 0
-1302.1848 -486.45367 12978.109 0
-1231.9014 -489.17368 13050.677 0
-1157.0712 -490.33249 13081.592 0
-1086.5942 -493.63589 13169.724 0
-1013.6474 -496.24298 13239.278 0
-940.07159 -498.95508 13311.635 0
-864.7619 -501.16077 13370.479 0
-788.09106 -502.94418 13418.06 0
-714.65222 -507.42398 13537.576 0
-665.7536 -532.67529 14211.257 256
-594.04968 -544.36676 14523.173 256
-484.44827 -519.40149 13857.125 256
-403.08267 -520.68304 13891.315 256
-322.0574 -523.17761 13957.868 256
-240.74786 -526.78113 14054.007 256
-157.86006 -528.92554 14111.218 0
-77.41568 -553.39783 14764.113 256
9.9493456 -532.87469 14216.576 256
94.831871 -535.06677 14275.059 0
180.32916 -537.01941 14327.153 0
265.66711 -537.39709 14337.23 0
351.24582 -537.96014 14352.252 256
436.8938 -538.38849 14363.679 256
524.05414 -540.23584 14412.965 0
610.62109 -541.03833 14434.375 0
698.62347 -542.75836 14480.264 0
787.47437 -544.68793 14531.742 0
875.35291 -545.63 14556.877 0
969.74792 -550.09918 14676.109 0
1067.9076 -555.78998 14827.935 0
1166.3545 -560.75128 14960.297 0
1260.7552 -563.20221 15025.686 0
1353.7732 -564.75208 15067.034 0
1446.8074 -566.11597 15103.421 0
1543.3571 -568.61566 15170.11 0
1649.724 -574.25677 15320.609 0
1754.2657 -578.70557 15439.3 0
1860.318 -583.18573 15558.826 0
1975.7268 -590.03577 15741.578 0
2085.364 -594.62073 15863.899 256
2197.1223 -599.38763 15991.077 256
2323.3777 -607.55017 16208.845 256
2456.1118 -616.68945 16452.672 0
2680.6021 -647.28522 17268.938 0
2821.8435 -656.26367 17508.475 256
2908.8547 -652.44 17406.461 256
3066.9202 -664.26868 17722.039 0
3233.2725 -677.04712 18062.955 197891
3345.4832 -678.03137 18089.215 0
3462.6611 -679.92969 18139.859 256
3562.3228 -678.37769 18098.455 0
3745.7512 -692.40088 18472.58 0
3941.7085 -707.87561 18885.43 0
4107.2539 -717.18298 19133.742 0
4203.0459 -714.13708 19052.48 66050
4418.877 -731.11176 19505.348 1184273
4393.0151 -708.25226 18895.479 4145729
4438.1128 -697.68738 18613.617 1316374
4482.7075 -687.55927 18343.41 132099
4652.812 -696.70581 18587.432 256
4894.7344 -715.93268 19100.385 256
5035.2378 -719.78986 19203.291 9674139
0 0 0 0
0 0 0 0
0 0 0 0
0 0 0 0
0 0 0 0
0 0 0 0
0 0 0 0
0 0 0 0
0 0 0 0
0 0 0 0
0 0 0 0
0 0 0 0
0 0 0 0
0 0 0 0
0 0 0 0
6407.686 -672.19855 17933.602 1
6686.7822 -689.99976 18408.52 515
0 0 0 0
0 0 0 0
7358.5596 -723.79181 19310.059 4080195
7444.0938 -720.96069 19234.527 263173
7383.1768 -704.24585 18788.592 66050
7441.7905 -699.2608 18655.596 65793
7496.5796 -694.06793 18517.055 256
7790.2007 -710.81763 18963.92 256
7891.2856 -709.77209 18936.027 263685
7851.2119 -696.23822 18574.955 131843
8137.1553 -711.58954 18984.514 256
8169.0171 -704.60559 18798.189 0
8336.7422 -709.37073 18925.318 0
8323.4678 -698.81281 18643.645 0
8294.2939 -687.21497 18334.225 0
8377.8076 -685.13336 18278.689 0
8427.8105 -680.39978 18152.402 0
8444.9297 -673.16455 17959.373 0
8451.9014 -665.3111 17749.852 0
8497.4717 -660.65234 17625.559 0
8691.9434 -667.5426 17809.385 0
8767.2695 -665.22668 17747.6 0
8802.1924 -659.93677 17606.469 256
8718.7822 -646.00342 17234.74 0
8722.3916 -638.76642 17041.664 65536
8808.2188 -637.64734 17011.809 65536
8878.8428 -635.4657 16953.604 256
8904.3301 -630.13867 16811.484 256
8971.0234 -627.81372 16749.457 256
9102.7842 -630.04327 16808.939 0
9205.8848 -630.26233 16814.783 0
9219.4404 -624.41193 16658.701 256
9310.917 -623.90729 16645.236 256
9337.3066 -619.09766 16516.922 256
9481.0322 -622.08698 16596.674 256
9632.2627 -625.5022 16687.787 256
9723.8594 -625.01471 16674.781 256
9897.4561 -629.75446 16801.234 256
10080.296 -634.98181 16940.695 256
10566.945 -659.05432 17582.926 3751483
10876.379 -671.71063 17920.584 1052943
10999.656 -672.73621 17947.945 197890
10833.344 -656.20093 17506.801 256
10916.697 -654.95935 17473.676 256
11096.335 -659.46332 17593.838 512
11380.792 -670.05463 17876.402 768
11520.693 -672.01776 17928.777 395789
12110.427 -699.94379 18673.816 8695208
12304.779 -704.71844 18801.199 11388871
12846.216 -729.10645 19451.848 11322823
0 0 0 0
0 0 0 0
0 0 0 0
0 0 0 0
12659.805 -687.58685 18344.145 3748671
11101.547 -597.80548 15948.867 8
10907.447 -582.38086 15537.353 11
11057.672 -585.44531 15619.109 12
9128.4082 -479.27747 12786.654 7574678
0 0 0 0
11265.261 -581.78375 15521.423 8224903
11020.868 -564.53943 15061.36 1315866
10835.806 -550.58765 14689.141 4
10516.91 -530.11292 14142.895 1052947
10455.543 -522.84082 13948.883 1
10889.779 -540.27142 14413.914 2
11010.64 -542.00378 14460.133 2
11208.242 -547.45782 14605.641 2
11338.625 -549.56989 14661.989 1
10963.056 -527.31396 14068.222 2632747
10852.067 -518.02466 13820.392 4672330
10757.152 -509.63647 13596.604 328965
11490.45 -540.3186 14415.172 329222
11553.153 -539.2464 14386.567 256
11975.841 -554.8689 14803.36 256
12220.429 -562.0719 14995.53 256
12206.311 -557.35779 14869.762 5598052
12553.377 -569.08502 15182.633 4802118
12176.081 -548.04156 14621.214 789517
12509.392 -559.05389 14915.012 592650
12618.412 -559.95807 14939.135 256
12639.259 -556.96411 14859.26 256
12682.032 -554.97131 14806.092 256
12919.105 -561.44995 14978.937 0
13128.031 -566.62506 15117.003 256
12960.645 -555.59802 14822.812 256
12764.578 -543.49866 14500.014 256
12797.936 -541.26471 14440.413 256
12931.31 -543.26233 14493.709 256
12968.422 -541.21619 14439.12 256
14147.926 -586.55945 15648.833 460551
14254.957 -587.13702 15664.243 66049
13454.9 -550.58832 14689.158 256
12929.916 -525.69446 14025.014 256
12862.993 -519.62366 13863.051 0
13795.376 -553.74188 14773.294 256
13188.095 -526.01794 14033.646 256
13385.267 -530.52704 14153.943 256
13764.261 -542.14136 14463.802 256
13865.88 -542.75421 14480.152 256
14560.994 -566.44739 15112.264 256
14703.14 -568.47058 15166.24 2
0 0 0 0
0 0 0 0
0 0 0 0
-7569.0244 -262.72644 8330.1328 256
-7102.9819 -248.17305 7868.6958 256
-7090.4609 -249.3775 7906.8848 256
-8090.6011 -286.45178 9082.3799 256
-8043.7861 -286.70715 9090.4766 256
-6293.7368 -225.84654 7160.8008 256
-6241.3809 -225.4926 7149.5786 256
-6214.7104 -226.06815 7167.8271 256
-6175.6123 -226.19644 7171.895 0
-6122.3594 -225.80446 7159.4663 256
-6071.9238 -225.51163 7150.1821 256
-6043.9761 -226.05577 7167.4346 256
-6007.3984 -226.28258 7174.6255 256
-5968.0713 -226.40829 7178.6118 256
-5936.1636 -226.81934 7191.644 256
-5908.0825 -227.38358 7209.5347 256
-5871.8589 -227.64044 7217.6787 256
-5829.936 -227.6785 7218.8853 256
-5798.8208 -228.1423 7233.5913 256
-5763.8931 -228.46194 7243.7256 0
-5738.2793 -229.15831 7265.8057 0
-5718.1616 -230.08643 7295.2329 0
-5685.8682 -230.53503 7309.4565 0
-5649.2485 -230.81381 7318.2954 0
-5630.1045 -231.81645 7350.0854 0
-5602.021 -232.46384 7370.6118 0
-5605.3389 -234.43472 7433.1016 0
-5591.6636 -235.72055 7473.8711 0
-5582.4966 -237.21857 7521.3677 0
-6902.3535 -295.6712 9374.6953 0
-6700.9258 -289.37875 9175.1836 0
-6676.9141 -290.70752 9217.3145 0
-6647.9424 -291.84058 9253.2393 0
-6580.9282 -291.30853 9236.3711 0
-6470.7358 -288.84018 9158.1074 0
-6499.1519 -292.56961 9276.3545 0
-6483.6782 -294.37018 9333.4443 0
-6448.6963 -295.3085 9363.1953 0
-6375.0366 -294.47653 9336.8164 0
-6365.0713 -296.59799 9404.0801 0
-6426.3687 -302.10709 9578.7549 0
-6304.9253 -299.04718 9481.7354 0
-6290.0776 -301.03354 9544.7168 0
-6261.7568 -302.40543 9588.2139 0
-6246.6411 -304.44611 9652.917 0
-6214.833 -305.70349 9692.7842 0
-6172.5454 -306.46411 9716.9004 0
-6144.8052 -307.96817 9764.5898 0
-6103.0586 -308.7923 9790.7197 0
-6078.4121 -310.5058 9845.0488 256
-6056.3784 -312.38739 9904.707 256
-5993.4292 -312.17474 9897.9648 256
-6052.7886 -318.39166 10095.081 256
-5572.2192 -296.04709 9386.6133 256
-6018.7407 -323.00424 10241.33 256
-5449.5518 -295.44577 9367.5479 256
-5404.2417 -296.01346 9385.5479 256
-5361.3174 -296.72504 9408.1094 256
-5325.4375 -297.84564 9443.6396 0
-5284.7588 -298.71884 9471.3252 0
-5242.6836 -299.53107 9497.0781 0
-5202.5332 -300.47214 9526.916 0
-5162.4966 -301.44052 9557.6201 0
-5119.7441 -302.27014 9583.9248 0
-5086.6211 -303.69336 9629.0498 0
-5041.4297 -304.42023 9652.0957 0
-4997.3828 -305.2337 9677.8887 0
-4955.7568 -306.21573 9709.0254 0
-4918.1631 -307.47299 9748.8887 0
-4879.4507 -308.68945 9787.458 0
-4835.874 -309.62381 9817.084 0
-4793.666 -310.66974 9850.2461 0
-4752.4946 -311.80951 9886.3848 0
-4714.1079 -313.16281 9929.293 0
-4673.5176 -314.40219 9968.5889 0
-4630.0278 -315.47577 10002.629 0
-4585.0273 -316.47308 10034.25 0
-4543.666 -317.75116 10074.773 0
-4501.6191 -319.01477 10114.838 0
-4460.5688 -320.38419 10158.257 0
-4421.4033 -321.92841 10207.219 0
-4379.1406 -323.28696 10250.294 0
-4335.3013 -324.56577 10290.841 0
-4291.9907 -325.92136 10333.821 0
-4249.1592 -327.35321 10379.221 0
-4205.4204 -328.75635 10423.709 0
-4156.1084 -329.75922 10455.506 0
-4106.3574 -330.75717 10487.148 0
-4059.1631 -331.995 10526.396 0
-4010.4866 -333.14847 10562.968 0
-3961.2085 -334.28784 10599.094 0
-3910.6531 -335.35449 10632.913 0
-3859.0808 -336.36758 10665.034 0
-3809.1016 -337.55563 10702.704 0
-3759.7004 -338.83621 10743.306 0
-3710.0833 -340.14114 10784.682 0
-3657.4441 -341.21011 10818.574 0
-3605.0708 -342.3425 10854.479 0
-3551.0322 -343.35519 10886.588 0
-3494.3567 -344.14578 10911.654 0
-3436.575 -344.85529 10934.149 0
-3378.9922 -345.6124 10958.155 0
-3322.2002 -346.48181 10985.722 0
-3263.3389 -347.16589 11007.411 0
-3207.0776 -348.16025 11038.939 0
-3148.604 -348.95096 11064.01 0
-3087.3872 -349.46494 11080.306 0
-3028.7554 -350.30023 11106.79 0
-2971.0696 -351.28464 11138.002 65536
-2912.8535 -352.24976 11168.603 0
-2854.4233 -353.2334 11199.79 0
-2796.6365 -354.34555 11235.053 0
-2742.0984 -355.93378 11285.41 0
-2682.8262 -356.97171 11318.319 0
-2619.7793 -357.54791 11336.589 0
-2556.353 -358.10138 11354.138 0
-2493.3967 -358.75247 11374.781 65536
-2431.7285 -359.63037 11402.616 65536
-2373.9612 -361.15204 11450.863 65536
-2309.4363 -361.70517 11468.4 65536
-2248.502 -362.87134 11505.376 131072
-2188.0713 -364.19458 11547.331 65536
-2122.6748 -364.75018 11564.947 0
-2058.0671 -365.48303 11588.184 256
-1979.3352 -363.67151 11530.746 1053459
-1864.4175 -354.84308 11250.827 4278342
-2005.5961 -395.91211 12552.983 769
-1927.6846 -395.23453 12531.499 256
-1771.9164 -377.89792 11981.816 0
-1773.7549 -394.12985 12496.474 0
-1713.8947 -397.47186 12602.437 0
-1644.6758 -398.8497 12646.124 0
-1572.8225 -399.69009 12672.769 0
-1505.302 -401.77145 12738.762 0
-1438.1776 -404.1846 12815.274 0
-1367.5312 -405.82245 12867.205 0
-1301.3757 -409.06595 12970.045 0
-1230.1427 -411.02145 13032.046 0
-1155.0287 -411.85577 13058.5 0
-1082.1949 -413.68198 13116.402 0
-1010.1717 -416.12561 13193.882 0
-938.13617 -418.97507 13284.229 0
-862.5683 -420.6257 13336.564 0
-787.43091 -422.84155 13406.82 0
-713.53693 -426.29919 13516.449 0
-640.32819 -431.09546 13668.523 256
-570.01105 -439.5152 13935.482 256
-485.91055 -438.36301 13898.952 256
-403.05591 -438.09311 13890.394 256
-321.33487 -439.23358 13926.554 256
-239.92058 -441.73019 14005.713 256
-157.1922 -443.17484 14051.518 0
-74.564598 -448.50055 14220.378 256
9.9146996 -446.81934 14167.071 256
94.593399 -449.09302 14239.162 256
179.75465 -450.42862 14281.509 256
264.73434 -450.59842 14286.893 256
350.74875 -452.0192 14331.94 256
436.94373 -453.07196 14365.32 0
523.54639 -454.13419 14399 0
611.21887 -455.69556 14448.507 0
698.45782 -456.58887 14476.83 0
788.06573 -458.66501 14542.656 0
877.07916 -460.01892 14585.585 0
969.39612 -462.70612 14670.786 0
1085.3171 -475.28656 15069.668 0
1166.7456 -471.99533 14965.314 0
1260.5916 -473.83786 15023.734 0
1353.7638 -475.2002 15066.929 0
1446.0879 -476.1142 15095.909 0
1540.7948 -477.66013 15144.926 0
1645.5464 -481.97745 15281.812 0
1753.0393 -486.60413 15428.508 0
1857.0032 -489.83984 15531.102 0
1972.8131 -495.74597 15718.363 0
2078.3083 -498.64325 15810.226 256
2187.8091 -502.20929 15923.293 256
2310.7148 -508.42911 16120.502 256
2425.5801 -512.45502 16248.149 256
2546.3982 -517.38214 16404.371 256
2688.4878 -526.10852 16681.053 256
2817.2136 -531.69202 16858.086 256
3058.2839 -557.36652 17672.135 66305
3290.2266 -579.72791 18381.135 256
3403.8472 -580.47394 18404.791 256
3579.4143 -591.40881 18751.496 256
3682.6926 -590.09991 18709.996 0
3850.5015 -598.90479 18989.168 0
4033.2341 -609.46344 19323.945 0
4214.0435 -619.15472 19631.223 65536
4380.0259 -626.20416 19854.734 0
0 0 0 0
0 0 0 0
0 0 0 0
4580.5327 -591.16339 18743.715 256
4889.2134 -616.01984 19531.826 256
4853.8374 -597.37909 18940.793 1645339
4998.0312 -601.18274 19061.395 2237475
0 0 0 0
0 0 0 0
0 0 0 0
0 0 0 0
0 0 0 0
0 0 0 0
0 0 0 0
0 0 0 0
0 0 0 0
0 0 0 0
0 0 0 0
0 0 0 0
0 0 0 0
0 0 0 0
0 0 0 0
0 0 0 0
7225.4194 -627.35968 19891.373 258
7265.4888 -620.68323 19679.686 66050
7319.5562 -615.39526 19512.023 131843
6840.1963 -566.12354 17949.789 7437434
7431.9248 -605.65155 19203.084 2632236
7412.6621 -594.94531 18863.627 256
7474.0112 -590.93164 18736.367 1514009
7570.1216 -589.74396 18698.709 790284
7653.4917 -587.61237 18631.125 256
7801.1841 -590.40967 18719.816 256
7821.543 -583.62701 18504.762 0
8087.8018 -595.12646 18869.369 256
8213.6934 -596.12402 18900.998 0
8262.7344 -591.59222 18757.312 986895
8393.5752 -592.9599 18800.676 657929
8476.4502 -590.94769 18736.875 65793
8510.2773 -585.61249 18567.715 0
8572.1748 -582.32068 18463.344 0
8568.4521 -574.71075 18222.061 0
8580.9307 -568.36395 18020.826 0
8569.3691 -560.60095 17774.688 0
8659.79 -559.61749 17743.504 0
8880.0137 -566.94476 17975.828 0
8891.8203 -560.94977 17785.746 256
8786.2246 -547.77606 17368.057 256
8734.7598 -538.24396 17065.826 256
8802.4336 -536.18787 17000.635 256
8906.6641 -536.38 17006.727 256
8890.4131 -529.39349 16785.209 256
8966.6006 -528.00543 16741.197 256
9149.4521 -532.85986 16895.115 0
9223.25 -531.3266 16846.5 256
9385.1133 -534.84497 16958.057 0
9382.5479 -529.01764 16773.291 256
9354.375 -521.88422 16547.115 256
9469.9062 -522.83301 16577.199 256
9630.7744 -526.23956 16685.209 256
9719.6562 -525.68335 16667.574 256
9837.4883 -526.68835 16699.438 256
10242.759 -542.90863 17213.727 1316628
9900.4902 -519.57733 16473.973 3883325
9527.2119 -495.09155 15697.614 987408
10214.759 -525.67291 16667.242 0
10614.678 -541.00702 17153.434 256
10755.478 -542.96838 17215.621 256
10941.406 -547.14954 17348.189 512
11068.617 -548.34369 17386.053 527627
11100.053 -544.81488 17274.166 1185556
10772.364 -523.88568 16610.576 10732481
11973.157 -576.9953 18294.494 11125188
12738.187 -608.3382 19288.268 11059138
13062.257 -618.25085 19602.564 11058368
13280.964 -623.04547 19754.584 11189697
0 0 0 0
0 0 0 0
13610.814 -622.02289 19722.162 2629927
11102.785 -503.07196 15950.646 65544
10873.978 -488.53329 15489.675 9
11043.727 -491.99432 15599.412 9
9313.3633 -411.45303 13045.73 8690588
0 0 0 0
12181.72 -529.3595 16784.131 10462887
11861.671 -511.26505 16210.419 4672590
10546.308 -450.9075 14296.693 657932
10688.716 -453.34363 14373.935 3
10870.522 -457.39896 14502.514 3
10950.544 -457.14124 14494.344 2
11084.075 -459.10397 14556.575 2
11256.115 -462.61902 14668.024 2
11414.303 -465.51505 14759.848 256
10881.726 -440.41003 13963.855 256
11314.048 -454.44125 14408.736 256
11403.005 -454.57364 14412.934 256
12107.903 -479.0751 15189.789 0
11756.319 -461.72128 14639.561 2
12328.619 -480.64078 15239.431 2
12402.272 -479.98593 15218.668 2
12488.903 -479.8392 15214.017 2
12644.739 -482.33444 15293.131 2
12493.15 -473.15094 15001.955 2
12785.074 -480.7757 15243.709 2
12834.689 -479.24539 15195.188 0
12893.027 -478.05991 15157.602 0
12873.967 -474.04095 15030.174 0
13008.185 -475.6824 15082.218 0
13337.756 -484.39618 15358.501 256
13228.524 -477.16354 15129.18 256
13034.657 -466.99628 14806.812 256
13079.886 -465.47409 14758.549 256
13211.812 -467.03696 14808.102 256
13335.479 -468.28915 14847.805 256
13256.928 -462.47037 14663.312 256
13344.525 -462.48593 14663.805 256
13906.508 -478.83548 15182.191 256
13270.238 -453.98148 14394.158 0
13202.742 -448.77924 14229.214 256
13151.172 -444.18112 14083.424 256
13290.488 -446.04767 14142.604 256
13399.635 -446.88446 14169.138 256
12499.573 -414.26349 13134.84 256
13648.444 -449.53204 14253.083 256
14588.847 -477.54169 15141.17 256
14901.567 -484.78772 15370.917 2
0 0 0 0
0 0 0 0
0 0 0 0
-7613.2354 -214.463 8378.7891 256
-7036.4048 -199.51886 7794.9414 256
-6997.8384 -199.7404 7803.5972 256
-8107.7705 -232.96539 9101.6543 256
-8065.7749 -233.31538 9115.3271 256
-6279.8398 -182.88274 7144.9897 256
-6254.5557 -183.38647 7164.6699 256
-6216.7271 -183.52681 7170.1528 256
-6170.3979 -183.41641 7165.8394 0
-6118.7671 -183.14578 7155.2661 256
-6068.2759 -182.90569 7145.8862 256
-6037.5732 -183.26289 7159.8418 256
-5996.938 -183.32152 7162.1323 256
-5958.9648 -183.46295 7167.6582 256
-5939.7412 -184.18785 7195.9785 256
-5914.8125 -184.74504 7217.7476 256
-5879.3076 -184.97763 7226.8345 256
-5837.3032 -185.00766 7228.0073 256
-5798.9292 -185.15404 7233.7261 256
-5755.9326 -185.1539 7233.7212 0
-5730.9912 -185.73894 7256.5776 0
-5699.937 -186.13322 7271.9819 0
-5672.6543 -186.65764 7292.4702 0
-5649.0273 -187.31134 7318.0093 0
-5646.3594 -188.67554 7371.3066 0
-5630.5752 -189.61935 7408.1807 0
-5615.2251 -190.59279 7446.2114 0
-5594.3438 -191.39246 7477.4531 0
-7250.8994 -250.05258 9769.2275 0
-6835.1558 -237.61809 9283.4287 0
-6742.3535 -236.29936 9231.9072 0
-6265.8516 -221.40111 8649.8525 0
-6256.0757 -222.88437 8707.8018 0
-6253.7109 -224.65863 8777.1191 0
-6161.0874 -223.19298 8719.8584 0
-6400.5269 -233.83392 9135.5859 0
-6514.6108 -240.03807 9377.9736 0
-6458.9233 -240.03989 9378.0449 0
-6430.7544 -241.07333 9418.4199 0
-6446.0752 -243.76959 9523.7598 0
-6429.9312 -245.31314 9584.0645 0
-6377.769 -245.49789 9591.2822 0
-6372.6484 -247.51306 9670.0117 0
-6275.5601 -245.96039 9609.3506 0
-6245.2231 -247.01939 9650.7246 0
-6235.418 -248.91768 9724.8887 0
-6198.542 -249.76071 9757.8252 0
-6153.0889 -250.27081 9777.7539 0
-6134.4111 -251.89008 9841.0166 0
-6273.7095 -260.08975 10161.367 256
-6220.4297 -260.38748 10172.999 256
-6182.0283 -261.31998 10209.431 256
-6140.626 -262.14288 10241.58 256
-6095.2319 -262.81015 10267.648 256
-6097.105 -265.5495 10374.673 256
-5508.7954 -242.37782 9469.3848 256
-5410.519 -240.51099 9396.4502 256
-5369.7617 -241.18872 9422.9277 256
-5330.7988 -241.96219 9453.1465 0
-5290.2007 -242.67712 9481.0781 0
-5249.0864 -243.38353 9508.6768 0
-5207.0391 -244.06158 9535.167 0
-5165.2627 -244.76738 9562.7412 0
-5132.7407 -245.9323 9608.2539 0
-5089.6978 -246.61366 9634.874 0
-5046.0269 -247.27975 9660.8975 0
-5006.4766 -248.16545 9695.5 0
-4963.9766 -248.92386 9725.1299 0
-4921.9976 -249.72653 9756.4893 0
-4878.7192 -250.48169 9785.9922 0
-4836.7827 -251.32472 9818.9287 0
-4798.0054 -252.35457 9859.1631 0
-4757.1738 -253.30046 9896.1182 0
-4715.9224 -254.24741 9933.1143 0
-4676.3755 -255.31145 9974.6846 0
-4632.7759 -256.17868 10008.566 0
-4587.8843 -256.99612 10040.503 0
-4544.1948 -257.90332 10075.946 0
-4502.3423 -258.9404 10116.463 0
-4460.6313 -260.01382 10158.4 0
-4422.1689 -261.30862 10208.987 0
-4379.0615 -262.36121 10250.109 0
-4335.5005 -263.41586 10291.313 0
-4293.1094 -264.57285 10336.516 0
-4251.3657 -265.80386 10384.61 0
-4209.6802 -267.07489 10434.267 0
-4163.4302 -268.09 10473.926 0
-4114.2119 -268.94186 10507.207 0
-4065.1929 -269.83325 10542.032 0
-4014.7307 -270.65521 10574.146 0
-3965.134 -271.56262 10609.597 0
-3914.0339 -272.39471 10642.105 0
-3861.6226 -273.16138 10672.059 0
-3811.5061 -274.11871 10709.46 0
-3763.0159 -275.22751 10752.779 0
-3712.6882 -276.23788 10792.254 0
-3660.1711 -277.11804 10826.64 0
-3607.9023 -278.04883 10863.005 0
-3553.1062 -278.81522 10892.946 0
-3498.3171 -279.6106 10924.021 0
-3440.873 -280.21988 10947.824 0
-3384.1094 -280.90909 10974.751 0
-3325.3342 -281.45514 10996.085 0
-3265.9368 -281.96936 11016.175 0
-3209.8862 -282.7995 11048.607 0
-3152.2141 -283.51846 11076.696 0
-3091.0732 -283.94946 11093.534 0
-3032.498 -284.64005 11120.515 0
-2976.4978 -285.60852 11158.352 65536
-2919.9258 -286.565 11195.72 0
-2862.0481 -287.43494 11229.708 0
-2806.053 -288.54001 11272.882 0
-2749.1631 -289.60489 11314.485 0
-2693.4316 -290.8483 11363.062 0
-2631.6763 -291.48837 11388.07 0
-2570.5181 -292.23019 11417.052 0
-2505.9453 -292.61349 11432.027 65536
-2443.9429 -293.32672 11459.892 65536
-2385.7529 -294.55145 11507.74 65536
-2322.2188 -295.16925 11531.877 65536
-2259.4407 -295.92361 11561.35 65536
-2196.7271 -296.73401 11593.01 0
-2132.7744 -297.4241 11619.972 0
-2066.4946 -297.82504 11635.636 256
-1997.3467 -297.82602 11635.674 2369575
-1914.4911 -295.70981 11552.996 131842
-1996.5065 -319.84924 12496.092 256
-1914.2551 -318.52097 12444.198 0
-1754.1642 -303.61331 11861.775 0
-1715.3938 -309.33484 12085.308 0
-1630.677 -306.90884 11990.528 0
-1602.7162 -315.43137 12323.491 0
-1567.5181 -323.2775 12630.029 0
-1499.4148 -324.7854 12688.941 0
-1434.2858 -327.13135 12780.595 0
-1365.1228 -328.76819 12844.544 0
-1298.927 -331.35583 12945.641 0
-1226.5751 -332.60004 12994.25 0
-1152.7953 -333.59827 13033.249 0
-1080.6835 -335.25778 13098.084 0
-1008.187 -337.04633 13167.96 0
-935.88336 -339.20584 13252.329 0
-861.32275 -340.86893 13317.305 0
-787.31769 -343.11084 13404.893 0
-714.82965 -346.59302 13540.938 0
-639.92957 -349.6409 13660.014 256
-563.32947 -352.51071 13772.133 256
-483.68176 -354.12497 13835.2 256
-401.80731 -354.43631 13847.363 256
-321.07764 -356.17789 13915.404 0
-239.75034 -358.23505 13995.775 256
-157.18896 -359.65442 14051.229 0
-74.218193 -362.29297 14154.313 256
9.9276352 -363.09259 14185.554 256
94.603027 -364.50186 14240.611 256
179.76436 -365.56842 14282.28 256
264.78558 -365.75723 14289.657 256
351.07251 -367.17813 14345.17 256
437.23795 -367.9415 14374.994 256
524.83759 -369.46494 14434.513 0
613.20496 -371.02484 14495.456 0
701.79919 -372.32077 14546.086 0
790.71136 -373.4826 14591.478 0
879.78223 -374.4823 14630.534 0
968.96545 -375.34573 14664.268 0
1070.1483 -380.33133 14859.049 0
1155.3146 -379.29837 14818.692 0
1257.1125 -383.48535 14982.271 0
1351.1554 -384.90918 15037.898 0
1445.3947 -386.2088 15088.673 0
1526.1267 -383.95825 15000.748 0
1662.1366 -395.09598 15435.883 0
1758.9633 -396.24164 15480.644 0
1865.1362 -399.27423 15599.123 0
1981.215 -404.03973 15785.305 0
2095.9119 -408.10526 15944.14 256
2216.8066 -412.97363 16134.342 256
2343.4531 -418.46542 16348.898 256
2489.1628 -426.78848 16674.068 256
2619.9956 -432.02109 16878.5 256
2771.4207 -440.13806 17195.619 256
3061.1479 -468.86078 18317.777 256
3078.3225 -455.29877 17787.928 0
3187.2253 -455.75388 17805.709 256
3350.7563 -463.74026 18117.727 256
3595.9399 -482.17804 18838.066 256
3679.7114 -478.51227 18694.85 328964
3897.5208 -491.98087 19221.049 197379
0 0 0 0
4203.0068 -501.16364 19579.809 0
4371.8501 -507.25198 19817.674 0
0 0 0 0
0 0 0 0
0 0 0 0
0 0 0 0
0 0 0 0
0 0 0 0
5221.0742 -509.66718 19912.031 256
0 0 0 0
0 0 0 0
0 0 0 0
0 0 0 0
0 0 0 0
0 0 0 0
0 0 0 0
0 0 0 0
0 0 0 0
0 0 0 0
0 0 0 0
0 0 0 0
0 0 0 0
0 0 0 0
0 0 0 0
0 0 0 0
7200.9678 -507.41544 19824.059 0
7221.439 -500.66611 19560.371 256
7274.8101 -496.37549 19392.742 512
7146.4658 -480.01324 18753.49 1514524
7053.5083 -466.4939 18225.307 11253682
7175.0347 -467.35413 18258.916 0
7436.3184 -477.15637 18641.877 512
7706.4302 -487.229 19035.4 2500903
7643.729 -476.27286 18607.359 256
7646.397 -469.64429 18348.389 256
7940.8813 -480.87354 18787.102 0
8059.126 -481.26685 18802.467 0
8166.9019 -481.03281 18793.322 0
8227.918 -478.08804 18678.275 256
8272.4863 -474.27875 18529.451 256
9029.3311 -510.86932 19958.996 8225920
8311.8281 -464.17566 18134.736 1710361
8632.2725 -475.89984 18592.785 0
8683.9844 -472.69958 18467.756 65536
8640.4434 -464.45914 18145.811 65536
8627.5928 -458.05109 17895.457 0
8683.7754 -455.41959 17792.648 0
8943.0098 -463.37231 18103.352 256
8987.3037 -460.1315 17976.736 256
8995.2832 -455.12936 17781.311 256
8904.0225 -445.28061 17396.531 256
8922.3398 -441.07486 17232.219 256
9036.0957 -441.62903 17253.869 256
8999.625 -434.91101 16991.404 256
9048.9443 -432.44186 16894.939 256
9231.6865 -436.33316 17046.967 65536
9318.9229 -435.6749 17021.25 256
9463.877 -437.70023 17100.377 256
9393.1191 -429.81192 16792.191 256
9382.0488 -424.79193 16596.066 256
9471.6348 -424.38644 16580.225 256
9608.0596 -426.06631 16645.855 512
10521.434 -461.81442 18042.486 4015169
10648.334 -462.66898 18075.873 2830895
10745.116 -462.21091 18057.977 4739407
9526.5752 -405.74161 15851.796 0
10156.164 -428.32028 16733.914 256
10243.553 -427.81631 16714.225 256
10461.197 -432.70981 16905.408 512
10561.769 -432.71378 16905.562 66561
10770.492 -437.10693 17077.197 5136219
10212.937 -410.60986 16041.991 8029061
10058.099 -400.64435 15652.652 2108975
10279.53 -405.71213 15850.644 528660
11045.145 -431.97067 16876.529 5993589
12225.025 -473.81247 18511.234 10663095
12610.423 -484.39026 18924.496 10334386
12928.508 -492.21835 19230.328 10333616
13042.036 -492.18951 19229.201 10465460
13160.927 -492.36179 19235.932 11057339
0 0 0 0
0 0 0 0
10894.382 -397.21677 15518.74 12
11042.592 -399.24063 15597.81 11
0 0 0 0
0 0 0 0
12765.982 -450.21051 17589.137 7898758
12644.533 -442.30545 17280.297 8162188
11765.898 -408.25485 15949.984 8224644
10477.279 -360.63657 14089.6 65539
10890.497 -371.88754 14529.161 65539
10951.524 -371.02957 14495.642 2
11106.638 -373.34769 14586.207 2
11324.139 -377.71082 14756.668 2
11479.545 -379.9516 14844.213 0
11622.539 -381.75055 14914.496 256
11753.357 -383.1254 14968.209 256
11907.025 -385.21881 15049.996 256
12094.223 -388.35764 15172.626 256
12163 -387.6756 15145.979 256
12284.262 -388.66412 15184.6 0
12372.736 -388.60846 15182.425 0
12507.362 -389.99265 15236.503 0
12604.397 -390.19324 15244.34 0
12774.098 -392.62439 15339.322 2
12862.523 -392.54065 15336.052 2
12880.847 -390.33386 15249.834 2
13155.003 -395.85635 15465.591 2
13043.524 -389.77829 15228.13 2
12905.711 -383.00244 14963.405 0
13130.134 -386.99591 15119.425 256
13133.649 -384.46829 15020.674 256
12928.542 -375.90891 14686.27 256
12998.57 -375.41052 14666.799 256
13115.53 -376.26514 14700.188 256
13248.402 -377.56192 14750.852 256
13244.074 -374.95734 14649.094 256
13210.066 -371.55203 14516.053 256
13223.079 -369.50482 14436.07 256
13323.61 -369.91382 14452.051 256
13378.774 -369.06613 14418.932 256
13376.814 -366.66342 14325.062 256
13400.637 -364.99338 14259.814 256
13485.505 -364.99655 14259.938 256
11485.894 -308.93384 12069.642 256
14051.971 -375.60727 14674.486 256
14701.617 -390.54828 15258.211 256
14946.843 -394.62845 15417.618 2
0 0 0 0
0 0 0 0
0 0 0 0
-7672.5293 -165.9474 8444.0449 256
-6792.3965 -147.87849 7524.6289 256
-7070.7847 -154.95959 7884.9424 256
-8126.2271 -179.27832 9122.373 256
-7849.4424 -174.33513 8870.8447 256
-6274.1929 -140.29134 7138.5649 256
-6248.1377 -140.6599 7157.3184 256
-6434.1729 -145.84088 7420.9473 256
-6450.9185 -147.22968 7491.6147 0
-6595.7451 -151.5813 7713.042 256
-6353.3726 -147.03308 7481.6108 256
-6038.9805 -140.74228 7161.5103 256
-6002.7905 -140.89186 7169.1221 256
-5964.1099 -140.98471 7173.8467 256
-5937.2554 -141.36047 7192.9668 256
-5919.9238 -141.97006 7223.9849 256
-5873.541 -141.88676 7219.7466 256
-6277.1025 -152.7515 7772.5859 256
-6188.9473 -151.72284 7720.2446 256
-6561.187 -162.04977 8245.7178 0
-6264.7388 -155.89241 7932.4082 0
-6234.3369 -156.31223 7953.7695 0
-6082.2837 -153.66498 7819.0679 0
-6050.3101 -154.0341 7837.8496 0
-6115.1597 -156.89305 7983.3242 0
-5624.6738 -145.43739 7400.4165 0
-5607.939 -146.14751 7436.5493 0
-5587.6367 -146.77521 7468.4893 0
-6241.1602 -165.25461 8408.793 0
-6334.8271 -169.08873 8603.8877 0
-6311.1025 -169.82635 8641.4209 0
-6279.4126 -170.35999 8668.5742 0
-6251.2583 -170.99915 8701.0967 0
-6655.2642 -183.56903 9340.7012 0
-6199.3984 -172.43346 8774.0801 0
-6154.4482 -172.63535 8784.3535 0
-6094.6523 -172.4207 8773.4307 0
-6061.582 -172.96494 8801.124 0
-6361.9531 -183.11612 9317.6553 0
-6086.1904 -176.71707 8992.0469 0
-6423.5054 -188.16354 9574.4873 0
-6322.4663 -186.85913 9508.1143 0
-6355.3916 -189.52623 9643.8262 0
-6327.2871 -190.40529 9688.5566 0
-6275.7256 -190.58813 9697.8604 0
-6209.3979 -190.32178 9684.3076 0
-6298.7876 -194.86794 9915.6328 0
-6289.9526 -196.43245 9995.2412 0
-6162.0034 -194.27144 9885.2812 0
-6113.0767 -194.58417 9901.1943 0
-6074.9888 -195.25134 9935.1426 0
-6179.936 -200.57391 10205.976 0
-6128.8047 -200.88617 10221.864 256
-5566.0537 -184.26723 9376.2285 256
-5971.9946 -199.70551 10161.788 256
-5460.0044 -184.44975 9385.5156 256
-5416.5601 -184.8708 9406.9404 256
-5377.731 -185.45982 9436.9121 256
-5343.3618 -186.21669 9475.4248 0
-5302.96 -186.77721 9503.9453 0
-5254.5752 -187.06558 9518.6191 0
-5213.6113 -187.62732 9547.2021 0
-5174.4688 -188.26765 9579.7852 0
-5137.4111 -188.99896 9616.9971 0
-5094.4448 -189.5269 9643.8604 0
-5052.0396 -190.08795 9672.4092 0
-5009.645 -190.66232 9701.6357 0
-4968.7539 -191.30797 9734.4883 0
-4927.0967 -191.939 9766.5977 0
-4885.0415 -192.56937 9798.6729 0
-4842.002 -193.17567 9829.5244 0
-4802.2002 -193.92757 9867.7832 0
-4761.3765 -194.65625 9904.8613 0
-4720.4292 -195.39806 9942.6074 0
-4679.2349 -196.1483 9980.7832 0
-4635.0869 -196.79243 10013.56 0
-4591.3271 -197.47003 10048.037 0
-4548.1587 -198.19124 10084.735 0
-4505.3516 -198.94765 10123.225 0
-4463.1196 -199.75029 10164.066 0
-4425.8867 -200.80176 10217.569 0
-4382.6914 -201.60825 10258.605 0
-4338.6538 -202.39813 10298.799 0
-4295.8994 -203.27138 10343.233 0
-4254.3765 -204.22911 10391.966 0
-4211.1567 -205.13237 10437.927 0
-4164.2114 -205.87845 10475.891 0
-4115.8931 -206.57829 10511.501 0
-4067.6545 -207.30376 10548.416 0
-4017.8215 -207.96941 10582.286 0
-3967.946 -208.65399 10617.121 0
-3915.8564 -209.24237 10647.061 0
-3865.9761 -209.97011 10684.09 0
-3814.7646 -210.64862 10718.616 0
-3765.0974 -211.43694 10758.728 0
-3716.4036 -212.30807 10803.055 0
-3663.5234 -212.96649 10836.557 0
-3611.3733 -213.69162 10873.455 0
-3555.6497 -214.22792 10900.743 0
-3500.5391 -214.82173 10930.96 0
-3442.9102 -215.28056 10954.306 0
-3385.7937 -215.78969 10980.213 0
-3327.927 -216.2701 11004.658 0
-3269.1536 -216.70967 11027.025 0
-3212.658 -217.3213 11058.147 0
-3154.543 -217.84665 11084.879 0
-3094.0117 -218.224 11104.08 0
-3036.4495 -218.83177 11135.006 0
-2986.0315 -219.99297 11194.092 65536
-2927.676 -220.60898 11225.437 0
-2869.4922 -221.26692 11258.916 0
-2814.0205 -222.17043 11304.89 0
-2755.9766 -222.91013 11342.527 0
-2700.0674 -223.86386 11391.058 0
-2639.5044 -224.47087 11421.945 0
-2578.5417 -225.07507 11452.689 0
-2514.7312 -225.45673 11472.108 65536
-2453.2266 -226.07211 11503.423 65536
-2395.1013 -227.04315 11552.833 65536
-2332.834 -227.66728 11584.591 65536
-2271.373 -228.41043 11622.405 65536
-2208.7502 -229.07973 11656.461 0
-2143.2786 -229.48732 11677.201 0
-2078.344 -229.98163 11702.354 256
-2019.2771 -231.18196 11763.431 0
-2001.2104 -237.33072 12076.304 0
-1990.406 -244.83026 12457.909 0
-1898.9963 -242.61137 12345.004 0
-1766.5364 -234.75885 11945.437 0
-1724.2607 -238.73534 12147.776 0
-1635.3771 -236.32422 12025.089 0
-1630.9291 -246.45189 12540.424 0
-1561.5371 -247.26582 12581.84 0
-1496.0637 -248.81331 12660.582 0
-1430.9316 -250.58449 12750.707 65536
-1361.1396 -251.69209 12807.065 65536
-1294.5916 -253.56628 12902.432 0
-1221.9598 -254.4099 12945.357 0
-1149.5295 -255.41161 12996.328 0
-1077.984 -256.76837 13065.366 0
-1005.5721 -258.1134 13133.807 0
-933.56891 -259.79858 13219.555 0
-859.14941 -261.05927 13283.703 0
-784.82074 -262.60547 13362.38 0
-701.64417 -261.20593 13291.166 0
-639.1698 -268.13602 13643.796 256
-562.39484 -270.20911 13749.283 256
-482.71866 -271.35623 13807.652 256
-400.9834 -271.57864 13818.97 256
-320.81467 -273.24985 13904.008 256
-239.23512 -274.46222 13965.698 0
-157.0425 -275.88583 14038.136 0
-74.181618 -278.03189 14147.337 0
9.9201527 -278.57288 14174.863 0
94.576653 -279.78696 14236.641 256
179.4169 -280.14139 14254.675 256
264.4343 -280.4563 14270.7 256
350.50235 -281.46198 14321.873 256
436.21658 -281.84604 14341.415 256
525.24945 -283.89825 14445.839 256
612.2359 -284.42313 14472.548 0
699.60132 -284.97308 14500.53 0
787.60071 -285.63229 14534.075 0
877.59833 -286.81427 14594.217 0
968.44476 -288.03607 14656.388 0
1065.0242 -290.62061 14787.898 0
1156.5098 -291.52707 14834.023 0
1254.8461 -293.9097 14955.261 0
1349.6567 -295.20593 15021.219 0
1441.3425 -295.70029 15046.372 0
1547.3569 -298.90469 15209.426 0
1658.8843 -302.7616 15405.68 0
1765.0804 -305.29288 15534.48 0
1867.3743 -306.93112 15617.841 0
1977.7917 -309.68622 15758.03 0
2093.5154 -312.98544 15925.909 256
2205.1575 -315.4155 16049.559 256
2326.2668 -318.94199 16229 256
2439.9956 -321.21606 16344.714 0
2563.7561 -324.58609 16516.193 0
2679.4978 -326.7298 16625.273 0
3069.5381 -360.97861 18367.984 197634
3156.3032 -358.43457 18238.535 256
3133.405 -344.01941 17505.037 256
3347.3989 -355.70358 18099.572 256
3508.1125 -361.17471 18377.965 256
3657.8015 -365.21472 18583.535 256
3950.4905 -382.87729 19482.275 4342850
0 0 0 0
0 0 0 0
0 0 0 0
0 0 0 0
0 0 0 0
0 0 0 0
0 0 0 0
0 0 0 0
0 0 0 0
0 0 0 0
0 0 0 0
0 0 0 0
0 0 0 0
0 0 0 0
0 0 0 0
0 0 0 0
0 0 0 0
0 0 0 0
0 0 0 0
0 0 0 0
0 0 0 0
0 0 0 0
0 0 0 0
0 0 0 0
0 0 0 0
7128.4531 -392.08621 19950.861 0
7255.085 -392.52213 19973.041 2763818
7165.6069 -381.44003 19409.143 256
7180.2695 -376.16486 19140.721 0
7267.6299 -374.80338 19071.443 0
6920.8232 -351.43689 17882.467 66049
6726.7036 -336.41333 17118.01 256
7408.7593 -365.00351 18572.789 256
7562.751 -367.12042 18680.504 0
7574.1079 -362.3522 18437.879 0
7800.9673 -367.88278 18719.297 0
7924.7603 -368.46573 18748.959 263428
7992.894 -366.4805 18647.943 256
8132.9058 -367.80014 18715.092 2434339
8109.2329 -361.78165 18408.848 0
8388.7314 -369.26886 18789.826 0
8389.7881 -364.4635 18545.311 723722
8485.0811 -363.82343 18512.74 855057
8828.1699 -373.68872 19014.725 5197651
8863.7705 -370.45337 18850.098 1052433
8924.4355 -368.33331 18742.221 1908253
8999.5518 -366.85458 18666.979 197378
8862.7021 -356.87665 18159.262 0
8958.4189 -356.3909 18134.545 256
9042.4619 -355.45779 18087.064 65792
9073.6465 -352.49319 17936.215 65536
8978.4404 -344.74438 17541.926 65536
8969.8193 -340.45996 17323.918 65536
9100.585 -341.50327 17377.006 65536
9065.1045 -336.35477 17115.029 65536
9099.3721 -333.87973 16989.09 256
9263.8936 -336.18594 17106.439 0
9345.5996 -335.46933 17069.975 256
9346.2822 -331.89093 16887.893 256
9408.2998 -330.54352 16819.33 256
9400.9736 -326.81369 16629.543 256
9444.3604 -324.90616 16532.48 256
9533.5449 -324.59723 16516.76 256
10232.098 -344.83084 17546.324 0
9396.9268 -313.48978 15951.571 658184
9757.3984 -322.2641 16398.043 256
9888.2139 -323.35492 16453.547 0
10049.385 -325.40726 16557.979 0
10187.932 -326.69431 16623.469 0
10365.67 -329.20135 16751.035 256
10521.624 -330.9754 16841.307 66049
9776.9111 -304.651 15501.82 790541
9899.0195 -305.57632 15548.903 257
10494.479 -320.96149 16331.759 1120022
11752.094 -356.13022 18121.281 516
11499.414 -345.30859 17570.635 7311243
11832.882 -352.12436 17917.447 10532278
12282.685 -362.2496 18432.658 8623254
12529.153 -366.25195 18636.314 9939628
12768.114 -369.96664 18825.332 9872554
12674.902 -364.07535 18525.561 9938602
0 0 0 0
0 0 0 0
10964.557 -306.94806 15618.703 988695
11247.39 -312.22253 15887.088 5792355
0 0 0 0
0 0 0 0
13142.337 -355.86301 18107.684 9016213
13469.454 -361.75818 18407.652 8095366
12785.553 -340.62347 17332.238 10134180
10051.787 -265.65216 13517.408 2632493
10095.567 -264.69363 13468.634 3751231
10460.631 -272.1076 13845.886 1
10898.193 -281.27698 14312.459 1
10961.984 -280.73221 14284.738 789772
11350.329 -288.4436 14677.124 0
11541.104 -291.0549 14809.996 256
11656.349 -291.73624 14844.666 256
11826.087 -293.76096 14947.692 256
12038.977 -296.81943 15103.318 256
12140.981 -297.11899 15118.562 256
12269.993 -298.07019 15166.963 256
12394.794 -298.90601 15209.491 256
12559.374 -300.68204 15299.863 256
12623.423 -300.04306 15267.35 256
12727.41 -300.35568 15283.258 513
12749.124 -298.73611 15200.847 723466
12871.979 -299.49252 15239.336 1382167
13115.947 -303.03668 15419.676 256
13147.171 -301.65036 15349.135 263172
13062.105 -297.63339 15144.736 0
13094.174 -296.32214 15078.016 256
13140.425 -295.3475 15028.422 256
12980.352 -289.77997 14745.124 256
12982.66 -287.88785 14648.846 256
13078.408 -288.07916 14658.58 256
13178.913 -288.37201 14673.481 256
13164.952 -286.17282 14561.578 256
13125.666 -283.45544 14423.308 256
13128.149 -281.66949 14332.432 256
13201.826 -281.42422 14319.952 256
13223.873 -280.08859 14251.988 256
13268.239 -279.23962 14208.791 256
13372.587 -279.65579 14229.966 256
13554.225 -281.67288 14332.604 256
14075.404 -290.67682 14790.759 256
14143.739 -290.27515 14770.32 256
14726.562 -300.37222 15284.099 256
14994.738 -303.96716 15467.022 2
0 0 0 0
0 0 0 0
0 0 0 0
-6920.2334 -104.41106 7616.1021 527372
-6884.606 -104.55743 7626.7783 395530
-7099.2051 -108.53114 7916.6353 256
-6105.8062 -93.967056 6854.2808 256
-7787.7378 -120.65663 8801.1104 256
-6278.2236 -97.927238 7143.1499 256
-6234.2769 -97.903816 7141.4409 256
-7483.9106 -118.33384 8631.6777 256
-6171.9766 -98.26342 7167.6724 0
-6127.9038 -98.239822 7165.9507 256
-6087.0386 -98.267662 7167.981 256
-6047.0342 -98.309875 7171.061 256
-6006.7905 -98.348785 7173.8994 256
-5967.0303 -98.396217 7177.3594 256
-5928.0703 -98.457634 7181.8394 256
-5904.0928 -98.770576 7204.6665 256
-5860.709 -98.761086 7203.9731 256
-5815.5889 -98.721962 7201.1201 256
-5782.1782 -98.882507 7212.8306 256
-5739.8188 -98.891281 7213.4702 0
-5720.3652 -99.297798 7243.123 0
-5679.3569 -99.333481 7245.7261 0
-5656.7261 -99.693588 7271.9932 0
-5628.3511 -99.95723 7291.2241 0
-5612.5986 -100.45087 7327.2324 0
-5592.5186 -100.87418 7358.1094 0
-5564.3169 -101.15651 7378.7036 0
-5552.5068 -101.74368 7421.5342 0
-5540.3687 -102.3342 7464.6084 0
-5525.3354 -102.88033 7504.4458 0
-5514.3872 -103.51205 7550.5259 0
-6704.6382 -126.88716 9255.5869 0
-6662.5967 -127.13461 9273.6367 0
-6652.8115 -128.00684 9337.2588 0
-6587.502 -127.81638 9323.3672 0
-6549.0669 -128.14857 9347.5986 0
-6600.6567 -130.26309 9501.8389 0
-6682.4033 -133.01439 9702.5273 0
-6702.5718 -134.57716 9816.5215 0
-6655.1372 -134.79811 9832.6377 0
-6596.1157 -134.78621 9831.7695 0
-6548.3262 -135.00565 9847.7764 0
-6493.0845 -135.07402 9852.7637 0
-6291.4858 -132.07132 9633.7363 0
-6238.9854 -132.17207 9641.0859 0
-6181.3281 -132.16443 9640.5293 0
-6154.5269 -132.82259 9688.5361 0
-6120.9839 -133.34628 9726.7363 0
-6087.5181 -133.88165 9765.7891 0
-6053.5747 -134.41675 9804.8203 0
-5999.0449 -134.50069 9810.9424 0
-6085.9326 -137.78802 10050.732 0
-6146.9185 -140.54828 10252.075 0
-6112.75 -141.16632 10297.158 0
