# .PCD v0.7 - Point Cloud Data file format
VERSION 0.7
FIELDS x y z rgb
SIZE 4 4 4 4
TYPE F F F U
COUNT 1 1 1 1
WIDTH 1322
HEIGHT 1
VIEWPOINT 0 0 0 1 0 0 0
POINTS 1322
DATA ascii
-5123.6602 2268.1257 5991.5908 256
-5119.0879 2281.9617 6028.1406 256
-5089.5356 2284.7788 6035.5825 256
-5078.3628 2295.9451 6065.0796 257
-5076.2119 2311.3792 6105.8511 258
-5065.5732 2323.1426 6136.9263 1028
-5054.9058 2335.064 6168.418 514
-5037.1133 2343.8438 6191.6108 395787
-5137.4614 2408.1299 6361.4326 988437
-5133.7803 2424.2454 6404.0034 988437
-4999.6836 2378.5571 6283.3115 1449245
-5029.3438 2410.6736 6368.1523 791059
-4999.3501 2414.467 6378.1729 527631
-4926.5063 2397.4656 6333.2607 131845
-4849.5981 2378.209 6282.3921 3
-4765.5049 2355.103 6221.354 3
-4730.8589 2356.2632 6224.4189 132360
-4766.6626 2392.8066 6320.9536 461839
-4715.5688 2385.9626 6302.8745 527632
-4707.9214 2401.168 6343.0415 461839
-4652.0327 2391.8157 6318.3364 461583
-4642.6587 2406.4214 6356.9189 329996
-4628.8608 2418.9548 6390.0278 329997
-4577.2583 2411.7759 6371.064 265231
-4527.7798 2405.606 6354.7651 516
-4483.7495 2402.251 6345.9023 264974
-4416.2563 2386.1619 6303.4009 660247
-4386.8105 2390.531 6314.9424 594713
-4372.6138 2403.3567 6348.8232 660764
-4299.2251 2383.5889 6296.6035 924195
-4261.0425 2383.1638 6295.481 1187880
-4308.54 2431.0762 6422.0483 1582381
-4174.8408 2376.6914 6278.3833 1582381
-4080.2998 2343.8191 6191.5464 924451
-4078.8489 2364.3083 6245.6714 595486
-3991.8862 2335.1519 6168.6504 397079
-3963.2896 2339.9138 6181.2295 132361
-3948.7817 2353.1609 6216.2236 6
-3959.5203 2381.845 6291.9966 1034
-3889.3064 2361.9146 6239.3481 519
-3859.4692 2366.3572 6251.0835 262
-3807.9612 2357.47 6227.6064 593170
-3796.2261 2373.2725 6269.3516 462614
-3774.9453 2383.3618 6296.0039 658965
-3737.0535 2383.0603 6295.2075 791837
-3746.0725 2412.9697 6374.2178 594969
-3610.0842 2349.1323 6205.5815 791578
-3630.4246 2386.752 6304.959 593941
-3501.7212 2326.1482 6144.8662 396558
-3473.2209 2331.5327 6159.0894 725532
-3397.9316 2305.2881 6089.7607 991017
-3505.0876 2403.5891 6349.4375 1188397
-3371.6548 2337.252 6174.1978 1385004
-3403.8721 2385.5486 6301.7803 1846839
-3312.5979 2347.4094 6201.0303 1847871
-3255.6777 2333.0305 6163.0464 2703693
-3213.4258 2328.9553 6152.2812 2769743
-3179.2483 2330.7056 6156.9048 2967379
-3124.7114 2317.3975 6121.7495 3362139
-3019.8723 2266.0305 5986.0557 3231064
-2985.7268 2267.1177 5988.9277 3296857
-2965.7517 2279.1208 6020.6357 4020068
-2909.561 2263.2461 5978.7002 3493724
-2824.5288 2224.2668 5875.7305 3296858
-2808.0781 2238.9941 5914.6353 3494493
-2791.3711 2253.8882 5953.98 3560543
-2743.4846 2243.6655 5926.9751 3033687
-2701.5598 2238.116 5912.3154 2901587
-2670.5139 2241.5513 5921.3906 3427418
-2649.5178 2253.6267 5953.2896 3690588
-2591.7617 2234.3386 5902.3374 3624795
-2555.865 2233.6248 5900.4512 3098451
-2519.1152 2232.135 5896.5156 3361623
-2518.4998 2263.0728 5978.2422 3624026
-2473.8506 2254.7617 5956.2876 2308423
-2477.4832 2290.854 6051.6313 2768717
-2406.2603 2257.7739 5964.2446 2636874
-2316.8445 2206.3787 5828.4771 1978945
-2313.2119 2236.3567 5907.668 2373959
-2260.4551 2219.0344 5861.9087 3360342
-2208.0308 2201.5017 5815.5933 2702925
-2113.8391 2141.105 5656.0464 2505031
-2082.842 2143.8 5663.1665 1517624
-2019.2366 2112.4702 5580.4033 1452087
-2003.4425 2130.948 5629.2153 1978432
-1922.0057 2079.0471 5492.1113 2045508
-1877.9797 2066.52 5459.019 3493469
-1849.85 2071.3513 5471.7822 3888484
-1847.0443 2105.2202 5561.2515 3954790
-1801.6652 2090.9143 5523.4609 3626082
-1769.0201 2091.1304 5524.0312 3888743
-1736.3846 2091.3662 5524.6543 3888743
-1722.8796 2115.0967 5587.3418 4283501
-1686.2737 2110.8425 5576.1035 4020329
-1640.9489 2095.2849 5535.0059 3757413
-1616.7456 2106.6121 5564.9287 3625825
-1600.6661 2129.2188 5624.6475 3823204
-1569.2701 2131.9812 5631.9443 3757412
-1541.4133 2139.7769 5652.5381 3822948
-1504.442 2134.9854 5639.8809 3493467
-1483.4681 2153.1953 5687.9849 2571851
-1444.8032 2145.9778 5668.9189 2900560
-1419.1361 2158.1824 5701.1587 2702923
-1372.9873 2139.074 5650.6812 3360595
-1332.6572 2128.3003 5622.2212 1780790
-1314.5869 2153.4363 5688.6211 2174775
-1282.8711 2156.9561 5697.9199 660507
-1249.1018 2157.1208 5698.355 775
-1211.4233 2150.356 5680.4844 198154
-1182.6412 2159.4473 5704.5005 594196
-1146.598 2155.4255 5693.8765 660249
-1111.3109 2152.624 5686.4756 923417
-1082.332 2162.2488 5711.9009 1055517
-1059.6946 2185.5757 5773.5225 265486
-1017.5911 2168.9727 5729.6631 397073
-981.63043 2164.7666 5718.5522 1028
-946.84924 2162.9531 5713.7617 396558
-913.76727 2165.0308 5719.25 258
-869.25385 2139.1375 5650.8491 773
-845.10724 2163.2976 5714.6719 265227
-816.82684 2178.4563 5754.7158 198151
-782.16479 2177.1763 5751.3345 396814
-737.65125 2147.1047 5671.8955 2502706
-702.05823 2141.3613 5656.7236 2305327
-667.71454 2139.0425 5650.5981 1647651
-630.29089 2126.0889 5616.3789 330508
-597.2243 2127.2053 5619.3286 258
-570.59833 2152.7532 5686.8174 256
-530.66339 2128.1448 5621.8105 256
-489.82913 2096.3806 5537.9004 1283
-456.76254 2095.679 5536.0469 66820
-427.80206 2115.1699 5587.5352 988948
-394.41257 2114.2007 5584.9746 133126
-359.96429 2106.856 5565.5728 67590
-321.99228 2075.3137 5482.249 66822
-293.56821 2105.1362 5561.0293 513
-255.79826 2067.0051 5460.3008 791318
-225.16357 2083.8281 5504.7412 331278
-191.61804 2074.8521 5481.0293 792088
-159.70065 2083.4395 5503.7148 726038
-126.57481 2076.625 5485.7129 1803
-94.436035 2086.8945 5512.8413 1030
-61.407291 2077.9597 5489.2393 262
-29.057449 2097.7847 5541.6094 260
3.8857841 2101.8618 5552.3799 1030
36.494946 2079.6069 5493.5903 259
70.012016 2105.676 5562.4556 771
101.91847 2082.1182 5500.2241 257
135.04282 2088.8408 5517.9829 770
167.69037 2087.0022 5513.126 593165
199.22241 2074.1511 5479.1777 257
233.01434 2085.1333 5508.1895 257
264.41605 2074.656 5480.5117 257
296.12637 2068.6326 5464.6001 258
330.28125 2079.1887 5492.4858 514
363.05225 2079.9177 5494.4116 513
395.1152 2076.8049 5486.1885 258
428.77005 2081.8962 5499.6377 258
460.12512 2075.8906 5483.7729 258
493.30142 2078.3525 5490.2764 258
527.62915 2085.0591 5507.9932 258
562.74261 2093.9058 5531.3628 514
594.82178 2091.1084 5523.9736 512
630.6933 2101.239 5550.7349 256
664.48553 2103.7791 5557.4448 256
694.33606 2094.1899 5532.1138 256
731.15723 2105.5415 5562.1006 256
765.91968 2110.239 5574.5098 256
800.82819 2114.9329 5586.9092 256
835.30573 2118.1599 5595.4336 256
868.27179 2117.4539 5593.5688 256
901.68835 2117.8579 5594.6362 256
938.20917 2125.2654 5614.2036 256
978.05884 2139.4453 5651.6626 256
1015.97 2148.584 5675.8037 256
1051.9095 2153.1001 5687.7334 256
1089.6045 2160.8159 5708.1162 512
1122.3021 2158.4551 5701.8789 512
1153.197 2152.8667 5687.1172 512
1191.1511 2160.4001 5707.0176 512
1228.2854 2166.0708 5721.9976 512
1267.5681 2175.1221 5745.9082 256
1289.3625 2154.4768 5691.3701 592650
1325.9812 2159.0242 5703.3828 256
1374.5577 2182.3303 5764.9492 66563
1389.0446 2151.6958 5684.0239 1580059
1453.1067 2197.4873 5804.9888 0
1477.2367 2182.1672 5764.5186 0
1516.1531 2188.8889 5782.2749 724236
1555.5695 2196.0186 5801.1089 65793
1593.9723 2201.439 5815.4277 197636
1629.2289 2202.3767 5817.9048 256
1663.1337 2201.4856 5815.5513 256
1695.9574 2199.2295 5809.5908 0
1746.9873 2220.2007 5864.9897 1514266
1771.285 2207.0427 5830.231 2633004
1777.4509 2172.231 5738.2705 395529
1855.1755 2224.5356 5876.4409 513
1900.6145 2236.9092 5909.1274 131842
1913.5481 2211.271 5841.4004 132614
1973.4849 2239.8945 5917.0142 1514523
2012.4495 2244.1296 5928.2012 256
2040.718 2236.4966 5908.0376 257
2060.3945 2219.865 5864.1025 856851
2097.2144 2221.9495 5869.6089 594451
2163.3684 2254.5361 5955.6914 1252637
2168.3809 2223.3811 5873.3911 1186845
2225.4956 2245.7905 5932.5889 1384480
2288.7905 2273.6406 6006.1587 1450018
2310.23 2259.6953 5969.3203 1121309
2363.2749 2276.6182 6014.0249 266003
2372.479 2251.4331 5947.4946 1976621
2412.4336 2255.7405 5958.873 1516072
2428.4043 2237.8215 5911.5376 726297
2455.7239 2230.7227 5892.7852 660506
2529.3816 2265.3242 5984.1904 2438463
2546.5728 2249.0957 5941.3203 1583669
2647.7866 2306.5042 6092.9727 1320756
2666.5022 2291.468 6053.2524 1715259
2729.3843 2314.2812 6113.5176 2768718
2734.8457 2288.4475 6045.2734 2703184
2732.8818 2257.1506 5962.5986 3295577
2771.759 2259.9551 5970.0068 3887714
2863.2715 2305.062 6089.1636 4282474
2860.1711 2273.8267 6006.6504 5204602
2867.6406 2251.6602 5948.0947 5204603
2842.7053 2204.8999 5824.5698 5138297
2849.1875 2183.3396 5767.6157 5203833
2836.3948 2147.6973 5673.4614 5466748
2630.698 1968.543 5200.1982 5466233
0 0 0 0
0 0 0 0
0 0 0 0
1956.0874 1398.0352 3693.1172 271
1977.8832 1397.9265 3692.8303 398622
2006.7062 1402.7324 3705.5259 5204342
2034.6876 1406.8522 3716.4087 5532285
2063.8647 1411.7013 3729.2185 5598337
2110.27 1428.1063 3772.5549 2701642
2103.5444 1408.5886 3720.9958 2502466
2147.4231 1423.0104 3759.0933 5860734
2239.0818 1468.4711 3879.1843 5531511
2210.3728 1434.868 3790.417 5596789
0 0 0 0
2229.1838 1418.1718 3746.311 13
2207.2419 1390.3258 3672.7517 10
2220.675 1385.0895 3658.9194 262
2317.4731 1431.4473 3781.3804 1056292
2237.7351 1368.9196 3616.2043 6517627
0 0 0 0
2186.6763 1312.4733 3467.093 6
2220.9009 1320.5712 3488.4846 7
2251.3748 1326.3094 3503.6431 9
2163.5698 1262.9017 3336.1423 8
2097.0178 1212.9386 3204.1575 5140089
2230.2537 1278.3944 3377.0684 5795452
2260.4753 1284.1609 3392.3015 5532542
2293.6448 1291.4854 3411.6501 5466235
2382.6223 1329.8297 3512.9426 5531258
2473.1194 1368.3489 3614.6965 5663355
2483.9685 1362.5157 3599.2876 5859962
2492.6501 1355.6034 3581.0276 6319742
2487.1091 1341.1388 3542.8171 13
2511.0574 1342.6853 3546.9023 18
2513.9697 1333.0514 3521.4531 528
0 0 0 0
0 0 0 0
4587.6841 2373.3777 6269.6294 5532539
4591.9507 2356.4453 6224.8999 5466233
4723.8208 2404.7422 6352.4834 5137268
4874.1846 2461.6133 6502.7168 5137525
4982.4473 2496.4941 6594.8599 5203319
5055.9316 2513.5408 6639.8911 5334649
5111.1597 2521.3176 6660.4346 5598077
5282.3608 2585.7444 6830.6274 5400441
5393.8818 2620.1973 6921.6401 5334648
5328.5054 2568.8472 6785.9912 5203059
5531.3218 2646.592 6991.3657 5070961
5463.5249 2594.6616 6854.1836 5334133
5661.3101 2668.6929 7049.748 5399926
5594.4004 2617.7783 6915.2495 5333878
5649.2715 2624.175 6932.1479 5268342
5663.5093 2611.7412 6899.3022 5268342
5753.126 2633.9976 6958.0957 4807533
5827.2974 2648.9153 6997.5029 5136755
5848.1279 2639.5461 6972.7529 5070962
5932.7651 2658.9055 7023.8936 5070706
6062.6655 2698.1382 7127.5322 5136754
6133.7896 2710.8496 7161.1118 4873328
6247.2363 2741.9622 7243.2998 4281191
6224.1411 2713.1294 7167.1338 3754847
6247.7231 2704.897 7145.3867 3425625
6286.7231 2703.4058 7141.4478 3359833
6254.1758 2671.3745 7056.8325 2569803
6297.668 2672.0325 7058.5703 2108481
6192.2974 2609.9392 6894.5415 2633795
5912.8765 2475.7852 6540.1538 2632505
5776.6167 2402.9353 6347.71 3093566
5086.771 2102.2463 5553.3955 1512473
4891.2271 2008.4005 5305.4883 393730
4852.8325 1979.8717 5230.125 196608
4849.8086 1966.0448 5193.5991 131072
4943.4531 1991.3328 5260.4009 4344130
4883.2358 1954.7134 5163.6655 4344387
4723.2769 1878.8754 4963.3281 2367773
4835.3232 1911.5081 5049.5322 1709073
4683.4634 1840.054 4860.7759 131072
4734.3594 1848.6473 4883.4761 196608
0 0 0 0
0 0 0 0
0 0 0 0
0 0 0 0
-5114.917 2178.6687 5666.314 512
-5087.5562 2181.3767 5673.3569 256
-5065.0146 2186.2012 5685.9048 256
-5054.5112 2196.321 5712.2251 256
-5031.2417 2200.9934 5724.3765 256
-5018.6909 2210.4504 5748.9722 256
-4985.5483 2210.9053 5750.1553 257
-5013.6294 2238.7039 5822.4546 67078
-4977.397 2237.9722 5820.5513 528400
-4958.3462 2245.0095 5838.8545 396559
-4997.3008 2278.5945 5926.2026 528402
-5098.2759 2341.1362 6088.8618 1054747
-5092.3657 2355.1392 6125.2812 1054747
-5102.7314 2376.9255 6181.9434 68108
-5027.0303 2358.646 6134.4019 265229
-4906.1846 2318.7629 6030.6733 198667
-4855.7852 2311.8325 6012.6484 330253
-4875.5107 2338.4331 6081.8315 132874
-4799.0796 2318.9668 6031.2041 198409
-4691.4839 2284.0356 5940.354 132614
-4698.3149 2304.7051 5994.1118 329994
-4689.2578 2317.8374 6028.2666 462865
-4627.9565 2305.1497 5995.2676 989210
-4574.3813 2296.1428 5971.8428 1055004
-4509.9429 2281.4993 5933.7578 989211
-4514.0171 2301.5581 5985.9268 660502
-4552.4175 2339.5764 6084.8052 660246
-4489.7002 2325.8208 6049.0298 594455
-4462.1279 2330.1963 6060.4097 1186593
-4456.1147 2345.9934 6101.4951 1647401
-4374.2241 2321.7751 6038.5078 1121572
-4412.1367 2361.2722 6141.2319 1648431
-4426.0098 2388.4551 6211.9297 1911861
-4280.9336 2329.5986 6058.855 1715510
-4268.2153 2342.3809 6092.0996 2044733
-4269.6597 2363.2209 6146.3003 2373444
-4195.2725 2342.0862 6091.333 3162703
-4159.2842 2342.207 6091.6475 2307394
-4147.5771 2356.1233 6127.8413 1978684
-4077.989 2337.1145 6078.4023 1583411
-4070.9993 2353.9622 6122.2197 1450799
-4042.7051 2358.6833 6134.499 661024
-4061.708 2391.3367 6219.4248 990501
-3957.533 2351.4028 6115.564 2240825
-3876.8726 2324.8296 6046.4517 2108983
-3727.1333 2255.9473 5867.3013 2043190
-3733.2478 2280.9895 5932.4316 68368
-3764.627 2322.0928 6039.3335 727328
-3715.8352 2314.0605 6018.4434 2701376
-3570.4102 2245.1082 5839.1113 2242109
-3529.4768 2241.1526 5828.8232 1913918
-3431.3494 2200.4414 5722.9409 3362133
-3539.26 2292.3647 5962.0171 2902354
-3619.5945 2368.1062 6159.0063 3495264
-3519.6128 2326.2188 6050.0645 3955045
-3414.3862 2279.9644 5929.7651 3495009
-3367.3621 2272.0151 5909.0908 3166301
-3349.2974 2283.6438 5939.335 3429729
-3346.6084 2306.1152 5997.7793 3824229
-3256.8743 2268.4431 5899.8008 3889766
-3234.4973 2277.3762 5923.0342 3823716
-3240.2161 2306.5056 5998.7944 3955047
-3110.0959 2238.5122 5821.9561 4021354
-3094.2534 2252.1663 5857.4678 3823975
-2933.8464 2159.7119 5617.0112 3955047
-2912.6021 2168.751 5640.5205 4152426
-2919.7051 2199.354 5720.1133 4218220
-2772.7898 2113.2927 5496.2837 4284012
-2745.959 2117.7935 5507.9888 4283497
-2761.0425 2155.1187 5605.0649 66826
-2719.5977 2148.6938 5588.355 3625825
-2666.3052 2132.6335 5546.5854 3691873
-2654.2126 2149.5376 5590.5493 3362910
-2639.4299 2164.6638 5629.8901 2573393
-2576.2166 2139.9492 5565.6123 2770260
-2549.605 2145.3909 5579.7651 2902101
-2579.4214 2199.0835 5719.4092 2835795
-2464.7261 2129.3613 5538.0752 1386037
-2432.4109 2129.8865 5539.4404 1318957
-2386.0393 2117.9487 5508.3926 1977655
-2343.4646 2109.0959 5485.3687 1450540
-2313.2983 2111.3186 5491.1494 331288
-2276.2625 2107.2454 5480.5552 330258
-2223.6548 2088.4287 5431.6167 658708
-2173.8977 2071.7747 5388.3027 329225
-2155.0969 2084.5654 5421.5693 263947
-2127.9678 2089.5667 5434.5762 197899
-2067.4216 2061.4023 5361.3262 1291
-2004.303 2029.7511 5279.0073 264721
-1947.7778 2003.8766 5211.7124 528409
-1926.0032 2013.4948 5236.7275 924712
-1937.0494 2058.3044 5353.269 1321015
-1945.33 2101.6228 5465.9321 2111559
-1880.4115 2065.9897 5373.2568 3165016
-1831.6011 2047.1285 5324.2026 3625569
-1787.1942 2032.6127 5286.4492 3362653
-1761.9458 2039.7563 5305.0288 3954791
-1736.4993 2046.9268 5323.6777 4283756
-1711.8558 2055.3276 5345.5273 4349294
-1690.9329 2068.5977 5380.04 4284015
-1626.3046 2027.8823 5274.1465 4349807
-1600.1847 2034.527 5291.4282 4349807
-1560.7666 2024.1913 5264.5469 4547186
-1529.9769 2024.8523 5266.2661 4218478
-1502.1899 2029.5975 5278.6074 4086890
-1477.0757 2038.2334 5301.0679 3691875
-1459.4088 2057.7466 5351.8179 3560032
-1432.634 2065.001 5370.6855 3362909
-1422.8665 2097.6589 5455.623 1650235
-1378.4768 2079.6082 5408.6763 2571596
-1350.9933 2086.8096 5427.4058 3690076
-1309.0308 2071.4512 5387.4609 3426904
-1294.8771 2100.4314 5462.8335 1847614
-1270.1174 2113.2561 5496.188 3689817
-1254.7676 2142.8269 5573.0967 2966863
-1220.844 2141.4226 5569.4443 2967120
-1184.9023 2136.3013 5556.1245 3230290
-1145.974 2125.3472 5527.6348 3164495
-1094.6355 2090.0513 5435.8364 1321264
-1060.1022 2085.6711 5424.4448 331800
-1037.6703 2105.5718 5476.2026 2570044
-1025.6338 2148.5378 5587.9497 2306357
-987.3584 2137.574 5559.4346 1122082
-956.2254 2141.8494 5570.5537 1517095
-917.54419 2128.9172 5536.9199 924702
-864.95746 2081.5593 5413.7505 1253154
-840.3681 2100.5215 5463.0679 727068
-802.88068 2087.4736 5429.1328 594453
-760.14423 2059.1143 5355.375 2306099
-748.61163 2116.4963 5504.6152 530458
-709.30634 2097.0149 5453.9478 2108976
-681.12177 2110.1199 5488.0312 1385510
-651.38947 2119.5071 5512.4458 1780010
-609.17377 2087.1184 5428.209 1319200
-579.89227 2097.9001 5456.25 1055003
-546.24347 2093.2234 5444.0869 199177
-510.45053 2079.2241 5407.6772 726035
-468.68692 2037.3887 5298.8711 67848
-439.35388 2047.4545 5325.0503 1252637
-407.25299 2045.1833 5319.1436 462866
-383.42563 2087.5752 5429.397 529428
-342.19785 2034.3152 5290.8774 2108205
-311.92435 2041.9879 5310.8325 1121053
-279.32593 2034.4545 5291.2397 660244
-248.29445 2037.8702 5300.1235 199437
-218.01805 2049.3765 5330.0488 264973
-185.29462 2037.8823 5300.1548 66823
-152.9586 2026.813 5271.3657 594195
-122.76044 2045.6663 5320.3994 132873
-91.574493 2055.4304 5345.7944 264459
-59.753189 2053.7324 5341.3779 527889
-28.153475 2064.4338 5369.2104 516
3.8006377 2088.0818 5430.7144 514
35.569141 2058.6733 5354.229 512
67.678932 2067.4641 5377.0913 256
99.540733 2065.47 5371.9048 257
131.01321 2058.3276 5353.3296 0
162.70509 2056.7498 5349.2261 256
195.26465 2064.8635 5370.3281 256
227.45164 2067.3113 5376.6938 256
259.22379 2065.8494 5372.8926 256
289.75348 2055.8928 5346.9971 256
323.1051 2065.948 5373.1484 330762
355.20804 2066.9285 5375.6982 528142
385.7088 2059.1931 5355.5806 770
419.98724 2071.2681 5386.9849 769
451.46097 2068.78 5380.5137 988692
482.7489 2065.8257 5372.8306 527884
517.3075 2076.366 5400.2437 857106
551.90155 2085.8088 5424.8027 513
581.16223 2075.165 5397.1206 512
612.63177 2073.1096 5391.7749 513
651.34052 2094.5381 5447.5059 528141
681.25275 2086.989 5427.8726 512
715.55029 2092.9497 5443.375 512
749.25983 2096.749 5453.2563 256
784.68079 2104.824 5474.2583 256
813.97321 2096.4714 5452.5347 256
847.20581 2098.5183 5457.8574 256
879.19568 2097.4492 5455.0776 66306
919.34595 2115.2317 5501.3267 512
953.48468 2118.4368 5509.6621 512
987.12915 2120.3669 5514.6821 512
1023.2787 2127.3811 5532.9248 512
1058.1847 2131.4539 5543.5171 256
1090.5514 2130.3203 5540.5688 256
1123.4785 2130.3157 5540.5571 256
1156.9065 2131.2339 5542.9453 256
1190.4578 2132.3225 5545.7764 66049
1228.2506 2140.7449 5567.6816 256
1260.0287 2138.5173 5561.8877 256
1291.1129 2135.2559 5553.4058 66306
1333.701 2150.7083 5593.5942 0
1364.0801 2146.1997 5581.8682 0
1401.9828 2153.4614 5600.7549 131843
1445.0643 2168.1567 5638.9746 256
1472.8138 2159.7034 5616.9888 513
1507.1959 2161.1348 5620.7119 513
1558.8286 2186.7031 5687.2104 592393
1587.5139 2179.6792 5668.9424 132099
1625.5552 2185.5259 5684.1489 197892
1657.6088 2183.2483 5678.2251 263428
1678.2147 2166.2847 5634.106 256
1727.6017 2186.4094 5686.4463 0
1758.4684 2182.7725 5676.9878 263685
1805.0388 2198.3987 5717.6284 256
1829.0508 2186.4805 5686.6313 0
1875.8192 2201.7048 5726.2271 256
1923.1726 2217.0608 5766.165 256
1956.541 2216.0393 5763.5083 513
1990.84 2216.0889 5763.6372 0
2018.6699 2209.0574 5745.3496 329736
2040.6599 2195.9756 5711.3262 396557
2066.8198 2187.7356 5689.8955 660242
2108.6311 2196.0615 5711.5498 462607
2184.3816 2238.9099 5822.9902 200207
2205.0623 2224.8574 5786.4424 989724
2253.7363 2239.0474 5823.3481 198666
2296.0801 2246.6145 5843.0288 594455
2322.5908 2238.6948 5822.4312 1187106
2347.0671 2229.0754 5797.4131 1056549
2363.4338 2212.1443 5753.3779 1517101
2402.9932 2217.0942 5766.252 991273
2471.6311 2248.3567 5847.5601 1911348
2503.0476 2245.3628 5839.7734 1516591
2515.6187 2225.7766 5788.833 924969
2572.8164 2245.6711 5840.5752 133650
2632.4023 2267.0928 5896.2891 2373190
2605.3906 2214.3513 5759.1177 2374217
2682.5662 2250.3789 5852.8193 3229528
2715.2656 2248.6516 5848.3271 3295577
2748.2585 2247.208 5844.5723 4545900
2732.1331 2206.1379 5737.7568 3953766
2761.6357 2202.4705 5728.2183 4085095
2777.5496 2188.1868 5691.0688 4479853
2807.6602 2185.2964 5683.5518 5005941
2796.5071 2150.7397 5593.6763 4545134
2674.0813 2032.4229 5285.9556 4874353
0 0 0 0
0 0 0 0
1927.7551 1415.2986 3680.9297 13
1953.9174 1418.4093 3689.0203 14
2000.5754 1436.1646 3735.1982 3425101
2005.3368 1423.7833 3702.9971 5860733
2025.4816 1422.4747 3699.5935 5665154
2044.8193 1420.6335 3694.8052 6321542
2088.8215 1435.7848 3734.2107 1315875
2108.438 1434.0321 3729.6521 18
2129.438 1433.2468 3727.6099 131854
2147.071 1430.235 3719.7766 4082008
2183.6997 1439.8091 3744.6772 7372945
2202.3582 1437.4611 3738.5703 6
2220.074 1434.5509 3731.0015 10
2200.2844 1407.7029 3661.1748 9
2219.1956 1405.8984 3656.4817 521
2349.0596 1473.7377 3832.9189 1649713
2242.2278 1393.2035 3623.4644 7044484
2199.5496 1353.6841 3520.6819 1578786
2181.7363 1330.068 3459.2607 8
2226.9038 1344.9297 3497.9136 9
2260.4119 1352.54 3517.7065 11
2280.4202 1352.0073 3516.321 14
2233.4653 1312.144 3412.6438 3822174
2181.1716 1269.8896 3302.748 5860989
2285.0398 1318.4966 3429.1658 5466748
2308.8394 1320.4518 3434.2507 4808305
2361.2734 1338.6057 3481.4658 5728891
2366.7671 1330.0648 3459.2527 5794684
2493.9929 1389.4924 3613.813 5794170
2513.9146 1388.6327 3611.5767 5990776
2515.3145 1377.6431 3582.9949 2895678
2510.0469 1363.2168 3545.4749 13
2526.436 1360.6947 3538.9153 15
0 0 0 0
0 0 0 0
0 0 0 0
4414.1895 2300.7883 5983.9248 5334647
4475.606 2314.1553 6018.6899 5334904
4623.001 2371.4138 6167.6084 4939889
4763.0396 2424.0276 6304.4473 5203062
4856.8931 2452.4993 6378.4966 5860993
4962.3555 2486.3457 6466.5254 5663614
5045.7402 2508.6953 6524.6523 5400699
5113.4492 2522.9697 6561.7778 5532028
5179.4619 2536.1975 6596.1807 5597821
5187.4453 2521.0249 6556.7197 5663100
5209.9736 2513.0947 6536.0947 5729151
5277.0464 2526.6094 6571.2437 5794944
5340.3652 2538.1414 6601.2358 5597822
5378.2671 2537.5129 6599.6021 5465979
5396.417 2527.6421 6573.9297 5399931
5584.9985 2597.1685 6754.7544 5399674
5556.2852 2565.3755 6672.0674 5465209
5616.2598 2574.6912 6696.2954 5399929
5628.3804 2562.092 6663.5273 5136500
5696.8066 2575.1206 6697.4121 5004914
5749.2964 2580.8147 6712.2217 5004915
5819.6313 2594.3855 6747.5171 5136500
6067.1694 2686.2273 6986.3804 5070450
6013.8755 2644.533 6877.9409 4873326
6072.7373 2652.3877 6898.3696 5005169
6082.6489 2638.9004 6863.2915 5005427
6078.1665 2619.3899 6812.5488 4808562
5880.9453 2517.6265 6547.8804 4216167
0 0 0 0
0 0 0 0
5045.7793 2118.0452 5508.6436 2368810
4862.8613 2028.1028 5274.7202 328453
4836.9888 2004.3906 5213.0493 65536
4865.6611 2003.4393 5210.5752 0
4889.0229 2000.3273 5202.481 3487542
4918.1519 1999.5989 5200.5869 3750968
4807.6714 1942.4727 5052.0122 2500389
4872.0371 1956.2611 5087.873 2038554
4645.9961 1853.9919 4821.8901 131072
4716.6611 1870.6522 4865.2202 196608
0 0 0 0
0 0 0 0
0 0 0 0
0 0 0 0
-5010.2827 2167.0881 5550.3999 1284
-4929.3765 2146.2249 5496.9644 771
-4921.978 2157.3015 5525.334 772
-4879.8442 2153.2002 5514.8296 774
-4858.5718 2158.3105 5527.9189 1802
-4889.9468 2187.0374 5601.4941 396560
-4863.0884 2189.9343 5608.9141 594451
-4856.999 2202.2886 5640.5562 264973
-4873.5146 2225.1355 5699.0718 528659
-4836.4019 2223.645 5695.2549 331283
-4833.6709 2238.053 5732.1567 265744
-4824.9531 2249.874 5762.4331 528402
-4684.5347 2200.0127 5634.7271 659990
-4671.9927 2209.9209 5660.1045 264977
-4776.1406 2275.5696 5828.2451 527891
-4746.7441 2278.0857 5834.6895 1290
-4716.8164 2280.3821 5840.5713 132875
-4668.0723 2273.5481 5823.0679 265492
-4663.3257 2288.2007 5860.5962 858659
-4471.1704 2210.4241 5661.3931 1517102
-4428.8188 2206.0886 5650.2891 1583665
-4374.5503 2195.7053 5623.6948 1714995
-4362.3896 2206.4597 5651.2393 1977140
-4364.8076 2224.8125 5698.2446 1319467
-4280.8535 2199.0823 5632.3442 924710
-4274.8428 2213.3018 5668.7632 1056295
-4243.2178 2214.3801 5671.5254 398621
-4238.2183 2229.4819 5710.2046 661538
-4289.335 2274.5854 5825.7246 1122088
-4215.2271 2253.4773 5771.6621 2043962
-4131.752 2226.9739 5703.7808 2899530
-4104.3276 2230.4929 5712.7939 2702668
-4084.043 2237.9832 5731.9775 2505802
-4036.9854 2230.8047 5713.5923 2900816
-3979.9119 2217.9229 5680.5986 3361110
-3933.0642 2210.5679 5661.7612 3163732
-3903.741 2213.0205 5668.043 3229783
-3954.7178 2261.4341 5792.041 3361881
-3891.1975 2244.6499 5749.0527 3361882
-3795.5906 2208.895 5657.4766 3559004
-3794.4497 2227.9683 5706.3276 3690846
-3724.6077 2206.6829 5651.8105 3033430
-3718.0959 2222.8718 5693.2744 3164759
-3647.1877 2200.5054 5635.9888 2112071
-3632.4197 2211.9097 5665.1982 1322810
-3601.4341 2213.5598 5669.4243 1848642
-3688.1738 2288.2822 5860.8052 3099223
-3637.3506 2278.2666 5835.1528 3756898
-3539.8596 2238.5461 5733.4199 3822948
-3317.9021 2118.5781 5426.1548 3560032
-3406.7925 2196.689 5626.2139 3560030
-3336.0867 2172.4209 5564.0581 4020837
-3134.5691 2061.6311 5280.3003 3691873
-3187.9641 2117.9536 5424.5557 3889509
-3253.5947 2183.6392 5592.7905 3955301
-3213.6865 2179.1177 5581.21 4021351
-3213.2842 2201.5691 5638.7134 4152423
-3151.2275 2181.8062 5588.0962 4218474
-2964.845 2074.6262 5313.5845 4284010
-2903.9136 2053.8669 5260.415 4349807
-2954.9097 2112.6812 5411.0513 4547186
-3008.4797 2174.6501 5569.7681 4547186
-3007.4634 2198.1018 5629.833 4810358
-3023.5061 2234.6895 5723.542 5007737
-2881.1348 2153.6931 5516.0918 5073788
-2645.3369 2000.1904 5122.937 5007737
-2797.8674 2140.1543 5481.416 4875894
-2563.4695 1983.9587 5081.3643 4810101
-2594.2812 2031.741 5203.7456 4941431
-2587.0955 2050.5591 5251.9429 5402239
-2615.0476 2098.0276 5373.5205 4810360
-2524.488 2050.4136 5251.5703 4350323
-2512.0037 2065.8145 5291.0156 4284785
-2466.1255 2053.7957 5260.2324 4482420
-2436.9795 2055.5818 5264.8071 4745079
-2381.7227 2035.1034 5212.3574 4941943
-2343.2073 2028.5787 5195.646 4679541
-2323.5259 2038.4027 5220.8076 4679541
-2317.5132 2060.6465 5277.7788 4744821
-2307.6426 2080.0229 5327.4067 4021867
-2332.3586 2131.5476 5459.3726 3626337
-2237.0259 2073.2654 5310.0986 2901326
-2224.1895 2090.8662 5355.1787 2111809
-2190.355 2088.9526 5350.2769 1519417
-2131.1199 2062.4006 5282.2715 1386801
-2097.2434 2059.9626 5276.0273 396565
-2046.8158 2040.9469 5227.3237 792610
-1998.7714 2023.7582 5183.2993 2177606
-1961.9017 2017.5227 5167.3291 4745076
-1932.0703 2018.442 5169.6836 5535364
-1900.3019 2017.3344 5166.8467 5271935
-1831.1776 1975.8827 5060.6797 4942457
-1825.7346 2002.9078 5129.897 4678771
-1831.0991 2042.908 5232.3467 4744564
-1742.8641 1978.0602 5066.2568 4876151
-1683.249 1943.9855 4978.9839 4810358
-1673.0389 1966.7699 5037.3398 4678772
-1655.2344 1981.2943 5074.54 4876151
-1630.5449 1987.9636 5091.6216 4810360
-1573.9648 1955.2689 5007.8833 4810360
-1544.5342 1955.6906 5008.9629 4744568
-1518.1482 1960.0594 5020.1528 4810360
-1490.7897 1963.3229 5028.5112 4744567
-1466.9009 1971.3828 5049.1543 4678772
-1441.422 1977.5979 5065.0728 4679541
-1433.9524 2009.3135 5146.3032 4482420
-1399.9548 2004.4291 5133.7935 4284014
-1358.4785 1988.3807 5092.6899 3955304
-1287.3369 1927.1907 4935.9688 4283755
-1324.8037 2029.5293 5198.0811 4152423
-1300.3878 2039.6906 5224.106 4744560
-1271.4268 2043.045 5232.6978 3757668
-1224.9991 2017.7971 5168.0322 3691874
-1189.7097 2010.0693 5148.2393 3888740
-1158.009 2008.1565 5143.3403 2244427
-1127.6384 2008.5094 5144.2441 3362394
-1105.2748 2023.5409 5182.7432 3757151
-1075.7672 2025.9802 5188.9907 3888994
-1053.9484 2043.4711 5233.7891 4348260
-1033.6501 2065.0635 5289.0918 2045249
-1003.1788 2067.0493 5294.1777 1913662
-966.66742 2056.3145 5266.6836 2703179
-929.17212 2042.6985 5231.8101 2570822
-904.8598 2058.1245 5271.3198 2506827
-860.70721 2027.9116 5193.9375 2572621
-826.97662 2020.9194 5176.0288 2243656
-791.44403 2008.8132 5145.0225 2835278
-777.22174 2051.9971 5255.6255 2374981
-743.66785 2045.6211 5239.2954 1914175
-722.78918 2075.0774 5314.7397 1913659
-691.37329 2075.592 5316.0581 1451825
-656.79059 2066.1938 5291.9868 1386030
-621.35156 2053.0205 5258.2466 1517358
-590.87799 2055.7273 5265.1797 1780272
-558.34869 2051.1846 5253.5449 1122342
-518.34583 2017.0223 5166.0474 1385510
-492.80673 2038.3842 5220.7603 1254181
-457.47064 2019.3708 5172.0625 1188131
-424.05042 2006.6844 5139.5698 1121827
-384.07043 1958.5768 5016.3555 1056291
-362.06067 2001.7234 5126.8638 858909
-332.31732 2006.1146 5138.1104 1055005
-304.99866 2027.5127 5192.9155 660501
-276.24451 2043.1119 5232.8687 857880
-243.8662 2032.464 5205.5972 265230
-210.85449 2012.676 5154.916 66822
-182.24535 2035.3284 5212.9336 773
-152.06793 2046.1581 5240.6709 198923
-121.77835 2060.6687 5277.8359 1542
-89.707893 2044.6581 5236.8291 1029
-58.378338 2037.4937 5218.479 790804
-27.541643 2050.7871 5252.5269 66052
3.6615331 2042.7527 5231.9487 514
34.823669 2046.6824 5242.0137 66563
65.972687 2046.4937 5241.5303 256
97.105942 2046.094 5240.5068 256
128.44124 2049.1118 5248.2363 513
160.14215 2055.6436 5264.9648 256
191.35129 2054.759 5262.6997 256
222.6819 2055.2441 5263.9424 256
254.08041 2056.1592 5266.2861 256
285.14847 2054.4929 5262.0181 256
312.45316 2028.7207 5196.0098 256
344.01892 2032.7627 5206.3623 0
372.29568 2018.3074 5169.3389 256
408.32111 2044.861 5237.3486 770
440.26135 2048.6436 5247.0366 256
471.88083 2050.5317 5251.8726 256
506.6069 2064.8477 5288.5391 257
534.20685 2050.1426 5250.876 256
565.88763 2051.8577 5255.269 1027
598.2077 2055.5901 5264.8286 0
630.02533 2057.311 5269.2358 0
658.87347 2049.6311 5249.5659 256
691.8288 2054.8447 5262.9194 256
730.38794 2075.5315 5315.9028 461578
762.24463 2076.2463 5317.7339 0
791.45135 2069.9739 5301.668 256
814.67603 2049.1345 5248.2944 593677
864.32391 2093.8433 5362.8037 988434
884.86774 2067.3745 5295.0107 769
923.70178 2083.9883 5337.5625 512
963.48444 2101.5684 5382.5894 768
994.98242 2100.5283 5379.9253 256
1026.1281 2098.8325 5375.582 768
1060.8293 2104.292 5389.5649 512
1093.259 2105.0579 5391.5264 256
1124.6899 2103.9116 5388.5903 256
1145.8038 2084.0635 5337.7549 512
1174.833 2079.2939 5325.5391 67074
1228.2498 2116.8047 5421.6123 256
1265.0743 2124.5334 5441.4072 0
1298.4174 2126.1755 5445.6133 256
1329.0934 2123.4768 5438.7012 131842
1366.1598 2130.8738 5457.6465 395271
1401.5554 2135.3818 5469.1929 256
1436.8792 2139.5786 5479.9414 256
1481.5436 2157.1897 5525.0479 131843
1534.9069 2186.4285 5599.9346 395271
1572.0409 2191.7986 5613.689 0
1588.8103 2169.1423 5555.6611 65793
1614.7615 2159.6892 5531.4497 0
1659.4177 2175.1316 5571.001 263429
1693.6766 2176.6077 5574.7812 263685
1719.8873 2167.8823 5552.4341 395014
1757.8243 2173.9878 5568.0718 197892
1792.9481 2176.4534 5574.3862 256
1830.9841 2182.3 5589.3608 132613
1843.4639 2158.0212 5527.1777 1119765
1904.5706 2190.5205 5610.4155 527371
1944.806 2198.3096 5630.3647 198408
1974.4128 2194.0242 5619.3892 132871
1999.248 2184.6672 5595.4238 2042153
2030.4548 2182.4653 5589.7842 726294
2078.2354 2197.8621 5629.2183 726551
2115.8 2202.1377 5640.1694 1055260
2149.0339 2201.8428 5639.4146 1648426
2170.0376 2189.2192 5607.0825 1122596
2261.8694 2247.3506 5755.9697 1648171
2264.9287 2216.8611 5677.8799 1187877
2291.5552 2209.9954 5660.2949 727584
2298.7429 2184.8528 5595.8989 1056037
2356.3977 2207.7097 5654.4409 2109497
2396.6289 2213.8296 5670.1147 1057067
2457.2744 2238.375 5732.9814 2372930
2455.8696 2206.4995 5651.3413 1715257
2495.3997 2211.7664 5664.8311 2636618
2512.9368 2197.6592 5628.6992 2636876
2559.7693 2209.2061 5658.2734 2373962
2614.8992 2227.5217 5705.1841 2439756
2632.3049 2213.6443 5669.6406 2110789
2668.3877 2215.6255 5674.7148 1387579
2681.0974 2198.3923 5630.5771 3558751
2729.5168 2210.5037 5661.5967 3887460
2731.8076 2185.4175 5597.3457 3492700
2719.854 2149.6768 5505.8057 3492700
2664.0806 2080.564 5328.792 3426908
0 0 0 0
0 0 0 0
0 0 0 0
1933.9265 1441.7765 3692.7136 16
1946.6855 1435.0035 3675.3667 14
1937.162 1412.1373 3616.8013 4940142
1974.9535 1423.8861 3646.8923 5861245
2002.2201 1427.8739 3657.106 7370634
2028.7823 1431.2791 3665.8276 196619
2055.6597 1434.8319 3674.927 196622
2091.2676 1444.34 3699.2793 196621
2105.8989 1439.3131 3686.4045 196621
2142.8345 1449.4772 3712.4368 196620
2168.3821 1451.8093 3718.4102 131080
2228.9336 1477.2944 3783.6831 131080
2195.9297 1440.8829 3690.425 65543
2187.3765 1421.0767 3639.6965 65544
2207.0874 1419.8408 3636.5312 8
2269.0745 1445.5618 3702.4087 8
2212.939 1396.259 3576.1333 6
2187.3459 1366.9818 3501.1479 66055
2201.707 1362.9906 3490.9253 8
2230.3542 1367.8351 3503.3333 6
2263.6418 1375.4097 3522.7332 9
2273.1248 1368.5139 3505.0718 267
2237.5034 1334.8356 3418.8137 1648692
2083.4697 1231.7573 3154.8074 4544872
2201.0415 1289.6599 3303.1089 5598334
2311.2317 1342.2522 3437.8096 5532028
2427.3574 1397.3395 3578.9004 5728893
2451.8982 1399.2054 3583.6797 5728379
2476.0786 1400.8356 3587.855 5267570
2510.25 1408.0421 3606.3123 3885145
2511.3594 1396.7384 3577.3611 4871270
2512.2151 1385.4846 3548.5376 16
2526.657 1381.8485 3539.2246 17
2540.2107 1377.7909 3528.8323 524
0 0 0 0
0 0 0 0
4206.2788 2226.3096 5702.0791 4874096
4310.1953 2263.0774 5796.25 4676974
4426.7285 2305.834 5905.7593 4742511
4629.396 2392.4314 6127.5547 5334648
4709.9033 2415.0383 6185.4561 5334649
4733.2852 2408.2307 6168.02 5729407
4852.1064 2449.7126 6274.2646 5729407
4911.8867 2460.981 6303.125 5729406
4900.6787 2436.7805 6241.1426 5992836
5028.5596 2481.5842 6355.895 2043714
5096.4121 2496.3167 6393.6279 5860224
5096.3286 2477.801 6346.2051 5794430
5168.4985 2494.428 6388.791 5729407
5222.9839 2502.3403 6409.0562 5729407
5269.4829 2506.3394 6419.2983 5334651
5321.1616 2512.7266 6435.6577 5203065
5344.3711 2505.6753 6417.5977 5203065
5436.3774 2530.7505 6481.8208 5399931
5481.5527 2533.8252 6489.6958 5203066
5507.6689 2528.1086 6475.0542 5202809
5588.1924 2547.2715 6524.1348 5202809
5649.8013 2557.6082 6550.6094 5334136
5722.5332 2572.8042 6589.5298 5268343
5757.3018 2570.8416 6584.5029 5004657
5769.2778 2558.7964 6553.6523 4873328
5760.1162 2537.6003 6499.3652 5004914
5833.083 2552.6279 6537.8535 4807534
5768.5977 2507.7031 6422.7915 4939632
5413.4316 2337.8364 5987.7246 4675430
5083.353 2180.9519 5585.9082 4740704
4949.5293 2109.7578 5403.564 2697268
4823.0381 2042.587 5231.5244 131592
4861.8193 2045.8223 5239.8105 724240
4954.8848 2071.7136 5306.124 2963254
4955.793 2058.9885 5273.5322 3292474
4896.0107 2021.3667 5177.1743 4214347
4907.5942 2013.4949 5157.0132 3488057
4925.7314 2008.3929 5143.9458 2301469
4776.3667 1935.479 4957.1968 328194
4711.665 1897.5559 4860.0669 196608
0 0 0 0
0 0 0 0
0 0 0 0
0 0 0 0
0 0 0 0
-4911.6934 2171.0786 5477.2446 857883
-4887.5181 2174.8069 5486.6499 1252900
-4691.1191 2101.4353 5301.5469 1516330
-4739.9561 2137.6707 5392.9619 1648174
-4718.5361 2142.4983 5405.1411 1648175
-4740.6362 2167.2883 5467.6821 1582640
-4554.8687 2096.7334 5289.6846 1582639
-4557.4287 2112.4927 5329.4424 1648431
-4523.022 2111.217 5326.2246 1911860
-4516.9951 2123.2644 5356.6177 1911603
-4491.1895 2126.1191 5363.8193 1253930
-4442.1841 2117.9536 5343.2197 1517360
-4531.5366 2176.1118 5489.9424 1648687
-4605.5171 2227.6787 5620.0361 2372411
-4572.7744 2227.9998 5620.8462 2965061
-4496.1738 2206.7993 5567.3618 2175803
-4421.7603 2186.366 5515.812 1649204
-4393.8516 2188.7939 5521.937 1649205
-4394.6567 2205.6699 5564.5117 2110270
-4301.2681 2175.1672 5487.5596 2044221
-4290.3794 2186.2383 5515.4893 1912892
-4133.0562 2122.2866 5354.1509 791837
-4158.9375 2152.1465 5429.4819 2176578
-4076.7766 2126.1267 5363.8389 2308678
-4018.2302 2112.1096 5328.4761 2768458
-3963.9265 2100.1174 5298.2222 2900045
-3970.228 2120.2996 5349.1382 1034
-4021.3467 2164.9355 5461.7461 3425619
-4075.2717 2211.8206 5580.0293 3754584
-4033.5417 2207.1333 5568.2041 3755613
-3897.5171 2150.3442 5424.9351 3493724
-3945.1514 2194.7815 5537.0425 3362396
-3875.9319 2174.4109 5485.6514 3362139
-3791.9871 2145.3635 5412.3701 3362653
-3689.2678 2105.1067 5310.8091 3494239
-3756.0889 2161.73 5453.6592 3560288
-3660.7947 2125.2251 5361.5645 3823461
-3597.408 2106.7651 5314.9932 4086633
-3527.3289 2084.0244 5257.6221 3823461
-3490.48 2080.6858 5249.1992 3955047
-3425.3953 2060.3032 5197.7778 4020840
-3508.6079 2129.5598 5372.4995 3823462
-3299.3418 2020.9368 5098.4634 3955047
-3054.8335 1888.5133 4764.3823 4086633
-2983.6443 1861.7611 4696.8916 4152683
-3070.7544 1934.2136 4879.6763 4284012
-3183.6616 2024.4517 5107.3306 4546927
-3103.5835 1992.5287 5026.7949 4481134
-2978.6125 1930.8835 4871.2749 4415597
-2930.0259 1918.0302 4838.8481 4284012
-2982.2119 1971.5428 4973.8516 4415342
-2853.0361 1905.0286 4806.0474 4547187
-2740.6475 1848.491 4663.4131 4481394
-2748.1677 1872.4999 4723.9834 4612979
-2690.749 1852.3007 4673.0244 4612980
-2650.7253 1843.7795 4651.5273 4481650
-2704.0354 1900.684 4795.0869 4612979
-2629.3267 1867.8566 4712.2695 4612979
-2555.3625 1834.8573 4629.0181 4744565
-2497.0613 1812.5087 4572.6362 4876151
-2516.8457 1846.9708 4659.5781 5139323
-2557.6626 1897.8059 4787.8262 5139581
-2410.4495 1808.6957 4563.0166 4942202
-2401.2966 1822.3304 4597.415 4941945
-2479.9255 1903.6631 4802.6025 4941946
-2396.8801 1861.3387 4695.8262 5073532
-2377.761 1868.245 4713.249 5271168
-2346.0137 1865.2754 4705.7573 5336961
-2329.4504 1874.4526 4728.9097 5402497
-2302.1843 1875.1362 4730.6348 5534083
-2270.2058 1871.9512 4722.5991 5468804
-2241.4368 1871.366 4721.123 5403012
-2241.9529 1895.5259 4782.0737 5403010
-2199.8252 1883.7887 4752.4629 5403011
-2195.9885 1904.9628 4805.8813 5468806
-2172.9548 1909.8225 4818.1421 5403013
-2070.0737 1843.6965 4651.3179 5337477
-2135.4277 1927.6461 4863.1074 5402496
-2075.6975 1899.4365 4791.9399 5336702
-2001.6393 1857.1486 4685.2549 5402237
-1948.261 1833.1254 4624.6484 5468030
-1935.2025 1846.8943 4659.3853 5468800
-1917.3164 1856.3889 4683.3384 5468800
-1918.4679 1884.8674 4755.1846 5403009
-1870.2299 1864.9475 4704.9302 5271423
-1856.1746 1879.0266 4740.4492 5336960
-1814.5442 1865.1947 4705.5537 5205118
-1788.7441 1867.4565 4711.2603 5270398
-1796.8851 1905.7887 4807.9653 5336448
-1790.9376 1930.1759 4869.4897 5401984
-1767.098 1935.7642 4883.5879 5336190
-1756.2257 1955.9816 4934.5928 5270397
-1719.884 1948.0371 4914.5508 5204861
-1683.515 1939.7872 4893.7373 5139581
-1656.5703 1942.2969 4900.0688 5270910
-1626.8978 1941.641 4898.4141 5402496
-1594.4711 1937.614 4888.2549 5336960
-1566.0458 1938.3904 4890.2134 5336704
-1537.1069 1938.5485 4890.6123 5139582
-1498.4651 1926.2397 4859.5596 5139326
-1469.9161 1926.6764 4860.6611 5205118
-1447.42 1935.2231 4882.2231 5205118
-1420.4572 1938.0254 4889.2925 5139325
-1393.3159 1940.6962 4896.0308 4876153
-1367.8237 1945.827 4908.9746 4678775
-1344.0363 1953.6592 4928.7339 4876152
-1332.0961 1979.4452 4993.7871 4612979
-1276.816 1940.5372 4895.6294 4350064
-1268.0795 1972.2023 4975.5146 4481650
-1237.3409 1970.3433 4970.8247 4678516
-1201.5745 1960.1912 4945.2129 4744306
-1171.7537 1959.4725 4943.3999 4678513
-1153.8895 1979.226 4993.2344 4481134
-1118.9028 1969.8771 4969.6489 4349292
-1098.7078 1986.7687 5012.2632 4217960
-1063.838 1977.3263 4988.4419 3888739
-1040.8231 1990.0085 5020.437 3692129
-1025.2332 2018.0546 5091.1919 4218473
-999.93762 2028.1211 5116.5884 4284011
-950.62262 1988.5736 5016.8169 4416367
-930.138 2008.7274 5067.6611 4745076
-901.05908 2011.0483 5073.5166 4679541
-869.32031 2007.3879 5064.2822 4021610
-826.56482 1977.1136 4987.9053 4086889
-803.09052 1992.4222 5026.5264 4350061
-762.33136 1964.3745 4955.7666 3494751
-737.97333 1978.0332 4990.2251 3757410
-705.08514 1969.0144 4967.4722 3823202
-673.78699 1963.8414 4954.4219 3560030
-639.35132 1948.6333 4916.0547 3823458
-619.48578 1978.5023 4991.4087 3625822
-608.19165 2040.1282 5146.8799 4283753
-576.57129 2036.4879 5137.6958 3295573
-524.64954 1956.7242 4936.4668 2900297
-510.52264 2016.8204 5088.0786 398362
-486.87451 2044.502 5157.9141 2243393
-441.72574 1979.551 4994.0542 2901840
-415.43314 1995.8313 5035.1265 3494490
-381.01279 1972.5609 4976.4194 3625561
-350.34268 1966.4229 4960.9346 2242623
-319.77267 1959.7706 4944.1519 860198
-291.67166 1968.4343 4966.0093 1781044
-264.8822 1988.8975 5017.6338 2043699
-237.49997 2009.5369 5069.7031 1977391
-207.57945 2011.5763 5074.8486 792602
-177.62177 2013.8881 5080.6807 792345
-148.90401 2034.0847 5131.6333 660244
-117.85326 2024.6075 5107.7241 462865
-87.674782 2028.7374 5118.1431 66820
-56.993874 2019.4535 5094.7212 514
-26.866461 2030.9645 5123.7612 132612
3.6054778 2042.0988 5151.8511 593933
34.288445 2045.902 5161.4458 527884
64.439728 2029.3693 5119.7368 66306
94.758408 2027.0231 5113.8179 132099
125.90448 2039.2172 5144.5815 257
155.86705 2031.2228 5124.4131 1283
185.73619 2024.8234 5108.2686 922642
216.06796 2024.557 5107.5967 256
247.3309 2032.0063 5126.3901 256
277.63782 2030.8289 5123.4194 256
307.92972 2029.785 5120.7861 256
337.45508 2024.3308 5107.0259 0
367.52948 2022.7985 5103.1602 256
397.64984 2021.7335 5100.4731 256
426.50015 2014.8193 5083.0303 256
460.69684 2032.4061 5127.3984 256
487.99319 2019.2577 5094.2275 0
519.01111 2022.1455 5101.5127 0
548.61719 2019.5175 5094.8823 329992
582.76788 2033.0183 5128.9429 256
614.71503 2037.8719 5141.1875 256
646.7832 2042.6479 5153.2368 66050
679.17114 2047.9565 5166.6294 770
713.39777 2058.1101 5192.2451 659727
738.84174 2043.1351 5154.4658 512
774.30585 2055.958 5186.8159 256
800.84644 2045.0123 5159.2017 198661
839.41028 2064.4438 5208.2241 768
869.97095 2063.5103 5205.8687 512
906.72034 2076.8159 5239.4365 512
937.81219 2076.7097 5239.1689 512
972.67188 2084.686 5259.291 67074
1001.8939 2080.4585 5248.6265 1027
1036.6666 2087.6648 5266.8062 265225
1061.8707 2075.7437 5236.7314 528398
1104.5376 2097.6658 5292.0366 1910308
1121.1263 2070.2192 5222.7944 2437421
1146.0582 2059.2424 5195.1021 1187097
1193.4237 2088.0933 5267.8872 791056
1218.5724 2077.5903 5241.3901 659727
1264.1995 2101.6553 5302.1021 988692
1290.9105 2093.8679 5282.4556 725263
1330.1154 2106.2339 5313.6528 1185813
1364.2 2110.1067 5323.4229 988179
1403.4558 2121.6213 5352.4722 257
1442.5035 2132.3176 5379.4575 1645851
1477.5109 2136.7073 5390.5317 0
1514.8732 2144.2441 5409.5454 396298
1537.2513 2130.6987 5375.373 1054230
1573.9861 2137.1987 5391.7715 1186843
1609.5638 2141.8997 5403.6309 1450015
1644.8495 2146.0354 5414.0649 1185816
1641.3812 2100.4207 5298.9868 198665
1709.5668 2146.49 5415.2119 593164
1750.8147 2157.6597 5443.3906 527629
1768.1425 2139.4802 5397.5273 397070
1796.4492 2134.9966 5386.2158 2042667
1812.8667 2116.7876 5340.2778 1056030
1840.3606 2111.9158 5327.9873 989725
1889.7468 2131.9067 5378.4209 1384225
1926.4951 2137.2124 5391.8057 463125
2010.7606 2194.1963 5535.5664 792092
2018.2554 2166.9199 5466.7529 1253674
2025.1259 2139.8484 5398.4561 1254445
2023.7051 2104.9968 5310.5317 2043960
2044.0621 2093.5203 5281.5786 2899012
2160.9436 2179.7556 5499.1353 1517357
2194.0808 2180.2068 5500.2734 2503996
2230.9431 2184.292 5510.5796 859172
2270.7307 2191.0815 5527.708 1122345
2285.5591 2173.9373 5484.4561 1780533
2316.4937 2172.3789 5480.5249 2504514
2377.7781 2198.9309 5547.5112 2373185
2382.261 2172.9463 5481.9565 2307394
2444.0857 2199.2607 5548.3428 2175809
2478.8967 2200.8899 5552.4531 2965069
2484.7747 2177.126 5492.501 1912895
2544.011 2200.1238 5550.52 2044480
2596.104 2216.4341 5591.6685 2702928
2626.5598 2214.093 5585.7622 3492699
2627.5525 2187.2837 5518.127 4677230
2630.5437 2162.7788 5456.3052 4217193
2696.1956 2189.7615 5524.3779 4414318
2701.5632 2167.7231 5468.7793 4941174
2556.1731 2026.6794 5112.9512 5006454
0 0 0 0
0 0 0 0
0 0 0 0
1922.7804 1455.2874 3671.4307 16
1939.4949 1451.4662 3661.7905 12
1858.5638 1375.4652 3470.0537 6389128
1968.3138 1440.7009 3634.6316 5926268
1979.3021 1433.0166 3615.2456 4869724
2029.3964 1453.5062 3666.937 9
2058.0193 1458.3453 3679.1455 262150
2065.3713 1448.1683 3653.4707 327683
2067.9751 1434.9084 3620.0183 327683
2100.0903 1442.188 3638.3831 196612
2098.2871 1426.2637 3598.209 131078
2165.51 1457.1063 3676.0195 65541
2140.8691 1426.1379 3597.8918 6
2136.52 1409.1656 3555.074 7
2158.74 1409.8783 3556.8716 7
2192.1812 1417.8345 3576.9436 5
2202.6638 1410.9315 3559.5288 5
2180.9062 1383.7047 3490.8406 7
2186.4053 1374.1215 3466.6633 7
2213.6021 1378.2264 3477.0198 7
2231.3232 1376.4104 3472.4382 6
2253.592 1377.4073 3474.9531 267
2226.7041 1348.614 3402.3127 132365
2166.3789 1300.2698 3280.3489 5531510
2333.1711 1387.8889 3501.3962 4874353
2349.521 1385.2593 3494.7622 5005683
2486.0825 1452.9303 3665.4844 4413032
2478.5027 1435.9178 3622.5649 5202035
2498.5923 1435.0903 3620.4773 5202803
2558.4749 1456.9375 3675.5935 6057342
2509.5674 1416.988 3574.8083 5861245
2444.8384 1368.851 3453.3669 395027
2527.3696 1403.2789 3540.2229 15
2533.4182 1395.0236 3519.396 526
0 0 0 0
0 0 0 0
4105.7856 2206.2 5565.8491 5729921
4177.0762 2226.5681 5617.2344 5729667
4269.3564 2257.7129 5695.8071 5729408
4427.5737 2322.9619 5860.4189 5466235
4509.1411 2347.2915 5921.7979 5466236
4591.8462 2371.8315 5983.7085 5597823
4667.3535 2392.3057 6035.3608 5400444
4722.4385 2402.0791 6060.0176 5532030
4764.6895 2405.2261 6067.957 5532030
4753.8018 2381.7029 6008.6123 5597823
4914.0127 2443.6135 6164.8013 5597824
4919.1226 2428.0508 6125.5391 5597823
4973.8975 2437.0508 6148.2446 5532030
5024.2681 2443.7773 6165.2148 5532029
5077.2593 2451.6716 6185.1309 5268857
5136.1318 2462.2725 6211.8745 5268858
5197.1968 2473.7651 6240.8687 5137273
5250.5234 2481.438 6260.2261 5203322
5299.2461 2486.8423 6273.8599 5203322
5333.0762 2485.231 6269.7949 5071479
5448.7349 2521.51 6361.3203 5005686
5471.2021 2514.46 6343.5342 5071479
5483.4355 2502.8352 6314.207 5005686
5552.958 2517.3394 6350.7988 4939893
5608.3521 2525.2864 6370.8477 4676721
5596.2686 2502.9475 6314.4902 4808308
5580.6733 2479.3455 6254.9468 5005686
5556.7021 2452.3594 6186.8657 5399926
5457.2861 2392.6509 6036.2314 4939373
5083.4673 2214.2007 5586.0337 5333613
4999.5601 2163.5234 5458.1841 1906981
4819.1963 2072.0281 5227.3574 66317
4889.314 2088.71 5269.4429 857369
4840.2959 2054.6086 5183.4116 4413277
4855.5054 2048.0298 5166.8145 5005414
4910.2588 2058.1084 5192.2402 5268328
4916.1099 2047.6918 5165.9614 6121323
5039.5552 2086.0815 5262.812 2694947
4990.5723 2053.063 5179.5117 985866
4712.1597 1926.6432 4860.5771 196608
0 0 0 0
0 0 0 0
0 0 0 0
0 0 0 0
0 0 0 0
-4667.1958 2093.9382 5204.5952 1649203
-4594.6431 2075.1409 5157.873 1517617
-4549.8315 2068.7041 5141.8745 1846583
-4508.8345 2063.9263 5129.999 2109755
-4549.2109 2096.5859 5211.1768 331541
-4489.0576 2083.0452 5177.52 1583411
-4459.7002 2083.7061 5179.1626 2175547
-4449.0625 2093.1833 5202.7188 1978170
-4414.4668 2091.4424 5198.3921 2439235
-4321.9888 2062.0613 5125.3633 2439238
-4381.2197 2105.1582 5232.4829 2241859
-4304.9126 2083.2803 5178.1045 2176067
-4234.9731 2064.1912 5130.6572 2570567
-4220.687 2072.1479 5150.4346 2636617
-4196.2134 2075.1831 5157.9785 2834254
-4208.1924 2096.4226 5210.7705 3163988
-4170.0845 2092.8401 5201.8657 3492441
-4156.4473 2101.5769 5223.5815 2835024
-4193.9146 2136.4788 5310.332 1518650
-4106.8667 2107.9983 5239.542 3098453
-4114.5679 2128.0872 5289.4746 3624540
-4051.5415 2111.6235 5248.5527 3624540
-3973.0054 2086.7576 5186.7476 3690590
-3945.9277 2088.7422 5191.6802 3953763
-3881.7185 2070.9478 5147.4512 4019556
-3891.083 2092.4351 5200.8589 2900562
-3839.3816 2081.165 5172.8467 3756642
-3876.9822 2118.5107 5265.6719 3822691
-3747.4294 2064.3831 5131.1343 3822691
-3658.979 2032.1953 5051.1299 3888998
-3560.2336 1993.7097 4955.4722 4283755
-3554.6443 2007.1844 4988.9639 4349548
-3534.0081 2012.3174 5001.7222 4415599
-3592.2876 2062.855 5127.3359 4481391
-3383.7234 1959.7122 4870.9692 4284012
-3446.6814 2013.4006 5004.4146 4349804
-3359.4285 1979.5134 4920.1865 4349805
-3350.2227 1991.4233 4949.7891 4349805
-3287.2737 1971.3158 4899.8105 4415598
-3247.7029 1964.9933 4884.0957 4415598
-3229.9189 1971.8577 4901.1577 4415599
-3208.4138 1976.5547 4912.832 4481647
-3140.4177 1952.4337 4852.8784 4415598
-3058.0515 1918.8489 4769.4014 4349805
-3052.8174 1933.4867 4805.7847 4415855
-2948.7981 1885.2454 4685.8779 4415598
-2955.0977 1907.286 4740.6611 4415086
-2855.8699 1860.9857 4625.5796 4349551
-2838.2915 1867.5082 4641.7915 4546674
