# .PCD v0.7 - Point Cloud Data file format
VERSION 0.7
FIELDS x y z rgb
SIZE 4 4 4 4
TYPE F F F U
COUNT 1 1 1 1
WIDTH 1439
HEIGHT 1
VIEWPOINT 0 0 0 1 0 0 0
POINTS 1439
DATA ascii
-3543.3687 1849.689 10481.144 0
-3488.0134 1853.3755 10502.032 0
-3442.1621 1862.3383 10552.819 0
-3391.6128 1869.0447 10590.821 0
-3339.1758 1874.9448 10624.254 0
-3288.136 1881.8721 10663.507 0
-3236.8137 1888.9066 10703.368 0
-3184.9817 1895.9202 10743.109 0
-3131.8511 1902.4316 10780.007 0
-3077.7717 1908.6267 10815.11 0
-3020.2224 1912.8882 10839.258 0
-2964.4082 1918.4586 10870.822 0
-2908.1455 1923.9806 10902.111 0
-2851.4453 1929.4579 10933.148 0
-2794.7451 1935.1908 10965.634 0
-2738.6133 1941.6003 11001.953 0
-2682.7786 1948.5394 11041.272 0
-2625.5994 1954.8252 11076.891 0
-2568.4634 1961.4674 11114.529 0
-2511.6487 1968.7122 11155.581 0
-2453.4285 1975.2185 11192.448 65536
-2386.3252 1974.7363 11189.716 65536
-2326.9897 1980.8386 11224.295 65536
-2272.9717 1991.9614 11287.321 65536
-2218.8359 2003.6543 11353.578 0
-2162.595 2014.1199 11412.881 0
-2095.387 2014.7189 11416.274 0
-2041.5349 2028.6292 11495.096 0
-1986.353 2042.1354 11571.629 0
-1926.212 2051.3296 11623.727 0
-1863.9767 2058.894 11666.591 0
-1805.7808 2071.6775 11739.027 0
-1756.6848 2096.3479 11878.82 0
-1698.1263 2111.3193 11963.654 0
-1637.2753 2124.6243 12039.046 0
-1577.4497 2140.5366 12129.214 0
-1514.2671 2153.2 12200.969 0
-1451.3191 2167.4873 12281.927 0
-1387.1615 2181.3855 12360.681 0
-1324.9988 2200.1509 12467.013 0
-1263.6285 2222.5332 12593.841 65536
-1200.8425 2245.0872 12721.642 65536
-1135.5964 2265.7634 12838.803 65536
-1069.1451 2286.8413 12958.238 65536
-1000.0053 2304.9937 13061.099 65536
-929.32153 2322.3438 13159.411 65536
-857.90808 2340.8914 13264.51 65536
-784.85797 2358.2751 13363.014 65536
-710.2782 2374.4592 13454.72 65536
-633.62616 2386.9434 13525.461 65536
-552.81714 2385.1206 13515.132 65536
-472.19452 2383.6184 13506.62 65536
-394.92291 2401.8818 13610.108 65536
-349.73502 2674.9456 15157.407 65536
-236.90318 2440.6118 13829.569 65536
-155.93907 2460.012 13939.499 65536
-73.340958 2468.3972 13987.014 65536
9.8691931 2488.6978 14102.046 65536
93.848373 2493.104 14127.013 0
179.36674 2514.9302 14250.689 65536
270.1149 2572.5635 14577.265 0
360.38431 2598.7517 14725.659 0
450.37335 2613.0791 14806.844 0
534.39014 2593.7356 14697.235 0
620.28436 2587.6592 14662.804 0
714.48676 2613.47 14809.06 0
814.57507 2652.7876 15031.85 0
920.62903 2701.8406 15309.807 0
1016.3945 2714.5913 15382.057 0
1098.103 2690.7925 15247.201 0
1188.764 2690.8865 15247.734 0
1302.2589 2738.9929 15520.327 0
1405.4785 2760.5532 15642.496 0
1511.3976 2784.4111 15777.686 0
1620.0448 2810.2141 15923.896 0
1721.1686 2820.8384 15984.099 0
1813.7695 2817.114 15962.994 0
1926.999 2844.2068 16116.515 0
2029.5972 2853.7852 16170.789 0
2149.323 2885.4915 16350.452 0
2275.323 2922.5137 16560.236 0
2395.9495 2949.8501 16715.135 0
2488.8501 2942.2332 16671.975 0
2624.0232 2983.259 16904.445 0
2741.7285 3002.1326 17011.391 0
2900.5276 3063.0601 17356.633 0
3043.7261 3103.8936 17588.014 0
3186.8337 3141.9258 17803.521 0
3301.8416 3150.7004 17853.242 65792
3672.4319 3395.2183 19238.785 131586
3769.5784 3379.8 19151.42 256
0 0 0 0
0 0 0 0
0 0 0 0
0 0 0 0
0 0 0 0
0 0 0 0
0 0 0 0
0 0 0 0
4983.8794 3513.6736 19910.006 196608
0 0 0 0
5240.6284 3527.1917 19986.605 196608
0 0 0 0
5474.4473 3524.7739 19972.904 65536
0 0 0 0
0 0 0 0
0 0 0 0
0 0 0 0
0 0 0 0
0 0 0 0
6246.1919 3491.6824 19785.393 196608
6344.3901 3481.042 19725.1 262144
0 0 0 0
6541.2192 3461.127 19612.254 458752
6527.6699 3393.4873 19228.977 458752
6688.9561 3417.501 19365.049 393216
6867.4585 3449.3499 19545.52 262144
6928.7456 3422.2441 19391.926 196608
7046.5791 3423.4978 19399.029 196608
7240.0552 3460.8696 19610.795 196608
7321.2939 3444.2561 19516.654 196608
7478.6069 3463.3911 19625.082 262144
7347.3901 3350.3706 18984.658 262144
7383.1909 3315.7759 18788.629 262144
7531.7378 3332.0913 18881.082 262144
7664.083 3340.8657 18930.799 262144
7796.6509 3349.4817 18979.621 262144
7767.2632 3289.2671 18638.42 262144
7896.1172 3296.8157 18681.193 262144
7973.3306 3282.8928 18602.301 262144
8031.7686 3261.7258 18482.359 262144
6122.3809 2452.7722 13898.476 262144
8160.2192 3225.6584 18277.984 262144
8198.2666 3198.1235 18121.961 262144
8473.5723 3262.656 18487.631 262144
8507.3018 3233.7112 18323.615 262144
8216.9385 3083.8638 17474.516 262144
8088.1147 2997.6277 16985.863 262144
8012.6548 2933.051 16619.945 262144
8029.6074 2903.4634 16452.289 262144
7983.1782 2851.9448 16160.362 262144
7966.5986 2812.1882 15935.083 262144
7963.8428 2778.1882 15742.425 262144
7949 2740.8101 15530.624 262144
7958.2627 2712.5061 15370.241 262144
7962.8184 2683.2585 15204.512 393216
7959.5347 2652.0554 15027.7 393216
7954.8066 2621.0686 14852.116 393216
7974.0776 2598.5828 14724.702 393216
7971.6807 2569.6008 14560.478 458752
7983.9331 2545.9128 14426.251 458752
7963.5415 2512.4292 14236.518 458752
7957.7271 2484.2 14076.56 458752
6979.1709 2156.0525 12217.133 458752
6980.7773 2134.3433 12094.118 458752
6506.6338 1969.1003 11157.78 458752
8090.1221 2423.6099 13733.229 458752
8071.3403 2393.832 13564.495 458752
7947.4565 2333.7798 13224.213 393216
7952.4526 2312.3787 13102.944 393216
7970.2104 2295.0676 13004.853 327680
7926.9297 2260.6812 12810.005 327680
7972.0737 2251.9272 12760.4 393216
7243.644 2026.8806 11485.188 393216
7786.5762 2158.4609 12230.779 393216
7236.8389 1987.5177 11262.141 458752
7896.3413 2148.7683 12175.857 589824
8009.8242 2159.856 12238.685 655360
8037.542 2147.8252 12170.513 851968
8041.7588 2129.7849 12068.29 917504
8041.9497 2111.0071 11961.886 917504
8052.8135 2095.3354 11873.083 983040
8070.5513 2081.709 11795.869 983040
8103.1592 2072.1196 11741.533 983040
8132.7563 2061.9312 11683.8 983040
8179.0352 2056.1084 11650.806 983040
8219.3105 2048.887 11609.886 983040
8255.708 2040.8273 11564.216 917504
8298.457 2034.4576 11528.123 917504
8344.1602 2028.9109 11496.692 851968
8389.5977 2023.3899 11465.408 917504
8419.0342 2014.1299 11412.938 917504
8429.8896 2000.6083 11336.318 851968
8448.9434 1989.2312 11271.851 655360
8460.8975 1976.3749 11199.001 524288
8446.1826 1957.5383 11092.265 327680
8491.5586 1952.8125 11065.486 262144
8538.7139 1948.5656 11041.421 196608
8604.2793 1948.5526 11041.348 65536
8677.5713 1950.2761 11051.114 65536
8732.2168 1947.8148 11037.167 65536
8986.8027 1989.6561 11274.259 65536
10029.791 2204.137 12489.601 65536
10212.959 2227.9014 12624.259 0
10335.564 2238.2039 12682.638 0
10200.087 2192.873 12425.773 0
10601.943 2262.8828 12822.479 0
10632.197 2253.144 12767.296 0
9386.8037 1975.1278 11191.935 0
9132.7314 1908.1454 10812.383 0
9189.4131 1906.5726 10803.471 0
9195.873 1894.6744 10736.051 0
9257.1787 1894.1624 10733.149 0
9326.6982 1895.3265 10739.746 65536
8809.0186 1777.9581 10074.686 65536
9360.6504 1876.5409 10633.298 65536
9403.1396 1872.4174 10609.933 65536
9411.0791 1861.5146 10548.153 65536
9470.2207 1860.8173 10544.201 65536
9016.9189 1760.1002 9973.4941 65536
9186.5674 1781.504 10094.778 0
9033.6719 1740.4868 9862.3564 0
9149.502 1751.4393 9924.418 0
9273.4443 1763.7942 9994.4258 0
9383.832 1773.4301 10049.027 0
9392.876 1763.9127 9995.0977 0
9385.9268 1751.5302 9924.9326 0
10064.273 1866.3885 10575.771 0
10186.537 1877.3372 10637.811 1
9666.9619 1770.592 10032.946 2
10416.984 1896.2688 10745.085 2
0 0 0 0
0 0 0 0
-6986.7183 1393.5704 7639.3037 256
-7010.7617 1407.5127 7715.7329 256
-6972.6577 1409.0797 7724.3228 256
-6956.4912 1415.1299 7757.4888 256
-6928.9541 1418.9325 7778.334 256
-6858.2842 1413.8938 7750.7129 256
-6851.8809 1422.1256 7795.8384 256
-7260.3535 1517.1644 8316.8242 256
-6972.7969 1467.063 8042.1768 0
-6697.8867 1418.9492 7778.4253 0
-6695.1133 1428.2195 7829.2437 0
-6757.7783 1451.6766 7957.8315 0
-6583.0322 1424.1055 7806.6914 0
-6759.7798 1472.7211 8073.1934 0
-6652.7788 1459.7709 8002.2026 0
-6591.9155 1456.8308 7986.0854 0
-6635.6353 1477.1288 8097.3555 0
-6963.5195 1561.442 8559.5459 0
-6922.6489 1563.7013 8571.9307 0
-6862.1064 1561.5175 8559.96 0
-6822.3984 1564.0776 8573.9932 0
-6759.3267 1561.2795 8558.6553 0
-6726.4595 1565.4688 8581.6191 0
-6081.8633 1426.2646 7818.5278 0
-6060.1191 1432.1074 7850.5566 0
-6610.0049 1574.1744 8629.3428 0
-6579.5649 1579.1781 8656.7725 0
-6533.416 1580.4606 8663.8018 0
-6491.7998 1582.8685 8677.002 0
-6468.5562 1589.8307 8715.167 0
-5936.042 1470.7271 8062.2627 0
-5890.5845 1471.3413 8065.6299 0
-6329.7671 1594.0116 8738.0869 0
-6295.3506 1598.4595 8762.4688 0
-6258.9492 1602.473 8784.4707 0
-6209.8447 1603.2747 8788.8652 0
-6164.1792 1604.9852 8798.2422 0
-5741.106 1507.6177 8264.4902 0
-6113.9717 1619.3873 8877.1914 0
-6066.6138 1620.8306 8885.1035 0
-6028.897 1624.8977 8907.3984 0
-5998.0347 1630.9006 8940.3057 0
-5960.0229 1635.0497 8963.0498 0
-5956.9331 1648.9402 9039.1953 0
-5919.5322 1653.4995 9064.1885 0
-5878.978 1657.2537 9084.7676 0
-5819.5723 1655.7139 9076.3271 0
-5762.7456 1654.886 9071.7891 0
-5739.0649 1663.6508 9119.8359 0
-5694.7695 1666.5502 9135.7295 0
-5641.2988 1666.7942 9137.0674 0
-5608.9287 1673.338 9172.9395 0
-5567.4956 1677.2799 9194.5488 0
-5559.8579 1691.5824 9272.9521 0
-5518.5454 1695.823 9296.1982 0
-5468.3462 1697.3909 9304.793 0
-5419.6934 1699.4758 9316.2227 0
-5939.4155 1881.6711 10314.984 0
-5332.0532 1706.8701 9356.7568 0
-5289.1216 1710.9716 9379.2402 0
-5248.6172 1715.954 9406.5527 0
-5711.7764 1887.4813 10346.835 0
-5162.8115 1724.6417 9454.1768 0
-5120.2612 1729.2479 9479.4277 0
-5074.0967 1732.7224 9498.4746 0
-5031.4658 1737.4955 9524.6396 0
-4987.1875 1741.8018 9548.2461 0
-4943.4482 1746.3978 9573.4404 0
-4899.6426 1751.0768 9599.0898 0
-4856.8809 1756.2438 9627.4141 0
-4812.7891 1761.0471 9653.7451 0
-4767.814 1765.6393 9678.9189 0
-4723.6675 1770.6542 9706.4092 0
-4679.748 1775.8793 9735.0527 0
-4633.6611 1780.4027 9759.8486 0
-4588.3516 1785.3428 9786.9297 0
-4540.9688 1789.593 9810.2285 0
-4495.1953 1794.5959 9837.6543 0
-4451.2544 1800.4723 9869.8672 0
-4402.936 1804.7113 9893.1045 0
-4360.7178 1811.599 9930.8613 0
-4314.4561 1816.973 9960.3213 0
-4264.7725 1821.0356 9982.5918 0
-4214.4795 1824.9489 10004.043 0
-4168.7852 1830.9938 10037.18 0
-4120.96 1836.2648 10066.075 0
-4073.6528 1841.9254 10097.105 0
-4025.8525 1847.5287 10127.822 0
-3977.8535 1853.2098 10158.965 0
-3931.9587 1860.0614 10196.523 0
-3882.9473 1865.6299 10227.05 0
-3834.9194 1871.8557 10261.179 0
-3786.4563 1878.0671 10295.228 0
-3735.8987 1883.4261 10324.605 0
-3686.22 1889.4152 10357.436 0
-3637.8201 1896.2738 10395.033 0
-3588.8245 1903.0538 10432.2 0
-3539.8823 1910.1006 10470.83 0
-3483.075 1913.0801 10487.163 0
-3438.4697 1922.9921 10541.499 0
-3388.3291 1930.1191 10580.567 0
-3337.6978 1937.2307 10619.552 0
-3284.5291 1943.1151 10651.81 0
-3232.7871 1950.0916 10690.053 0
-3179.2454 1956.2405 10723.76 0
-3124.9351 1962.1582 10756.2 0
-3071.4763 1968.8691 10792.988 0
-3016.6951 1975.0006 10826.6 0
-2958.6501 1979.2156 10849.706 0
-2902.0276 1984.5916 10879.176 0
-2844.8262 1989.8075 10907.769 0
-2788.304 1995.7529 10940.36 0
-2732.3447 2002.3948 10976.771 0
-2677.0422 2009.8549 11017.664 0
-2620.5186 2016.7488 11055.456 0
-2562.7634 2023.0256 11089.864 0
-2505.332 2029.8958 11127.525 0
-2447.3545 2036.6842 11164.738 65536
-2386.4368 2041.3359 11190.238 65536
-2326.3518 2046.9872 11221.218 65536
-2268.6616 2055.1414 11265.918 65536
-2210.0833 2062.9626 11308.792 0
-2151.3423 2071.1177 11353.497 0
-2100.9448 2088.0935 11446.556 0
-2039.1868 2094.5366 11481.874 0
-1983.2424 2107.604 11553.508 0
-1923.8394 2117.8013 11609.408 0
-1861.3936 2125.2832 11650.423 0
-1806.0848 2141.8074 11741.004 0
-1757.208 2167.5933 11882.358 0
-1697.9639 2182.2146 11962.51 0
-1638.0999 2197.2825 12045.109 0
-1577.7651 2213.0671 12131.639 0
-1513.7931 2225.0178 12197.149 0
-1451.1532 2240.2268 12280.522 0
-1387.8781 2256.0142 12367.065 0
-1326.9464 2277.5896 12485.339 0
-1264.137 2298.3071 12598.908 65536
-1199.0079 2317.1509 12702.206 65536
-1134.4429 2339.6899 12825.762 65536
-1068.0157 2361.3594 12944.549 65536
-999.77655 2382.0754 13058.111 65536
-929.65662 2401.4202 13164.156 65536
-858.2749 2420.7615 13270.182 65536
-785.27588 2438.9939 13370.128 65536
-710.63177 2455.6472 13461.418 65536
-634.18463 2469.5046 13537.382 65536
-553.15088 2466.9338 13523.29 65536
-473.3447 2469.8945 13539.52 65536
-418.27921 2629.606 14415.028 65536
-315.56488 2494.8794 13676.483 65536
-235.85143 2511.6055 13768.171 65536
-156.04883 2544.6492 13949.312 65536
-78.350906 2725.8228 14942.472 131585
9.9071598 2582.4077 14156.297 65536
93.884621 2578.0608 14132.469 65536
179.51299 2601.7463 14262.309 65536
273.60455 2693.5557 14765.59 0
362.90283 2705.0442 14828.568 0
454.22916 2724.2061 14933.61 0
536.19318 2690.1318 14746.822 0
621.19885 2678.7488 14684.422 0
716.77557 2710.1392 14856.499 0
819.90802 2760.0793 15130.261 0
923.55951 2801.7222 15358.539 0
1024.849 2829.3528 15510.006 0
1097.1486 2778.9941 15233.948 0
1189.9424 2784.2659 15262.848 0
1316.3195 2861.8044 15687.899 0
1411.8458 2866.4492 15713.362 0
1556.0103 2963.1401 16243.404 0
1652.8276 2963.6372 16246.129 0
1746.3425 2958.4846 16217.884 0
1839.6127 2953.4783 16190.439 0
1968.1578 3002.7878 16460.746 0
2065.5386 3002.1323 16457.152 0
2148.5417 2981.5837 16344.509 0
2292.3369 3043.5261 16684.066 0
2407.6721 3064.1128 16796.918 0
2492.6228 3045.9304 16697.246 0
2605.134 3061.5298 16782.758 0
2760.5454 3124.5354 17128.143 0
2896.5801 3161.9075 17333.01 0
3031.8879 3195.9465 17519.607 0
3175.665 3236.3564 17741.127 0
3292.863 3247.9521 17804.693 0
3748.51 3582.2654 19637.338 0
3766.1235 3490.4216 19133.867 0
0 0 0 0
0 0 0 0
0 0 0 0
0 0 0 0
0 0 0 0
0 0 0 0
0 0 0 0
0 0 0 0
4985.8076 3633.4111 19917.711 196608
0 0 0 0
5241.3711 3646.4961 19989.439 196608
5360.8452 3646.9519 19991.938 65536
5444.6235 3623.6306 19864.096 65536
0 0 0 0
5699.8267 3635.8044 19930.83 131072
5808.8145 3629.8879 19898.396 196608
5922.1025 3626.8411 19881.695 196608
0 0 0 0
0 0 0 0
6182.0562 3572.2141 19582.238 196608
6250.8135 3545.2021 19434.164 262144
6323.2026 3521.1926 19302.549 393216
6385.1221 3492.3127 19144.234 393216
6480.0483 3482.1809 19088.693 458752
6617.5908 3494.9045 19158.441 393216
6742.1602 3500.4619 19188.906 196608
0 0 0 0
7120.8521 3576.0933 19603.502 0
7229.937 3572.4238 19583.389 131072
7313.2441 3556.3359 19495.197 196608
7267.7251 3479.0798 19071.693 196608
7374.7217 3476.0852 19055.277 196608
5488.7285 2547.991 13967.63 262144
7702.1934 3522.2583 19308.391 262144
7826.3394 3526.4893 19331.584 262144
8052.1343 3575.7373 19601.553 262144
8028.4175 3514.3596 19265.09 262144
8051.479 3474.8962 19048.76 262144
8074.7583 3436.6204 18838.938 262144
7935.9717 3331.3591 18261.916 262144
7878.0591 3262.4297 17884.057 262144
8119.2622 3317.5554 18186.246 262144
8109.7329 3270.1282 17926.258 196608
7985.7593 3178.3816 17423.32 196608
8198.3252 3221.2141 17658.119 196608
8003.6069 3104.9602 17020.836 262144
8342.459 3196.0203 17520.012 262144
7906.147 2991.5288 16399.025 262144
8038.7729 3004.6709 16471.068 262144
7928.5991 2927.8369 16049.878 262144
7878.7905 2874.856 15759.446 327680
7896.8452 2847.5913 15609.986 327680
7911.4009 2819.7131 15457.163 262144
7949.8472 2800.8918 15353.987 262144
7927.7676 2761.415 15137.584 262144
7928.1753 2730.5696 14968.493 393216
7938.0527 2703.6338 14820.836 393216
7942.8198 2675.5679 14666.983 393216
7942.9082 2646.552 14507.925 458752
7967.7573 2626.321 14397.022 458752
7951.1807 2593.0105 14214.42 458752
7936.8921 2561.1389 14039.705 458752
7928.0371 2531.6653 13878.136 458752
7917.811 2502.3652 13717.519 458752
8055.0635 2519.7971 13813.077 458752
7947.3457 2461.0186 13490.863 458752
7928.5708 2430.6814 13324.561 458752
7915.8994 2402.7971 13171.703 393216
7924.9312 2381.9819 13057.599 393216
6697.9165 1993.6571 10928.872 393216
6699.2373 1974.8987 10826.041 393216
6742.2544 1968.6718 10791.906 393216
6707.3018 1940.0103 10634.789 393216
7748.2007 2220.1565 12170.501 458752
8091.0508 2296.9529 12591.485 458752
7984.2412 2245.8589 12311.396 655360
7995.2617 2228.5354 12216.433 720896
8015.6631 2214.1152 12137.384 655360
8013.2183 2193.6978 12025.458 851968
8050.9756 2184.5496 11975.311 851968
8054.2495 2166.2874 11875.2 851968
8076.6699 2153.4473 11804.812 917504
8098.5171 2140.6768 11734.807 917504
8123.667 2128.9897 11670.741 917504
8170.4404 2123.1196 11638.562 917504
8205.2148 2114.2563 11589.976 917504
8244.8535 2106.7837 11549.012 1048576
8282.4014 2098.9043 11505.818 1048576
8330.6436 2093.8423 11478.068 1114112
8366.9277 2085.8811 11434.428 1114112
8393.8594 2075.7356 11378.811 1114112
8411.2393 2063.4087 11311.237 1114112
8424.6592 2050.3137 11239.453 917504
8430.4424 2035.5809 11158.69 851968
8436.5898 2021.1654 11079.667 655360
8473.9707 2014.3976 11042.567 458752
8503.9336 2005.9844 10996.447 327680
8555.2832 2002.7056 10978.474 196608
8611.6221 2000.6357 10967.127 196608
8673.5508 1999.8857 10963.016 196608
8745.9736 2001.5485 10972.131 196608
8809.21 2001.0999 10969.672 65536
8866.6748 1999.3564 10960.114 0
8919.3154 1996.5586 10944.777 0
8952.71 1989.5243 10906.216 0
8980.9629 1981.4568 10861.991 0
9003.583 1972.2703 10811.633 0
9014.6953 1960.7112 10748.268 0
9043.8691 1953.2155 10707.178 0
9091.8896 1949.8666 10688.819 0
9109.292 1940.043 10634.969 0
9164.8555 1938.4264 10626.106 0
9237.0391 1940.3229 10636.503 65536
9266.8457 1933.3527 10598.293 0
9300.1504 1927.2013 10564.572 65536
9322.8135 1918.942 10519.297 0
9362.1865 1914.2095 10493.354 0
9402.7705 1909.7854 10469.102 65536
9408.9688 1898.4813 10407.135 65536
9467.332 1897.7819 10403.301 0
9456.9883 1883.408 10324.505 0
9523.043 1884.3365 10329.596 0
9567.457 1880.9984 10311.297 0
9605.0361 1876.3677 10285.912 65536
9685.2598 1880.0737 10306.228 65536
9122.6855 1759.739 9646.5742 0
9180.3242 1759.7977 9646.8965 0
9155.7549 1744.1947 9561.3633 0
9264.0215 1753.9338 9614.751 0
10866.723 2044.7563 11208.988 0
0 0 0 0
0 0 0 0
-6893.7363 1419.8231 7537.6372 256
-7429.6426 1540.2064 8176.7349 256
-7375.8208 1539.1162 8170.9473 256
-6893.1001 1447.9198 7686.7988 256
-7756.0635 1640.058 8706.833 256
-6942.5615 1477.8994 7845.9565 256
-6888.5747 1476.323 7837.5869 256
-6641.9697 1433.1631 7608.4575 256
-6548.1582 1422.6064 7552.4141 0
-7679.4644 1679.9015 8918.3564 0
-8478.5918 1867.603 9914.8369 0
-6566.6309 1456.5735 7732.7402 0
-8102.106 1809.8306 9608.1309 0
-8025.2119 1805.3785 9584.4961 0
-7962.8555 1804.157 9578.0107 0
-7407.9463 1690.5154 8974.7041 0
-6315.1299 1451.5834 7706.2485 0
-6257.166 1448.7673 7691.2979 0
-6243.2407 1456.1812 7730.6572 0
-6325.3765 1486.2766 7890.4292 0
-6239.1172 1476.9581 7840.959 0
-6445.8154 1537.3719 8161.6875 0
-6212.1748 1492.8816 7925.4946 0
-6316.2437 1529.4884 8119.835 0
-6068.7798 1480.8792 7861.7754 0
-5975.415 1469.4102 7800.8882 0
-6220.8242 1541.7208 8184.7749 0
-6535.5566 1632.4872 8666.6406 0
-6143.062 1546.6373 8210.876 0
-6306.4712 1600.493 8496.7881 0
-6410.3633 1639.9916 8706.4805 0
-6370.4131 1643.0338 8722.6309 0
-6332.5308 1646.6637 8741.9014 0
-6300.7085 1651.9425 8769.9258 0
-6248.6836 1651.9683 8770.0635 0
-6212.6782 1656.2654 8792.875 0
-6171.0747 1659.13 8808.084 0
-6130.6396 1662.3608 8825.2354 0
-6087.418 1664.8853 8838.6367 0
-6062.4985 1672.5026 8879.0762 0
-6028.3438 1677.6835 8906.5811 0
-6004.5874 1685.8759 8950.0732 0
-5962.6646 1689.0685 8967.0225 0
-5931.8901 1695.5051 9001.1943 0
-5890.46 1698.9857 9019.6719 0
-5858.106 1705.172 9052.5137 0
-5816.3257 1708.7039 9071.2637 0
-5768.5615 1710.5273 9080.9443 0
-5715.8159 1710.8942 9082.8916 0
-5672.3638 1714.0763 9099.7852 0
-5628.0381 1717.0533 9115.5898 0
-5588.1592 1721.4578 9138.9727 0
-5547.1709 1725.6038 9160.9834 0
-5494.2832 1726.0938 9163.584 0
-5466.291 1734.4928 9208.1738 0
-5440.0742 1743.6309 9256.6865 0
-5383.4082 1743.0966 9253.8496 0
-5382.2876 1760.7219 9347.4199 0
-5304.8286 1753.4816 9308.9824 0
-5298.877 1769.9744 9396.54 0
-5447.9858 1839.1643 9763.8604 0
-5194.9731 1772.6322 9410.6504 0
-5134.98 1771.231 9403.2119 0
-5414.4526 1888.1808 10024.081 0
-5086.3281 1793.4883 9521.3721 0
-5016.0952 1788.6229 9495.543 0
-4977.0898 1794.9087 9528.9131 0
-4933.7798 1799.769 9554.7158 0
-4889.9375 1804.546 9580.0762 0
-4844.5835 1808.8711 9603.0381 0
-4800.6616 1813.8406 9629.4189 0
-4755.7324 1818.5447 9654.3926 0
-4713.5034 1824.4087 9685.5244 0
-4669.6714 1829.7898 9714.0918 0
-4624.9282 1834.9438 9741.4541 0
-4579.1147 1839.7986 9767.2275 0
-4530.3081 1843.5602 9787.1973 0
-4482.8521 1847.9761 9810.6406 0
-4439.0479 1854.0341 9842.8008 0
-4392.0474 1858.9008 9868.6377 0
-4346.9639 1864.7217 9899.54 0
-4303.0596 1871.215 9934.0117 0
-4255.6797 1876.3566 9961.3076 0
-4202.4058 1879.0078 9975.3828 0
-4156.8135 1885.2188 10008.356 0
-4111.5015 1891.7388 10042.971 0
-4065.0981 1897.9418 10075.901 0
-4017.561 1903.7928 10106.964 0
-3969.6589 1909.646 10138.036 0
-3922.4084 1915.9979 10171.758 0
-3875.0356 1922.4878 10206.212 0
-3825.7935 1928.2421 10236.761 0
-3777.3601 1934.5964 10270.495 0
-3726.7183 1940.0099 10299.234 0
-3676.9587 1946.0712 10331.413 0
-3627.9565 1952.746 10366.849 0
-3579.2063 1959.7894 10404.241 0
-3529.4482 1966.5192 10439.968 0
-3472.6853 1969.5166 10455.881 0
-3428.0686 1979.6373 10509.611 0
-3380.7886 1988.5676 10557.021 0
-3330.4153 1995.9818 10596.381 0
-3278.0415 2002.4595 10630.771 0
-3224.397 2008.4004 10662.31 0
-3169.8125 2013.9821 10691.942 0
-3115.2676 2019.8181 10722.925 0
-3061.6128 2026.4869 10758.328 0
-3007.5828 2033.1865 10793.896 0
-2951.7488 2038.9321 10824.398 0
-2895.7368 2044.808 10855.593 0
-2839.2661 2050.6204 10886.45 0
-2782.8149 2056.7188 10918.824 0
-2726.4958 2063.2078 10953.273 0
-2671.3125 2070.8945 10994.083 0
-2614.3 2077.5134 11029.222 0
-2557.2979 2084.4812 11066.213 0
-2502.0615 2093.2944 11113 0
-2444.2451 2100.3682 11150.554 0
-2384.7437 2106.3479 11182.3 65536
-2327.79 2114.9856 11228.155 0
-2270.1748 2123.5142 11273.432 0
-2213.5354 2133.502 11326.456 0
-2155.041 2142.2725 11373.017 0
-2095.7505 2150.7937 11418.255 0
-2036.5415 2159.9719 11466.98 0
-1979.0449 2171.6646 11529.056 0
-1918.2941 2180.4968 11575.945 0
-1857.4402 2189.8647 11625.679 0
-1809.3325 2215.5647 11762.116 0
-1756.7203 2237.5928 11879.06 0
-1697.2451 2252.3579 11957.445 0
-1636.766 2267.0234 12035.302 0
-1576.5103 2283.3523 12121.99 0
-1513.7156 2297.3921 12196.524 0
-1451.0085 2312.9834 12279.298 0
-1387.7263 2329.2612 12365.714 0
-1333.7675 2363.8835 12549.519 0
-1270.2505 2384.6638 12659.839 65536
-1203.9022 2402.4111 12754.056 65536
-1140.8652 2429.595 12898.372 65536
-1073.1267 2449.9617 13006.495 65536
-1003.7634 2469.4932 13110.185 65536
-932.71204 2487.8091 13207.422 65536
-859.48724 2503.1616 13288.927 65536
-787.52332 2525.6648 13408.393 65536
-712.53705 2542.4512 13497.509 65536
-681.19543 2738.9854 14540.88 65536
-606.62036 2793.5388 14830.498 65536
-477.11942 2570.7026 13647.492 65536
-399.9357 2596.2017 13782.862 65536
-318.70819 2601.8247 13812.715 65536
-239.22922 2630.5767 13965.354 65536
-158.86267 2674.9341 14200.842 65536
-78.350906 2814.6309 14942.472 65536
10.06734 2709.6565 14385.178 65536
94.97979 2693.1082 14297.324 65536
182.55367 2732.0176 14503.891 65536
276.29004 2808.6118 14910.518 0
363.08301 2794.5623 14835.931 0
452.25006 2800.7056 14868.545 0
534.73102 2770.2026 14706.609 0
621.42773 2767.0427 14689.833 0
715.15527 2792.1106 14822.915 0
813.22278 2826.7659 15006.895 0
919.54437 2880.426 15291.769 0
1014.0908 2890.8655 15347.19 0
1102.7748 2884.2498 15312.068 0
1188.2729 2870.9451 15241.436 0
1303.2423 2925.686 15532.048 0
1407.8494 2951.4609 15668.884 0
1535.6648 3019.6736 16031.015 0
1644.6063 3044.9719 16165.319 0
1747.5831 3057.0437 16229.406 0
1833.4714 3039.5227 16136.391 0
1950.0828 3072.1448 16309.576 0
2061.1738 3093.3921 16422.375 0
2175.7197 3117.6692 16551.26 0
2287.4153 3135.938 16648.246 0
2410.8164 3168.0745 16818.854 0
2528.0181 3189.8296 16934.348 0
2661.2703 3229.3955 17144.398 0
2793.0762 3264.3535 17329.984 0
2916.9167 3287.8464 17454.705 0
3041.3416 3310.3613 17574.234 0
3195.7559 3362.9399 17853.365 0
3299.427 3360.457 17840.186 0
3530.5876 3483.9338 18495.705 0
3718.0337 3558.1199 18889.547 0
3948.3755 3667.8037 19471.844 0
0 0 0 0
0 0 0 0
0 0 0 0
4526.0454 3763.2209 19978.4 0
0 0 0 0
4761.2251 3761.4055 19968.764 65536
0 0 0 0
4942.041 3718.855 19742.867 65536
5060.2412 3719.4878 19746.229 196608
5176.8848 3718.9746 19743.502 196608
5288.5815 3715.0085 19722.447 65536
5366.4614 3687.9749 19578.93 65536
5499.8857 3699.45 19639.85 65536
5594.6509 3684.9849 19563.057 196608
5723.4287 3693.0559 19605.904 196608
5762.0923 3643.8179 19344.508 196608
0 0 0 0
0 0 0 0
6240.7471 3723.6167 19768.146 196608
6208.0977 3635.6899 19301.357 262144
6219.7476 3576.4268 18986.736 393216
6298.8638 3557.3784 18885.611 393216
6409.5571 3556.5176 18881.043 458752
6515.1606 3552.9116 18861.898 393216
6705.1631 3594.6736 19083.607 262144
0 0 0 0
7011.6724 3635.9868 19302.934 65536
7050.6421 3597.3357 19097.74 131072
6938.3105 3483.9373 18495.723 196608
6998.2031 3459.2051 18364.424 196608
7022.853 3418.0801 18146.098 196608
7107.147 3406.7893 18086.156 262144
7215.0972 3407.0059 18087.305 262144
7261.9155 3378.7722 17937.418 262144
7272.9155 3334.9324 17704.678 262144
7357.4351 3325.5735 17654.992 262144
7453.7671 3321.7417 17634.65 262144
7437.8252 3268.6758 17352.932 262144
7637.6099 3310.5693 17575.338 262144
7683.5488 3285.5469 17442.498 262144
7631.0513 3219.6589 17092.707 262144
7700.165 3206.1375 17020.924 196608
7727.3804 3175.748 16859.59 196608
7745.2915 3142.3608 16682.344 196608
6046.3711 2422.0825 12858.489 196608
7704.416 3047.7478 16180.057 196608
7759.457 3031.6809 16094.76 196608
8162.0029 3150.1248 16723.561 196608
7788.8857 2969.9534 15767.057 196608
7814.5098 2944.3005 15630.87 196608
7797.2051 2903.2661 15413.024 196608
7866.7812 2895.1594 15369.986 196608
7852.1987 2856.6213 15165.394 262144
7878.2334 2833.5671 15043.002 262144
7921.4326 2817.1345 14955.764 196608
7942.2158 2793.1831 14828.608 393216
7925.7891 2756.8147 14635.534 393216
7897.4419 2717.1345 14424.878 458752
7925.1553 2697.3879 14320.045 458752
7899.6118 2660.1265 14122.229 458752
7879.0234 2625.2998 13937.34 524288
7882.7495 2599.2148 13798.859 524288
7889.8677 2574.7742 13669.107 524288
7903.1182 2552.8125 13552.517 524288
7903.5186 2527.1853 13416.465 524288
7899.9922 2500.8269 13276.531 524288
7902.1548 2476.7729 13148.832 458752
7895.7642 2450.5354 13009.541 458752
7096.4614 2181.1047 11579.172 458752
6569.0483 1999.6122 10615.654 393216
6586.4272 1985.8293 10542.483 393216
6599.083 1970.8956 10463.202 393216
6589.9922 1949.8064 10351.243 458752
6634.3301 1944.7697 10324.503 589824
7502.6699 2179.1567 11568.831 655360
7880.3643 2268.073 12040.874 720896
7927.4756 2261.0989 12003.85 786432
7971.0747 2253.2561 11962.214 851968
7966.8101 2232.1416 11850.12 851968
7980.1265 2216.2798 11765.912 851968
7999.0771 2202.2451 11691.404 917504
8034.8906 2193.0544 11642.611 917504
8081.3315 2186.8967 11609.921 917504
8142.3823 2184.7634 11598.596 917504
8182.8208 2177.1816 11558.345 917504
8241.6621 2174.5815 11544.541 983040
8292.8389 2170.0186 11520.318 983040
8333.7676 2162.8711 11482.372 983040
8376.7002 2156.3555 11447.782 917504
8402.6865 2145.6174 11390.776 917504
8402.4043 2128.3975 11299.356 851968
8406.29 2112.4976 11214.946 720896
8407.2969 2096.1304 11128.055 655360
8409.1729 2080.2334 11043.661 524288
8455.5898 2075.5154 11018.614 458752
8463.8682 2061.5811 10944.639 393216
8493.0713 2052.9167 10898.641 262144
8548.5273 2050.6814 10886.773 262144
8613.3213 2050.7029 10886.888 196608
8680.3379 2051.2493 10889.788 196608
8757.041 2054.0596 10904.708 196608
8815.4795 2052.5762 10896.832 196608
8872.7021 2050.8328 10887.578 196608
8911.9697 2044.995 10856.586 196608
8932.3105 2034.9294 10803.148 196608
8944.5117 2023.1663 10740.699 196608
8970.8086 2014.7352 10695.94 196608
8971.6777 2000.7526 10621.709 196608
8996.2988 1992.2253 10576.438 196608
9015.4385 1982.6105 10525.396 196608
9065.4492 1979.8708 10510.851 196608
9134.6523 1981.3312 10518.604 196608
9165.9785 1974.6123 10482.934 196608
9203.6279 1969.337 10454.928 196608
9230.5596 1961.8544 10415.203 196608
9271.3271 1957.3926 10391.517 196608
9297.7344 1949.978 10352.154 196608
9315.2422 1940.8069 10303.466 65536
9335.8408 1932.3953 10258.81 65536
9361.8174 1925.1986 10220.604 65536
9423.8174 1925.4552 10221.966 65536
9466.1123 1921.7081 10202.073 65536
9507.1836 1917.762 10181.123 0
9582.6885 1920.7675 10197.079 0
9665.7305 1925.2365 10220.805 0
8861.3281 1753.9912 9311.6875 65536
9186.4697 1807.0632 9593.4395 65536
9191.2256 1796.8463 9539.1992 0
10329.26 2006.9476 10654.597 0
0 0 0 0
0 0 0 0
-6984.686 1483.9446 7637.0811 256
-7011.2495 1499.3317 7716.27 256
-7166.8677 1542.7008 7939.4688 256
-7472.0361 1619.0496 8332.3955 256
-8624.9668 1881.337 9682.251 256
-8313.3428 1825.5431 9395.1094 256
-7600.8398 1680.3699 8647.9785 256
-7312.5967 1627.6522 8376.6689 256
-6886.4424 1543.3052 7942.5791 0
-6845.3887 1544.6932 7949.7227 0
-6795.3071 1544.0494 7946.4092 0
-6781.4443 1551.684 7985.6997 0
-6717.5728 1547.9027 7966.2397 0
-6699.9155 1554.7924 8001.6973 0
-6643.4258 1552.7045 7990.9521 0
-6676.2056 1571.6011 8088.2026 0
-6627.1704 1571.3724 8087.0264 0
-6512.2144 1555.3956 8004.8022 0
-6445.9297 1550.8942 7981.6357 0
-6431.3447 1558.8571 8022.6167 0
-6390.3164 1560.4818 8030.978 0
-6133.4771 1509.0343 7766.2046 0
-6268.7715 1554.0157 7997.7007 0
-6153.8799 1537.1903 7911.1089 0
-6176.5977 1554.7439 8001.4482 0
-6173.3193 1565.9756 8059.2515 0
-6139.6846 1569.6223 8078.019 0
-6098.6626 1571.423 8087.2861 0
-6096.1113 1583.2435 8148.1211 0
-6015.9438 1574.9342 8105.3569 0
-5974.9478 1576.8281 8115.104 0
-5968.2314 1587.8734 8171.9478 0
-6289.4658 1687.0684 8682.4521 0
-5886.9229 1592.1543 8193.9795 0
-5897.8989 1608.4287 8277.7354 0
-6137.8589 1687.9486 8686.9824 0
-6133.501 1701.0588 8754.4541 0
-6116.0654 1710.7356 8804.2549 0
-6077.2148 1714.5376 8823.8223 0
-6040.2964 1718.9558 8846.5596 0
-6007.4756 1724.6276 8875.75 0
-5975.5605 1730.6622 8906.8076 0
-5932.9531 1733.6805 8922.3408 0
-5894.0654 1737.8499 8943.7979 0
-5860.417 1743.6541 8973.6689 0
-5832.4902 1751.283 9012.9307 0
-5797.6968 1756.9722 9042.21 0
-5726.9438 1751.7684 9015.4297 0
-5704.2212 1761.2968 9064.4668 0
-5671.6836 1767.9475 9098.6943 0
-5623.7046 1769.8665 9108.5703 0
-5579.4561 1773.0083 9124.7393 0
-5526.6772 1773.4745 9127.1387 0
-5495.5957 1780.9812 9165.7725 0
-6068.4458 1986.3168 10222.526 0
-6007.375 1986.2125 10221.99 0
-5958.1909 1990.0769 10241.877 0
-5351.3442 1805.8348 9293.6807 0
-5299.0835 1806.8491 9298.9004 0
-5256.5435 1811.2344 9321.4688 0
-5209.4297 1814.1202 9336.3213 0
-5168.0723 1819.0942 9361.9199 0
-5111.9893 1818.9369 9361.1104 0
-5162.9888 1857.2975 9558.5322 0
-5046.7964 1835.6979 9447.3701 0
-5002.9839 1840.2356 9470.7236 0
-4966.126 1847.4637 9507.9229 0
-4918.5083 1850.8094 9525.1416 0
-4877.1577 1856.6189 9555.0391 0
-4831.8423 1861.0377 9577.7812 0
-4788.6572 1866.3928 9605.3408 0
-4743.728 1871.1886 9630.0225 0
-4700.4438 1876.7588 9658.6895 0
-4656.335 1882.1333 9686.3486 0
-4610.9014 1887.0999 9711.9092 0
-4565.0215 1892.0078 9737.167 0
-4516.8115 1896.0634 9758.0391 0
-4472.8223 1902.0193 9788.6914 0
-4428.8584 1908.1432 9820.208 0
-4379.6777 1912.153 9840.8438 0
-4332.3535 1917.0928 9866.2666 0
-4287.6338 1923.3364 9898.3994 0
-4240.0298 1928.4421 9924.6758 0
-4190.7793 1932.9324 9947.7842 0
-4143.7686 1938.5991 9976.9482 0
-4098.0977 1945.0659 10010.229 0
-4051.6016 1951.3263 10042.448 0
-4003.4617 1956.9698 10071.493 0
-3955.6191 1962.9326 10102.181 0
-3911.3579 1970.8838 10143.101 0
-3862.0237 1976.4875 10171.94 0
-3813.6438 1982.7657 10204.251 0
-3763.7183 1988.4304 10233.403 0
-3709.967 1992.2264 10252.94 0
-3662.8745 1999.7849 10291.84 0
-3613.9336 2006.5737 10326.778 0
-3564.4495 2013.2903 10361.345 0
-3516.9785 2021.4001 10403.082 0
-3462.7217 2025.8302 10425.881 0
-3419.3621 2036.9133 10482.92 0
-3367.8184 2043.442 10516.52 0
-3316.5925 2050.4141 10552.401 0
-3266.1497 2058.1479 10592.204 0
-3215.0369 2065.7559 10631.357 0
-3161.9163 2072.3528 10665.309 0
-3107.7046 2078.4897 10696.893 0
-3052.915 2084.4885 10727.765 0
-2998.3635 2090.9092 10760.809 0
-2944.1611 2097.8586 10796.573 0
-2886.7878 2102.8081 10822.045 0
-2830.4756 2108.7732 10852.745 0
-2774.6196 2115.3647 10886.668 0
-2718.3389 2121.9392 10920.504 0
-2663.2559 2129.7932 10960.924 0
-2606.7595 2136.8828 10997.41 0
-2551.2664 2145.1802 11040.112 0
-2497.5476 2155.447 11092.951 0
-2315.8096 2052.7915 10564.636 0
-2365.7119 2155.4678 11093.058 0
-2322.8098 2177.0505 11204.133 0
-2266.0557 2186.5413 11252.977 0
-2208.0779 2195.3931 11298.531 0
-2148.4121 2203.0686 11338.033 0
-2090.6853 2213.2939 11390.658 0
-2031.8082 2222.9456 11440.329 0
-1974.3595 2234.8818 11501.76 0
-1913.8856 2244.1274 11549.343 0
-1854.4594 2255.3352 11607.022 0
-1806.6696 2282.1074 11744.805 0
-1755.2615 2306.2773 11869.194 0
-1696.7594 2322.7605 11954.024 0
-1637.6855 2339.8669 12042.062 0
-1576.9597 2356.0691 12125.447 0
-1513.231 2369.1216 12192.62 0
-1449.5511 2383.5671 12266.965 0
-1385.9819 2399.7346 12350.17 0
-1324.8973 2422.2527 12466.059 0
-1260.6832 2441.3782 12564.487 65536
-1198.1587 2466.3896 12693.209 65536
-1135.8969 2495.3398 12842.2 65536
-1064.9189 2507.9341 12907.016 65536
-998.81561 2534.8545 13045.561 65536
-929.58374 2557.6978 13163.124 65536
-857.98553 2577.6306 13265.707 65536
-785.62048 2599.0603 13375.995 65536
-711.3288 2618.2244 13474.621 65536
-636.2865 2639.137 13582.248 65536
-596.2392 2832.3672 14576.702 65536
-478.81165 2661.2197 13695.896 65536
-398.24683 2666.8083 13724.658 65536
-318.06216 2678.478 13784.716 65536
-238.42322 2704.4351 13918.303 65536
-157.34891 2733.0415 14065.525 65536
-74.292511 2753.0479 14168.487 131072
10.013611 2780.2346 14308.403 131072
95.514175 2793.7124 14377.766 65536
184.04504 2841.2427 14622.38 0
273.46436 2867.5994 14758.023 0
363.56787 2886.5872 14855.743 0
453.44431 2896.7034 14907.807 0
539.30585 2882.0571 14832.431 0
628.04626 2884.7495 14846.286 0
722.71429 2910.6514 14979.59 0
821.57977 2945.9224 15161.11 0
922.67822 2981.4365 15343.884 0
1017.5432 2992.2317 15399.439 0
1107.3076 2987.4839 15375.007 0
1200.9681 2993.1702 15404.271 0
1308.3257 3029.77 15592.631 0
1417.1553 3064.7114 15772.455 0
1540.8552 3125.48 16085.199 0
1655.3188 3161.5081 16270.616 0
1764.1993 3183.4839 16383.716 0
1862.5498 3185.1538 16392.309 0
1998.264 3247.3774 16712.541 0
2120.7935 3283.2957 16897.395 0
2223.8499 3287.1826 16917.398 0
2354.3374 3329.5264 17135.318 0
2489.8994 3375.2375 17370.568 0
2623.6013 3414.8877 17574.629 0
2744.5615 3435.552 17680.977 0
2873.0547 3463.7739 17826.221 0
2995.6763 3483.1616 17925.998 0
3114.5247 3496.981 17997.119 0
3255.9377 3534.3772 18189.578 0
3358.187 3528.2229 18157.904 0
3507.9446 3570.8113 18377.086 0
3702.5708 3655.1223 18810.988 0
3929.5903 3765.5305 19379.203 0
0 0 0 0
0 0 0 0
0 0 0 0
4517.4839 3874.616 19940.607 65536
0 0 0 0
4715.0737 3842.4768 19775.205 65536
4860.8037 3864.8982 19890.596 65536
4890.3521 3796.0708 19536.377 65536
5001.0073 3791.9338 19515.086 65536
5103.7061 3782.0884 19464.416 65536
5217.6079 3780.7969 19457.77 65536
5309.7754 3764.1541 19372.117 65536
5446.0249 3778.8044 19447.516 65536
5556.1646 3775.1057 19428.48 65536
5591.2212 3721.5815 19153.02 196608
5757.7642 3755.9658 19329.979 196608
5976.4072 3822.3267 19671.502 196608
6178.8877 3876.0017 19947.74 196608
6040.2163 3717.6812 19132.947 262144
6045.6665 3652.2776 18796.35 262144
6135.3799 3639.2283 18729.191 393216
6228.2725 3628.4963 18673.959 393216
6355.7017 3637.9084 18722.398 458752
6487.1533 3649.259 18780.814 393216
6781.2549 3750.1748 19300.174 262144
6886.7573 3745.1687 19274.41 196608
6899.6597 3690.7922 18994.564 65536
6955.0859 3660.5481 18838.912 0
6965.6509 3608.0249 18568.604 0
7160.3584 3651.0334 18789.947 65536
7148.856 3589.1904 18471.672 196608
7122.5537 3521.8999 18125.363 196608
7177.1772 3496.0337 17992.244 196608
7258.4668 3483.7253 17928.9 196608
7336.8608 3470.4041 17860.342 196608
7418.3872 3458.9226 17801.254 262144
7459.7671 3429.3088 17648.846 262144
7519.3052 3408.7478 17543.029 262144
7563.771 3382.01 17405.424 262144
7586.2466 3346.2937 17221.611 196608
7681.3032 3343.1177 17205.266 196608
7737.7832 3323.4561 17104.078 196608
7712.481 3269.6335 16827.082 196608
7736.311 3237.7515 16663.002 196608
7863.8872 3249.5457 16723.701 262144
7838.1006 3198.4634 16460.807 262144
7799.2881 3143.3909 16177.378 262144
7796.0732 3103.8323 15973.789 262144
7802.3555 3068.9604 15794.323 262144
7796.6655 3030.2646 15595.177 262144
7758.2671 2979.9153 15336.055 262144
7876.7061 2990.2761 15389.377 196608
7895.1084 2962.8574 15248.268 262144
7875.6992 2922.0327 15038.163 262144
6468.6914 2373.0752 12212.969 327680
7828.2168 2839.9573 14615.765 393216
7820.5781 2806.0486 14441.255 393216
7869.3677 2792.9028 14373.601 458752
7895.5376 2772.0981 14266.528 524288
7865.9688 2732.373 14062.085 524288
7847.6875 2697.3635 13881.909 524288
7820.688 2660.1167 13690.22 524288
7844.4434 2640.7231 13590.41 524288
7850.4482 2615.8103 13462.197 524288
7865.1626 2594.2727 13351.354 524288
7885.2231 2574.9111 13251.711 524288
7878.9741 2547.4263 13110.261 524288
7859.0991 2516.1172 12949.13 524288
7875.4453 2496.8994 12850.226 524288
6515.8018 2045.9851 10529.607 524288
6541.1465 2034.4038 10470.005 524288
6583.5479 2028.2959 10438.57 524288
6550.0596 1999.1395 10288.519 655360
6568.0322 1986.084 10221.328 655360
6576.6709 1970.4708 10140.976 720896
7898.3813 2344.9854 12068.404 851968
7938.707 2335.7463 12020.855 851968
7975.9868 2325.7839 11969.585 851968
7974.1694 2304.6982 11861.067 851968
7976.3872 2285.1375 11760.399 851968
7997.4424 2271.2666 11689.014 917504
8039.5752 2263.5693 11649.399 917504
8081.7739 2256.022 11610.557 917504
8138.0024 2252.4854 11592.355 917504
8186.127 2246.7842 11563.015 851968
8239.8174 2242.6929 11541.958 851968
8306.1846 2242.0906 11538.858 851968
8354.4521 2236.6526 11510.872 720896
8397.8359 2230.0059 11476.666 720896
8427.4414 2219.8376 11424.335 720896
8445.4121 2206.7913 11357.192 720896
8429.7803 2185.241 11246.285 524288
8417.5752 2164.9114 11141.659 524288
8405.4053 2144.908 11038.712 458752
8438.4785 2136.6704 10996.317 393216
8421.3594 2115.948 10889.67 393216
8435.9561 2103.45 10825.349 262144
8492.6387 2101.5552 10815.598 262144
8529.207 2094.7493 10780.57 196608
8585.126 2092.7617 10770.342 196608
8646.0801 2092.0217 10766.534 196608
8705.3965 2090.8994 10760.758 196608
8776.1328 2092.5166 10769.08 196608
8831.5752 2090.4895 10758.648 196608
8876.5918 2086.0417 10735.759 196608
8901.2344 2076.9041 10688.731 196608
8924.7607 2067.637 10641.038 196608
8943.9521 2057.5029 10588.884 196608
8963.2012 2047.5237 10537.526 196608
8974.1973 2035.8113 10477.248 196608
9011.3682 2030.1565 10448.146 196608
9067.1338 2028.7397 10440.855 196608
9094.707 2021.0775 10401.422 196608
9151.7861 2020.0312 10396.037 196608
9157.876 2007.8199 10333.191 262144
9181.4385 1999.5765 10290.768 262144
9208.6328 1992.2278 10252.947 262144
9203.625 1978.0549 10180.007 262144
9220.0488 1968.6433 10131.57 262144
9257.3574 1963.7838 10106.562 262144
9303.2881 1960.8046 10091.229 262144
9342.498 1956.4559 10068.848 262144
9363.3555 1948.3436 10027.099 196608
9451.0381 1954.1516 10056.988 196608
9556.5674 1963.553 10105.373 131072
9676.7461 1975.8284 10168.548 131072
9760.2461 1980.5084 10192.634 0
8871.8301 1789.1305 9207.7119 0
10074.377 2019.1859 10391.687 65536
0 0 0 0
0 0 0 0
-6813.0879 1491.7621 7449.4556 256
-6965.3647 1535.0796 7665.7715 256
-6960.1011 1544.019 7710.4126 256
-6952.1147 1552.4689 7752.6084 256
-7067.8896 1588.8528 7934.2998 256
-6866.5298 1553.9552 7760.0308 256
-6712.9971 1529.4824 7637.8208 256
-7112.3228 1631.4971 8147.2534 256
-7078.3506 1634.8342 8163.9189 0
-7948.7515 1848.5358 9231.0859 0
-6926.2466 1621.9403 8099.5298 0
-8004.5547 1887.5697 9426.0117 0
-6671.9126 1584.4056 7912.0923 0
-6549.4072 1566.3536 7821.9453 0
-6400.0635 1541.5791 7698.2275 0
-6299.7534 1528.3433 7632.1318 0
-6322.7778 1545.0541 7715.5811 0
-6318.6284 1555.3202 7766.8472 0
-6342.0142 1572.5651 7852.9629 0
-6317.0581 1577.9899 7880.0532 0
-6088.875 1532.3508 7652.144 0
-6139.2632 1556.6587 7773.5312 0
-5977.7891 1527.2087 7626.4658 0
-5917.1118 1523.2568 7606.7314 0
-5889.8286 1527.9073 7629.9546 0
-6127.6318 1601.9305 7999.6064 0
-6140.1582 1617.7574 8078.6421 0
-6090.8584 1617.4161 8076.937 0
-6050.4478 1619.4486 8087.0864 0
-6021.9165 1624.7186 8113.4038 0
-5993.2349 1630.0327 8139.9414 0
-5947.1064 1630.6499 8143.0229 0
-5785.6226 1599.3877 7986.9087 0
-5681.3291 1583.5491 7907.8149 0
-5469.9668 1537.3541 7677.1299 0
-5549.3184 1572.7756 7854.0146 0
-5423.7871 1550.2378 7741.4673 0
-5377.002 1550.0144 7740.3516 0
-5358.127 1557.9022 7779.7412 0
-5327.9253 1562.6055 7803.2275 0
-5280.498 1562.2948 7801.6763 0
-5287.6372 1578.2656 7881.4307 0
-5385.6899 1621.9008 8099.3325 0
-5330.7305 1619.8276 8088.98 0
-5173.1504 1586.2501 7921.3032 0
-6525.8906 2019.421 10084.44 0
-5103.061 1593.7672 7958.8413 0
-5079.3594 1601.2072 7995.9937 0
-5166.2041 1643.9648 8209.5146 0
-6314.4155 2028.5013 10129.785 0
-6276.5205 2035.7373 10165.92 0
-6230.3467 2040.4027 10189.218 0
-6178.2856 2043.2128 10203.25 0
-6118.9438 2043.6466 10205.417 0
-6039.7363 2037.3883 10174.164 0
-5998.7964 2044.0425 10207.394 0
-5953.4434 2049.3135 10233.716 0
-5896.3213 2050.6006 10240.143 0
-5309.3354 1865.7185 9316.8916 0
-5791.0083 2056.427 10269.239 0
-5267.9038 1890.595 9441.1182 0
-5689.0522 2063.7227 10305.671 0
-5634.1494 2066.05 10317.294 0
-5085.1885 1885.2638 9414.4961 0
-5189.2168 1945.2347 9713.9746 0
-5492.6636 2082.1504 10397.694 0
-5438.3477 2085.0186 10412.018 0
-5383.7656 2087.8496 10426.154 0
-4866.1821 1909.1018 9533.5361 0
-4822.1865 1914.1293 9558.6426 0
-4780.7744 1920.3142 9589.5283 0
-4738.4131 1926.2628 9619.2334 0
-4691.7397 1930.5819 9640.8027 0
-4649.1138 1936.6943 9671.3262 0
-4603.1758 1941.5626 9695.6367 0
-4556.0938 1946.0657 9718.124 0
-4507.52 1950.0389 9737.9658 0
-4461.9521 1955.4331 9764.9023 0
-4418.3794 1961.8552 9796.9727 0
-4375.7563 1968.876 9832.0332 0
-4329.6582 1974.5023 9860.1289 0
-4281.2119 1979.1971 9883.5742 0
-4232.7729 1984.0264 9907.6895 0
-4182.7993 1988.2621 9928.8418 0
-4140.2583 1996.2028 9968.4951 0
-4092.283 2001.7162 9996.0273 0
-4041.5024 2005.9993 10017.416 0
-3994.0913 2012.1077 10047.92 0
-3945.8394 2017.9719 10077.204 0
-3901.0054 2025.7917 10116.254 0
-3852.3867 2031.8601 10146.558 0
-3803.1694 2037.8008 10176.225 0
-3751.6541 2042.6821 10200.601 0
-3702.6489 2049.1133 10232.716 0
-3652.6453 2055.1973 10263.098 0
-3602.8489 2061.6067 10295.104 0
-3551.4507 2067.3049 10323.56 0
-3504.873 2076.0588 10367.274 0
-3448.624 2079.2949 10383.435 0
-3406.8965 2091.564 10444.703 0
-3357.4854 2099.4839 10484.253 0
-3305.9329 2106.3389 10518.485 0
-3255.2661 2114.0332 10556.909 0
-3204.2925 2121.8269 10595.828 0
-3151.4041 2128.6399 10629.851 0
-3097.9675 2135.3538 10663.377 0
-3044.1768 2142.0986 10697.06 0
-2990.9768 2149.5559 10734.299 0
-2937.8955 2157.4253 10773.597 0
-2881.0977 2162.8552 10800.713 0
-2821.73 2166.5601 10819.213 0
-2765.4583 2172.8696 10850.722 0
-2709.5574 2179.7791 10885.226 0
-2653.9629 2187.2788 10922.678 0
-2597.1882 2194.1582 10957.03 0
-2540.3088 2201.3003 10992.696 0
-2325.8613 2068.6748 10330.4 0
-2260.1067 2064.6938 10310.521 0
-2221.7317 2086.2007 10417.921 0
-2167.2209 2093.355 10453.646 0
-2117.0298 2105.2266 10512.931 0
-2061.7405 2112.5972 10549.736 0
-2118.9045 2239.2708 11182.311 0
-1956.7102 2134.8223 10660.723 0
-2013.8508 2270.6914 11339.218 0
-1967.9136 2295.7212 11464.209 0
-1909.1903 2307.0955 11521.009 0
-1849.9274 2318.6394 11578.656 0
-1803.3401 2347.5764 11723.16 0
-1752.7012 2373.353 11851.882 0
-1694.1385 2390.1096 11935.56 0
-1635.5134 2408.2388 12026.091 0
-1575.3278 2425.6218 12112.897 0
-1512.7355 2440.7866 12188.627 0
-1450.8685 2458.7065 12278.113 0
-1385.7844 2472.7834 12348.41 0
-1324.3329 2495.2793 12460.748 0
-1264.6324 2523.9351 12603.847 65536
-1200.4529 2546.697 12717.514 65536
-1133.6584 2566.5977 12816.893 65536
-1065.5146 2586.0908 12914.236 65536
-998.04388 2610.3704 13035.481 65536
-929.80731 2636.5649 13166.29 65536
-858.29944 2657.4453 13270.561 65536
-787.1626 2683.8167 13402.252 65536
-712.44397 2702.5388 13495.746 65536
-636.01068 2718.6824 13576.362 65536
-559.71289 2740.1802 13683.716 65536
-478.99863 2743.6899 13701.244 65536
-400.03488 2760.7185 13786.28 65536
-320.71317 2783.4128 13899.609 65536
-239.94913 2804.9941 14007.38 65536
-157.57062 2820.6064 14085.344 65536
-74.211311 2834.1548 14153 65536
10.03217 2870.5852 14334.924 65536
95.378189 2875.0652 14357.296 65536
183.31923 2916.6008 14564.714 0
273.10254 2951.4014 14738.498 0
363.94839 2977.9937 14871.292 0
454.48996 2992.1897 14942.185 0
540.99622 2979.5212 14878.921 0
631.08771 2987.3838 14918.184 0
729.16858 3026.4692 15113.366 0
829.22675 3064.2883 15302.225 0
930.04199 3097.1531 15466.342 0
1024.576 3105.0696 15505.875 0
964.21552 2680.9961 13388.167 0
1206.1362 3097.9976 15470.56 0
1320.6144 3151.7708 15739.087 0
1431.5762 3190.5925 15932.954 0
1550.7917 3241.8513 16188.927 0
1666.9591 3281.1216 16385.031 0
1775.9385 3302.6892 16492.734 0
1880.0258 3313.3787 16546.115 0
2004.2164 3356.6748 16762.324 0
2128.5122 3396.0383 16958.895 0
2241.0369 3413.9104 17048.143 0
2360.7666 3440.738 17182.111 0
2504.7112 3499.1692 17473.902 0
2616.8484 3510.2815 17529.393 0
2743.4167 3539.1594 17673.602 0
2882.3677 3581.2925 17884.004 0
3009.3633 3606.103 18007.9 0
3127.6917 3619.1799 18073.203 0
3289.2266 3679.7246 18375.547 0
3380.5237 3660.3271 18278.68 0
3517.8528 3690.4272 18428.992 0
3779.804 3845.4976 19203.371 0
3847.8872 3800.0212 18976.275 0
0 0 0 0
0 0 0 0
0 0 0 0
0 0 0 0
4607.769 3968.8157 19819.189 0
4693.1914 3941.6294 19683.428 65536
4845.8203 3970.8367 19829.281 65536
4916.1035 3932.7827 19639.25 0
5032.7012 3932.6851 19638.762 0
5164.9604 3944.5527 19698.025 0
5296.2324 3955.1567 19750.98 65536
5446.3604 3979.0771 19870.432 65536
5551.8989 3970.0972 19825.588 65536
5678.626 3976.3269 19856.697 65536
5716.4092 3921.2898 19581.857 196608
4492.2832 3020.0886 15081.503 196608
6035.3369 3978.0833 19865.469 196608
0 0 0 0
6060.3901 3844.1914 19196.85 262144
6088.145 3790.4377 18928.418 262144
6133.9966 3749.6968 18724.969 393216
6206.4009 3726.3501 18608.383 393216
6332.2397 3735.3418 18653.283 458752
6471.5977 3751.8616 18735.779 393216
6572.4277 3745.8645 18705.83 262144
6873.1865 3852.1174 19236.43 196608
6807.687 3752.9805 18741.367 196608
6902.2842 3743.8738 18695.891 196608
7266.4932 3878.9795 19370.57 196608
7135.3193 3749.5505 18724.238 196608
7288.6943 3771.3293 18832.996 196608
7034.4463 3584.7258 17901.148 196608
7142.0527 3585.335 17904.191 196608
7198.8379 3560.7886 17781.613 196608
7456.0835 3634.6726 18150.568 196608
7416.4863 3563.8083 17796.691 262144
7532.3555 3568.592 17820.58 262144
7547.8896 3526.3667 17609.719 262144
7595.7241 3500.1807 17478.953 262144
7608.5952 3458.8071 17272.346 196608
7643.4668 3428.4036 17120.518 196608
7723.8457 3418.9421 17073.27 196608
7787.8833 3402.5869 16991.596 196608
7724.6494 3331.7559 16637.885 196608
7778.8599 3312.731 16542.879 196608
7806.061 3282.8218 16393.521 196608
7720.7305 3206.9084 16014.432 196608
7770.3291 3188.2068 15921.04 196608
7653.1865 3102.363 15492.359 196608
7913.0854 3169.5845 15828.044 196608
7729.312 3059.6013 15278.818 196608
6598.1411 2581.5054 12891.338 196608
6398.5166 2474.667 12357.815 196608
6467.0024 2472.7703 12348.344 196608
6527.4399 2467.873 12323.888 262144
7799.1743 2915.9656 14561.541 327680
7745.5083 2864.1189 14302.633 393216
7791.6567 2849.9065 14231.66 458752
7820.5654 2829.7612 14131.06 524288
7787.6338 2787.906 13922.046 524288
7767.5601 2751.4851 13740.17 524288
7773.7041 2725.0127 13607.975 524288
7794.6338 2704.2148 13504.115 524288
7793.2847 2676.1907 13364.171 655360
7820.0957 2658.3047 13274.853 655360
7876.5332 2650.7458 13237.106 589824
7861.9482 2619.6719 13081.931 589824
