# .PCD v0.7 - Point Cloud Data file format
VERSION 0.7
FIELDS x y z rgb
SIZE 4 4 4 4
TYPE F F F U
COUNT 1 1 1 1
WIDTH 1414
HEIGHT 1
VIEWPOINT 0 0 0 1 0 0 0
POINTS 1414
DATA ascii
4190.2236 4094.1384 11349.86 262144
4173.6494 4013.3357 11125.857 327680
4191.999 3968.1125 11000.488 393216
4180.6631 3896.6091 10802.266 458752
4269.2397 3918.9844 10864.295 393216
4128.6709 3733.4807 10350.037 327680
4249.7881 3786.5879 10497.262 131072
4262.6104 3743.0625 10376.601 0
4540.563 3930.2734 10895.591 131072
4757.5649 4060.2031 11255.784 131072
4955.1924 4170.2241 11560.787 131072
5202.8193 4318.7393 11972.504 196608
5400.146 4422.0571 12258.924 393728
5676.9688 4586.855 12715.779 1576960
5693.3599 4539.6646 12584.958 1773056
5809.1704 4571.9429 12674.44 720896
5800.6528 4506.7988 12493.848 655360
5859.7573 4495.1763 12461.627 589824
6017.0708 4558.2427 12636.46 655360
6097.8564 4562.4951 12648.248 655360
6075.5122 4490.4194 12448.439 720896
6066.811 4430.041 12281.058 851968
6133.1147 4425.2163 12267.682 851968
6216.1099 4432.4067 12287.615 655360
6327.4634 4459.416 12362.491 524288
6369.4551 4437.4829 12301.688 393216
6425.2544 4425.5571 12268.627 327680
6522.6523 4442.2305 12314.849 196608
6628.4883 4464.2163 12375.799 196608
6676.2329 4447.0244 12328.14 262144
6649.7495 4381.3003 12145.937 327680
6650.6504 4334.8364 12017.129 393216
6690.7427 4314.6328 11961.12 524288
6776.0938 4323.7329 11986.348 524288
6854.0488 4327.9741 11998.105 589824
6925.0928 4327.8086 11997.646 655360
6969.8433 4311.3813 11952.106 524288
6994.998 4283.2871 11874.224 458752
7196.8311 4362.8604 12094.817 458752
7196.1685 4319.3159 11974.103 458752
7056.1909 4193.8232 11626.209 458752
6992.7939 4115.8389 11410.019 458752
7216.5239 4206.7266 11661.98 458752
7170.0088 4139.8511 11476.586 65539
6983.2153 3994.0037 11072.265 1031
0 0 0 0
0 0 0 0
0 0 0 0
0 0 0 0
7258.3901 3964.5869 10990.715 262154
7120.8042 3854.7454 10686.21 196616
6623.6846 3553.939 9852.3076 7963272
7462.8843 3969.1233 11003.29 4406855
0 0 0 0
8719.0635 4557.3486 12633.982 65542
8679.0645 4497.708 12468.645 6
8973.0273 4610.6787 12781.825 5533551
8730.0459 4448.167 12331.307 3948866
8230.7344 4158.8428 11529.234 65540
7800.7827 3909.052 10836.76 4147018
9665.3896 4803.7637 13317.099 1647399
10121.466 4989.5776 13832.217 2898748
9470.2656 4630.9419 12837.998 2503475
9542.7129 4629.0728 12832.817 2175025
9529.0195 4585.7788 12712.796 529685
9378.918 4478.0361 12414.11 3029049
8759.6621 4149.7231 11503.953 4014401
8227.3955 3867.3855 10721.251 328708
8739.377 4076.4771 11300.899 196608
8840.1865 4092.051 11344.073 262144
8915.3193 4095.5928 11353.893 262144
9141.5127 4167.9565 11554.5 196608
9355.9053 4233.8999 11737.311 196608
8950.9229 4020.6516 11146.139 196608
8858.7812 3950.0291 10950.357 65536
8883.9023 3932.3411 10901.322 65536
8868.6387 3897.1626 10803.8 65536
8930.6562 3896.2058 10801.147 65536
8973.3516 3886.8931 10775.33 65536
8987.9238 3865.6169 10716.348 65536
8949.0352 3821.8088 10594.902 65536
8986.5742 3811.0247 10565.006 65536
8579.96 3613.3401 10016.98 0
8175.2305 3419.1687 9478.6943 0
8601.7295 3572.9246 9904.9404 0
8384.0684 3458.8428 9588.6797 65536
8537.7422 3498.4604 9698.5088 65536
11240.192 4574.9404 12682.751 0
8290.1953 3351.7664 9291.8408 0
8799.1514 3533.999 9797.0293 0
10499.491 4189.1836 11613.347 0
8355.0488 3311.8035 9181.0537 65536
8199.3477 3228.9973 8951.4971 0
0 0 0 0
0 0 0 0
0 0 0 0
4816.4912 1848.8054 5125.2988 196608
4951.7271 1888.7703 5236.0903 393216
5020.6475 1903.0988 5275.812 327680
5085.8799 1915.8601 5311.1895 393216
5147.4575 1927.0956 5342.3369 393216
5203.3354 1936.0726 5367.2231 393216
0 0 0 0
0 0 0 0
0 0 0 0
-6246.3037 2520.6028 6874.4053 0
-6199.605 2518.2295 6867.9331 0
-6152.186 2515.5308 6860.5728 0
-6109.437 2514.718 6858.3564 0
-6068.3892 2514.5996 6858.0332 0
-6035.8491 2518.0286 6867.3848 0
-6103.0913 2563.4146 6991.166 0
-6049.3247 2558.2488 6977.0771 0
-6263.9995 2667.3181 7274.541 0
-6241.5234 2676.2195 7298.8169 0
-6237.5249 2693.2231 7345.1904 0
-6193.6851 2693.1428 7344.9717 0
-6150.9429 2693.542 7346.0605 0
-5775.5894 2547.2527 6947.0874 0
-5763.6094 2560.2722 6982.5957 0
-6198.6357 2773.4866 7564.0923 0
-7035.7637 3171.0454 8648.3486 0
-7018.687 3186.6287 8690.8496 0
-6984.6519 3194.6865 8712.8252 0
-6923.9878 3190.5945 8701.665 0
-6920.9331 3213.187 8763.2812 0
-6864.9741 3211.3738 8758.3369 0
-6856.8369 3232.075 8814.7939 0
-6769.1187 3215.2935 8769.0264 0
-6712.8789 3213.3203 8763.6445 0
-6724.5239 3244.0652 8847.4951 0
-6696.4854 3256.0002 8880.0449 0
-6658.1309 3263.0679 8899.3213 0
-6540.6904 3231.1804 8812.3545 0
-6487.9961 3231.021 8811.9199 0
-6545.9712 3286.4216 8963.0127 0
-6448.2129 3263.9026 8901.5977 0
-6442.7554 3288.1182 8967.6396 0
-6396.7983 3291.8962 8977.9434 0
-6356.9741 3298.9202 8997.0996 0
-6264.4287 3278.4712 8941.3301 0
-5408.5693 2854.7766 7785.7939 0
-5302.7451 2823.0732 7699.3296 0
-5932.4839 3185.8252 8688.6582 0
-5920.3496 3207.2266 8747.0254 0
-6040.541 3301.3267 9003.6641 0
-6066.8271 3345.3284 9123.6689 0
-6049.7588 3366.002 9180.0508 0
-6016.2588 3377.8262 9212.2998 0
-5942.0796 3366.8184 9182.2783 0
-5112.4111 2923.574 7973.4238 0
-5021.7861 2898.6177 7905.3608 0
-4984.71 2904.3909 7921.106 0
-4980.2778 2929.4758 7989.5195 0
-4955.146 2942.7505 8025.7236 0
-4919.5122 2949.9856 8045.4556 0
-4874.9351 2951.9475 8050.8066 0
-4832.5718 2955.302 8059.9551 0
-4794.4019 2961.3135 8076.3506 0
-4762.0894 2971.1016 8103.0449 0
-4717.0845 2973.0898 8108.4673 0
-4676.3794 2977.8572 8121.4692 0
-4619.5928 2972.3762 8106.5215 0
-4596.6157 2988.7634 8151.2139 0
-4556.4575 2994.2095 8166.0669 0
-4509.6436 2995.3513 8169.1812 0
-4472.0532 3002.7119 8189.2554 0
-4420.9272 3001.0457 8184.7114 0
-4389.7324 3013.0227 8217.376 0
-4334.1675 3008.3542 8204.6436 0
-4295.1841 3015.2195 8223.3672 0
-4601.6172 3267.5166 8911.4531 0
-4560.6011 3276.0991 8934.8604 0
-4524.582 3288.5156 8968.7236 0
-4523.6724 3327.0503 9073.8193 0
-4479.1182 3334.0286 9092.8506 0
-4445.5127 3349.4263 9134.8447 0
-4399.7437 3355.9268 9152.5732 0
-4353.9536 3362.574 9170.7021 0
-4310.0771 3370.8862 9193.3721 0
-4272.3433 3384.2776 9229.8945 0
-4221.0776 3387.1592 9237.7529 0
-4170.3691 3390.5693 9247.0537 0
-4134.709 3406.4683 9290.415 0
-4083.825 3410.0859 9300.2812 0
-4034.2869 3414.9417 9313.5244 0
-3984.9526 3420.1079 9327.6143 0
-3935.3501 3425.1865 9341.4648 0
-3885.8411 3430.4924 9355.9355 0
-3834.2769 3434.1123 9365.8076 0
-3776.5134 3432.2043 9360.6045 0
-3727.7896 3438.5776 9377.9863 0
-3672.9604 3439.4275 9380.3037 0
-3619.5208 3441.6245 9386.2959 0
-3577.6785 3455.0903 9423.0215 0
-3533.4482 3466.6421 9454.5254 0
-3489.7874 3479.1343 9488.5957 0
-3443.6016 3489.4785 9516.8076 0
-3391.1562 3493.7195 9528.374 0
-3350.2041 3510.1462 9573.1738 0
-3302.5701 3520.0186 9600.0986 0
-3243.5842 3517.9265 9594.3926 0
-3200.4429 3533.2512 9636.1885 0
-3153.1428 3544.4597 9666.7568 0
-3102.1086 3551.8091 9686.8008 0
-3050.75 3559.0576 9706.5693 0
-2998.0662 3565.0095 9722.8027 0
-2948.7458 3575.2742 9750.7969 0
-2896.3496 3582.146 9769.5381 0
-2847.175 3593.3645 9800.1348 0
-2794.144 3600.0835 9818.459 0
-2744.1819 3611.1274 9848.5781 0
-2700.1062 3630.5674 9901.5967 0
-2651.1392 3644.1501 9938.6406 0
-2596.2783 3650.0659 9954.7754 0
-2546.4075 3663.4363 9991.2402 0
-2494.2971 3674.1467 10020.451 0
-2438.2239 3679.4009 10034.78 0
-2381.3118 3683.6208 10046.289 0
-2325.3115 3689.5044 10062.336 0
-2273.4866 3702.4993 10097.775 0
-2222.0649 3716.8728 10136.977 0
-2171.627 3733.7383 10182.974 0
-2114.4214 3739.6021 10198.966 0
-2060.4995 3751.7908 10232.208 0
-2005.5266 3762.7488 10262.094 0
-1950.092 3773.5015 10291.419 0
-1893.8833 3783.4031 10318.424 0
-1842.1199 3803.1458 10372.268 0
-1790.0272 3823.5518 10427.921 0
-1735.3119 3839.6184 10471.739 0
-1681.0426 3857.9043 10521.61 0
-1632.0315 3890.137 10609.518 0
-1575.1127 3905.3533 10651.018 0
-1520.873 3928.7654 10714.868 0
-1469.678 3962.4319 10806.687 0
-1412.2968 3981.7346 10859.331 0
-1359.3127 4015.8777 10952.448 0
-1301.6432 4038.9155 11015.279 0
-1240.7635 4053.9058 11056.162 0
-1186.7881 4094.3918 11166.579 0
-1127.9407 4121.8701 11241.521 0
-1072.4908 4166.0063 11361.894 0
-1016.9445 4215.6738 11497.351 0
-964.49066 4286.2402 11689.806 0
-921.44867 4412.8364 12035.068 0
-837.10632 4346.3057 11853.621 0
-767.8078 4352.8354 11871.429 0
-739.40802 4616.0093 12589.181 0
-640.3996 4448.0176 12131.018 0
-564.06512 4414.8657 12040.603 65536
-494.38419 4431.7227 12086.577 65536
-425.81656 4465.9878 12180.028 196608
-354.32333 4477.3213 12210.938 196608
-283.22089 4500.7026 12274.705 196608
-210.67259 4509.3608 12298.319 196608
-135.88057 4453.6787 12146.457 262144
-63.629875 4449.4746 12134.992 262144
8.5876904 4499.312 12270.912 262144
81.934364 4522.2949 12333.594 262144
157.30719 4582.5981 12498.058 196608
239.45399 4738.2593 12922.591 196608
319.94183 4793.4604 13073.14 196608
397.4632 4791.3291 13067.326 196608
464.2428 4681.5708 12767.985 196608
542.7832 4704.5908 12830.768 196608
619.59198 4708.7793 12842.189 131072
712.11633 4818.3848 13141.116 131072
804.79211 4907.248 13383.471 131072
887.80237 4926.4902 13435.95 131072
955.24255 4863.2866 13263.576 131072
1049.1105 4934.0112 13456.462 131072
1171.3938 5118.8887 13960.676 65536
1259.4368 5139.5781 14017.102 131072
1356.3132 5191.5122 14158.74 65536
1424.4341 5133.7407 14001.182 0
1508.0459 5135.0957 14004.877 0
1642.2346 5299.522 14453.314 0
1722.542 5282.3687 14406.532 0
1797.6183 5251.5576 14322.501 65536
1882.6569 5251.3203 14321.854 0
1954.328 5215.4307 14223.974 0
2037.0671 5210.8291 14211.424 0
2122.9512 5214.3188 14220.94 0
2214.5784 5231.1064 14266.726 0
2298.0576 5228.1201 14258.581 0
2389.4258 5242.6548 14298.222 0
2447.1814 5184.9746 14140.911 0
2556.9382 5237.644 14284.556 0
2620.562 5195.4663 14169.525 0
2667.6069 5124.0693 13974.805 65536
2743.5095 5110.7412 13938.456 65536
2817.5569 5094.8408 13895.09 65536
2891.6687 5079.958 13854.501 65536
2993.4917 5113.2344 13945.254 65536
3076.6934 5113.7661 13946.705 65536
3190.2073 5163.3311 14081.883 65536
3299.4595 5203.6396 14191.815 65536
3365.75 5175.873 14116.088 0
3450.6433 5177.3677 14120.165 0
3521.5366 5158.2852 14068.121 65536
3599.6995 5150.4888 14046.857 0
3667.5698 5128.6533 13987.307 0
3701.1423 5060.8872 13802.488 0
3729.4375 4988.9995 13606.432 0
3788.6685 4960.6699 13529.168 0
3879.6936 4974.2827 13566.293 657415
3796.3904 4768.3784 13004.733 131072
3812.1543 4692.6392 12798.172 131072
3943.4644 4759.3149 12980.016 591877
4114.8936 4870.9229 13284.402 526341
4153.9893 4824.6294 13158.146 329476
4052.5586 4619.8501 12599.654 197634
4101.7241 4591.0625 12521.144 197635
4124.417 4534.1992 12366.061 197893
4179.437 4514.2437 12311.636 66307
4167.1855 4423.5645 12064.327 67077
4166.4541 4347.9746 11858.173 395783
4114.77 4222.6118 11516.271 658955
4021.4385 4059.3115 11070.905 724748
4040.7581 4013.1504 10945.011 659212
4013.0969 3922.5315 10697.867 395784
4035.6582 3883.0627 10590.225 592392
3951.9106 3744.0876 10211.2 394499
3970.6946 3704.9873 10104.562 65536
4031.4087 3705.593 10106.214 262916
4208.0454 3811.1707 10394.154 2830126
4254.5112 3797.5054 10356.885 2042155
4519.1831 3976.2185 10844.287 2371634
4782.4497 4148.6875 11314.659 2767162
4987.8267 4266.8511 11636.925 2635830
5298.311 4470.4673 12192.245 2700078
5564.5508 4631.7617 12632.141 1710868
5695.9639 4678.0293 12758.326 656640
5767.1279 4674.25 12748.019 589824
5722.7588 4578.1436 12485.908 655360
5778.7583 4563.7632 12446.689 720896
5856.519 4566.7148 12454.74 589824
6044.4956 4654.4634 12694.055 458752
6184.3027 4703.4136 12827.556 656644
6031.3188 4531.2036 12357.89 722178
6078.8223 4511.9468 12305.371 196608
6153.0493 4512.7476 12307.556 328451
6231.5562 4516.6313 12318.148 394758
6315.4956 4524.3174 12339.109 131842
6446.3921 4565.0801 12450.28 0
6403.7632 4483.4277 12227.592 0
6500.0337 4499.7637 12272.145 0
6593.6191 4513.8984 12310.694 0
6649.7075 4502.3354 12279.159 0
6655.2007 4457.1392 12155.895 0
6639.1294 4398.6255 11996.312 262144
6579.9902 4313.1245 11763.126 393216
6672.6445 4327.8755 11803.355 458752
6771.2549 4346.1416 11853.173 524288
6849.3999 4351.0312 11866.508 655360
6888.249 4331.1138 11812.188 655360
6896.3364 4292.4507 11706.742 720896
6964.5566 4291.6143 11704.462 720896
6979.7969 4258.4707 11614.07 720896
6958.917 4204.1553 11465.935 655360
7016.5073 4197.8394 11448.711 524288
6951.9619 4119.2759 11234.445 393216
7096.1694 4164.7241 11358.396 853256
6999.9512 4069.5398 11098.801 524806
6682.8872 3848.9387 10497.158 196611
7063.2397 4030.373 10991.981 327686
7172.3833 4055.145 11059.542 524294
7116.4058 3986.958 10873.577 524295
7181.835 3987.4043 10874.794 655365
7222.6357 3974.2905 10839.029 655364
6895.3979 3760.6846 10256.464 524292
7360.7964 3979.3293 10852.771 393220
8089.3413 4335.2002 11823.333 65540
8373.6504 4448.9189 12133.477 65542
8423.8145 4437.3569 12101.943 131591
8595.4062 4489.4131 12243.915 4344655
8235.8486 4265.5024 11633.246 3223603
7790.0254 4001.0134 10911.909 196613
7830.9536 3988.8264 10878.673 2107433
9115.5098 4605.1152 12559.468 2897468
10439.741 5231.2725 14267.179 3621963
11744.548 5837.6855 15921.041 3753807
12230.229 6030.5093 16446.926 1912375
12356.002 6044.2178 16484.312 3162442
0 0 0 0
9045.4834 4355.728 11879.318 6254194
8480.9268 4052.2446 11051.632 591368
8613.3564 4083.8914 11137.941 196608
8697.3633 4092.2712 11160.796 196608
8860.1543 4137.313 11283.639 196608
8943.2539 4144.7456 11303.909 131072
9084.3506 4178.7456 11396.637 196608
9076.458 4144.2153 11302.462 131072
9013.5312 4085.2488 11141.644 65536
9048.124 4071.0193 11102.836 65536
9084.3535 4057.7271 11066.584 65536
9030.2422 4004.5635 10921.592 0
9098.0498 4005.8389 10925.07 0
9171.8662 4009.7229 10935.663 0
9133.6719 3964.9292 10813.497 0
9213.0322 3971.4343 10831.239 197379
8938.3281 3826.2832 10435.37 0
8801.9775 3741.9504 10205.37 0
8985.4902 3793.8235 10346.844 0
8833.5059 3704.3015 10102.691 0
8755.4062 3646.7625 9945.7656 0
11151.99 4613.8276 12583.229 0
8943.1807 3675.3462 10023.722 0
8908.5918 3636.9043 9918.8799 0
8938.1514 3624.9846 9886.3711 65536
0 0 0 0
8144.6313 3260.2961 8891.7617 65536
0 0 0 0
0 0 0 0
0 0 0 0
4777.7764 1864.1614 5084.1021 196608
4918.0278 1906.8243 5200.4561 327680
4978.2012 1918.1002 5231.2085 393216
5033.2256 1927.2644 5256.2021 393216
5090.749 1937.2667 5283.4814 393216
5143.9521 1945.5126 5305.9697 393216
0 0 0 0
0 0 0 0
0 0 0 0
-6274.4814 2573.0142 6905.4155 0
-6184.7734 2552.926 6851.5029 0
-6134.7139 2549.0457 6841.0889 0
-6089.1182 2546.9805 6835.5469 0
-6054.5176 2549.5181 6842.3564 0
-6011.5576 2548.5457 6839.7471 0
-5953.1357 2540.9604 6819.3901 0
-5922.5532 2545.2354 6830.8633 0
-5871.4556 2540.6921 6818.6699 0
-6148.4287 2679.0349 7189.9521 0
-5816.0073 2551.926 6848.8198 0
-6054.312 2675.2119 7179.6919 0
-5952.0791 2648.7065 7108.5576 0
-5663.7104 2538.3989 6812.5156 0
-5714.502 2579.604 6923.1016 0
-6110.0894 2778.1816 7456.0405 0
-6928.1333 3173.1497 8516.0498 0
-6918.8105 3192.2002 8567.1777 0
-6898.6987 3206.5193 8605.6064 0
-6869.8135 3216.9431 8633.582 0
-6878.9048 3245.4412 8710.0645 0
-6813.1406 3238.7876 8692.208 0
-6798.0386 3256.2996 8739.2061 0
-6721.4097 3244.3826 8707.2227 0
-6676.1743 3247.5513 8715.7275 0
-6654.4727 3262.3071 8755.3291 0
-6620.3052 3271.1357 8779.0234 0
-6552.6343 3263.4194 8758.3145 0
-6499.3086 3262.7805 8756.5996 0
-6492.2725 3285.5576 8817.7285 0
-6506.3545 3319.4795 8908.7676 0
-6399.874 3291.9436 8834.8672 0
-6383.7173 3310.7966 8885.4648 0
-6328.6216 3309.6013 8882.2568 0
-6301.7754 3323.283 8918.9756 0
-5943.2568 3160.8037 8482.916 0
-5320.6182 2853.8752 7659.1855 0
-5288.1406 2860.9319 7678.1245 0
-5289.96 2886.8281 7747.624 0
-5215.7446 2871.321 7706.0063 0
-5388.3818 2992.6377 8031.5947 0
-6049.4736 3389.8296 9097.5713 0
-6032.5112 3410.8098 9153.8789 0
-5699.5137 3251.8589 8727.2881 0
-5524.1831 3180.7712 8536.5039 0
-5284.4067 3070.9143 8241.6719 0
-4960.7158 2909.7803 7809.2231 0
-4937.6479 2923.603 7846.3203 0
-4919.0664 2940.3708 7891.3218 0
-4889.1924 2950.6467 7918.8999 0
-4843.3901 2951.416 7920.9644 0
-4806.1309 2957.4575 7937.1782 0
-4768.7979 2963.5728 7953.5903 0
-4724.1045 2965.1907 7957.9326 0
-4690.9668 2974.168 7982.0254 0
-4668.2725 2990.0173 8024.562 0
-4622.7319 2991.4099 8028.2993 0
-4579.5312 2994.3618 8036.2217 0
-4552.873 3008.3059 8073.6445 0
-4522.0479 3019.7646 8104.3975 0
-4476.4351 3021.4885 8109.0244 0
-4427.4404 3020.9434 8107.5605 0
-4382.0273 3022.8562 8112.6943 0
-4701.2202 3279.1262 8800.4678 0
-4667.0879 3291.9436 8834.8672 0
-4632.2456 3304.5466 8868.6904 0
-4620.3589 3334.0039 8947.748 0
-4570.5688 3336.4783 8954.3887 0
-4528.0898 3344.4104 8975.6768 0
-4494.1865 3358.9419 9014.6758 0
-4457.0278 3371.3608 9048.0059 0
-4413.9917 3379.584 9070.0742 0
-4375.2393 3391.3298 9101.5986 0
-4328.2256 3396.8867 9116.5117 0
-4284.5923 3405.2708 9139.0127 0
-4241.751 3414.5078 9163.8027 0
-4190.856 3417.4182 9171.6133 0
-4141.1846 3421.4153 9182.3418 0
-4099.8164 3432.4714 9212.0137 0
-4050.9014 3437.4231 9225.3027 0
-4006.2458 3446.1743 9248.7891 0
-3952.8972 3447.5876 9252.582 0
-3900.5076 3449.8889 9258.7578 0
-3852.3306 3456.0349 9275.2529 0
-3796.5427 3455.4326 9273.6357 0
-3751.5117 3464.7468 9298.6338 0
-3707.4805 3475.2769 9326.8945 0
-3655.5034 3478.5659 9335.7207 0
-3600.4797 3479.012 9336.918 0
-3559.1372 3492.8987 9374.1865 0
-3514.0542 3503.4978 9402.6328 0
-3474.9255 3520.4719 9448.1875 0
-3423.1194 3524.9485 9460.2021 0
-3373.7683 3532.1458 9479.5176 0
-3327.7312 3543.1155 9508.958 0
-3287.3291 3560.5676 9555.7959 0
-3232.2239 3562.428 9560.7891 0
-3183.896 3571.9587 9586.3672 0
-3141.3245 3588.4124 9630.5254 0
-3090.0039 3595.2969 9649.002 0
-3037.7053 3601.2822 9665.0654 0
-2982.5398 3604.0344 9672.4512 0
-2935.0491 3616.3503 9705.5049 0
-2885.1282 3626.1064 9731.6875 0
-2832.6836 3633.0244 9750.2549 0
-2780.1387 3640.1003 9769.2451 0
-2727.4778 3647.323 9788.6289 0
-2679.5371 3661.3101 9826.167 0
-2629.0732 3672.3962 9855.9199 0
-2575.5774 3679.6555 9875.4023 0
-2521.1968 3685.96 9892.3223 0
-2467.4573 3693.5254 9912.626 0
-2417.2827 3706.9277 9948.5947 0
-2357.4438 3705.8101 9945.5957 0
-2297.0896 3703.8042 9940.2119 0
-2245.7656 3716.637 9974.6523 0
-2201.5103 3742.1807 10043.206 0
-2150.8408 3757.9417 10085.506 0
-2094.824 3764.9961 10104.438 0
-2046.7019 3787.0742 10163.69 0
-1993.8835 3801.5413 10202.518 0
-1937.0516 3809.0237 10222.599 0
-1882.3328 3821.2808 10255.493 0
-1829.0073 3837.2812 10298.436 0
-1778.1132 3859.6672 10358.515 0
-1721.9709 3871.8586 10391.233 0
-1667.2104 3888.1794 10435.035 0
-1620.3199 3924.8245 10533.383 0
-1565.2958 3943.9211 10584.635 0
-1508.1027 3958.9241 10624.898 0
-1452.5952 3979.8557 10681.075 0
-1396.908 4002.186 10741.005 0
-1336.52 4012.5422 10768.799 0
-1275.6129 4022.3035 10794.996 0
-1213.9009 4030.4263 10816.795 0
-1156.392 4054.1926 10880.579 0
-1097.7391 4076.5269 10940.52 0
-1044.5085 4123.0771 11065.45 0
-992.20709 4179.7974 11217.675 0
-939.383 4242.3286 11385.496 0
-879.81732 4281.7598 11491.32 0
-824.43091 4349.8784 11674.136 0
-751.82617 4331.3198 11624.329 0
-691.22632 4385.165 11768.838 256
-660.13464 4659.4116 12504.856 1250324
-589.06903 4685.3013 12574.339 789516
-503.70355 4588.4512 12314.414 328965
-420.89166 4485.8882 12039.157 0
-349.87305 4492.748 12057.567 0
-278.50797 4497.5479 12070.449 196608
-206.54886 4492.7563 12057.59 196608
-133.40089 4443.2764 11924.797 196608
-62.601791 4448.5405 11938.924 196608
8.4168348 4481.2759 12026.778 262144
80.162209 4496.2002 12066.832 262144
153.87482 4555.2676 12225.355 196608
235.53676 4736.293 12711.189 196608
314.12747 4782.6343 12835.56 196608
390.24921 4780.6196 12830.153 196608
454.82825 4660.9771 12509.059 196608
529.83197 4666.7734 12524.614 196608
605.82404 4678.7749 12556.823 196608
696.81055 4791.2446 12858.668 131072
780.5719 4836.7129 12980.695 131072
860.66608 4853.3223 13025.271 131072
924.78967 4784.5635 12840.737 131072
1013.3547 4843.1011 12997.839 65536
1124.5985 4994.0557 13402.969 65536
1215.1436 5039.2026 13524.134 65536
1305.296 5077.2197 13626.163 65536
1392.4745 5099.9033 13687.041 65536
1481.4098 5126.1621 13757.514 65536
1570.7471 5150.9917 13824.152 0
1702.4784 5305.4663 14238.729 0
1753.3094 5205.1387 13969.471 0
1839.8765 5215.1777 13996.413 0
1909.9409 5179.5947 13900.915 256
1977.3219 5139.9868 13794.616 256
2066.5967 5158.1787 13843.439 256
2149.5063 5159.6992 13847.521 256
2232.6143 5161.5654 13852.529 256
2316.2354 5164.4434 13860.253 0
2364.7673 5091.5732 13664.686 0
2465.7144 5132.6499 13774.926 0
2515.5125 5068.0361 13601.517 0
2550.2478 4978.043 13359.995 0
2616.7585 4953.6377 13294.496 0
2682.3542 4928.981 13228.322 0
2759.0015 4925.4585 13218.868 0
2854.4924 4954.8398 13297.722 0
2951.5015 4985.2021 13379.208 66050
3077.6721 5061.9341 13585.141 770
3190.3147 5113.062 13722.356 132614
3242.4219 5067.0405 13598.844 396813
3298.1409 5028.7637 13496.118 1121309
3285.9209 4891.1763 13126.863 1845546
3361.009 4886.917 13115.433 2042927
3397.9504 4828.6431 12959.037 1714989
3468.5378 4819.7041 12935.048 2372920
3532.3359 4801.9243 12887.33 2503993
3546.4636 4718.8091 12664.267 2700855
3591.425 4679.3218 12558.291 2765107
3450.0024 4403.5444 11818.164 2
3608.9724 4514.5391 12116.05 259
3703.3513 4541.9736 12189.678 3160896
3878.1165 4665.0532 12519.997 2503997
4026.6699 4752.562 12754.852 2899270
4166.3438 4826.5498 12953.42 3030858
4283.5537 4872.3013 13076.207 1978427
4397.7437 4913.0488 13185.563 2636614
4435.2822 4868.2354 13065.295 2702406
4402.2319 4748.8184 12744.805 3492178
4475.9062 4746.6206 12738.906 3491665
4503.6333 4696.5801 12604.608 3623250
4337.8154 4449.6421 11941.881 3557457
4228.251 4267.4307 11452.863 3820115
3923.9688 3897.5835 10460.274 3030599
3778.7285 3694.7822 9915.999 2701375
3650.5725 3514.6575 9432.583 4147021
3689.0083 3497.9448 9387.7305 4
3743.3936 3496.6284 9384.1973 3
3745.7671 3447.481 9252.2959 3488321
4065.9756 3688.0483 9897.9268 3687758
4429.1558 3960.1748 10628.256 3557457
4835.0981 4262.3462 11439.218 3491665
4994.5518 4341.8599 11652.615 3360590
5414.2822 4642.3672 12459.112 4346710
5625.7104 4758.5713 12770.979 5198675
5692.0308 4750.5737 12749.517 327680
5677.4111 4676.1221 12549.703 327680
5714.7744 4645.8608 12468.488 262144
5815.7832 4667.4526 12526.437 131072
5943.8413 4709.9331 12640.444 658186
5978.3149 4678.1211 12555.068 2502190
6037.1162 4665.896 12522.26 3620931
6141.2124 4688.5493 12583.056 1710103
6096.2773 4598.248 12340.706 1
6295.9941 4692.4331 12593.479 330249
6480.2407 4773.0107 12809.732 2963514
6672.9995 4857.9146 13037.595 3227204
6642.5737 4780.2559 12829.177 3293510
6689.9888 4759.7417 12774.121 3359303
6760.144 4755.686 12763.236 3096130
6924.1304 4816.9966 12927.78 2899008
6564.4424 4516.6484 12121.71 3293508
6938.1025 4721.9224 12672.621 3621444
6917.6709 4657.457 12499.61 3224116
6510.2139 4336.5581 11638.387 262144
6546.7588 4315.0532 11580.673 458752
6677.2075 4355.2466 11688.542 458752
6754.5073 4360.3013 11702.108 2367775
6682.1636 4269.6367 11458.785 1709846
6603.2671 4176.6572 11209.248 854281
6846.8408 4287.4653 11506.632 524288
6658.9497 4128.5708 11080.194 720896
6696.0562 4110.9224 11032.829 851968
6750.376 4104.0815 11014.47 851968
6804.0371 4096.9756 10995.398 655360
6891.1919 4109.98 11030.301 524288
6787.1519 4009.7839 10761.396 393216
6875.9775 4024.3376 10800.455 262145
6957.6279 4034.4622 10827.627 262145
6951.5615 3994.0029 10719.043 2037275
6896.1216 3926.1692 10536.992 1182479
7125.9575 4020.5105 10790.184 524290
7176.9268 4013.1519 10770.435 655362
7254.3574 4020.5886 10790.393 655362
7367.2031 4047.3511 10862.218 589825
7631.1143 4155.9194 11153.592 458755
7840.0044 4232.9111 11360.221 393219
7755.3369 4151.4458 11141.586 196610
7802.479 4141.3208 11114.412 131074
8146.8833 4287.8193 11507.582 197123
7770.731 4055.7961 10884.883 4
7542.7705 3904.3123 10478.332 2
8955.7305 4597.7319 12339.321 592654
9306.1416 4738.8223 12717.978 461066
10365.313 5235.6421 14051.335 921875
11344.031 5684.2075 15255.188 3620163
11174.416 5554.8208 14907.942 6779767
9563.3604 4716.5645 12658.242 5858152
8874.6201 4342.7207 11654.927 5727336
8707.1904 4227.7915 11346.48 1315352
8539.9082 4114.6992 11042.966 65539
8723.3281 4171.0186 11194.115 196608
8939.8457 4242.1919 11385.128 262144
9044.7852 4259.7461 11432.24 65536
9220.4873 4310.1172 11567.425 65536
9276.7646 4304.3296 11551.894 65536
9250.7227 4260.7139 11434.837 65536
9301.0693 4252.6602 11413.223 0
9301.7832 4222.1934 11331.457 0
9305.5996 4193.5635 11254.62 256
9373.9453 4194.2153 11256.369 256
9561.2852 4247.7217 11399.969 131842
10188.184 4494.3809 12061.949 1381910
10287.022 4506.2744 12093.869 1184275
9675.9629 4209.1865 11296.549 66051
9636.8926 4163.3018 11173.404 0
8884.833 3812.1301 10230.936 0
8640.2988 3682.0115 9881.7246 0
8704.9375 3684.512 9888.4365 0
9591.0371 4032.3447 10821.944 0
8178.2612 3415.469 9166.3828 0
8117.9956 3367.8655 9038.625 0
7416.1885 3056.4851 8202.9473 65536
8567.0039 3507.7195 9413.9629 65536
8220.6455 3344.0647 8974.749 65536
0 0 0 0
0 0 0 0
0 0 0 0
0 0 0 0
4878.1328 1922.0134 5158.27 262144
4930.6646 1930.5782 5181.2559 262144
4989.4307 1941.4626 5210.4673 393216
5049.4429 1952.6945 5240.6113 327680
5106.3633 1962.6006 5267.1968 393216
0 0 0 0
0 0 0 0
0 0 0 0
-6206.5361 2585.7483 6830.6382 0
-6194.0186 2597.5239 6861.7446 0
-6108.062 2578.4536 6811.3682 0
-6070.3403 2579.627 6814.4673 0
-6037.3179 2582.8262 6822.9185 0
-5993.2388 2581.3064 6818.9043 0
-6143.251 2663.9312 7037.1699 0
-6205.4878 2709.3652 7157.1904 0
-6246.4219 2746.0613 7254.1284 0
-6113.2095 2706.1763 7148.7666 0
-6166.1675 2748.7236 7261.1616 0
-6084.3159 2731.3525 7215.2729 0
-5822.9199 2632.562 6954.3027 0
-5700.6997 2595.7305 6857.0073 0
-5663.2959 2597.2668 6861.0659 0
-6068.2349 2803.1611 7404.9663 0
-6659.1226 3098.5886 8185.3818 0
-6854.0669 3212.7703 8487.0088 0
-6650.4775 3140.4517 8295.9688 0
-6819.8525 3244.4868 8570.7939 0
-6817.106 3267.5867 8631.8154 0
-6782.3477 3275.5764 8652.9219 0
-6747.9521 3283.8647 8674.8164 0
-6668.2285 3270.0525 8638.3291 0
-6661.1333 3291.9185 8696.0908 0
-6609.0391 3291.7139 8695.5508 0
-6580.7031 3303.4329 8726.5088 0
-6531.0986 3304.5767 8729.5293 0
-6481.0771 3305.5256 8732.0371 0
-6510.7173 3347.4478 8842.7803 0
-6470.8369 3354.0178 8860.1357 0
-6385.1406 3336.7532 8814.5283 0
-6363.3813 3352.8911 8857.1602 0
-6299.8247 3347.092 8841.8398 0
-6265.2305 3356.7122 8867.2529 0
-5318.8403 2873.8401 7591.6753 0
-5284.1489 2879.5229 7606.687 0
-5750.4653 3160.6772 8349.3975 0
-5254.043 2912.9614 7695.02 0
-5170.8037 2891.9851 7639.6079 0
-5138.5488 2899.405 7659.2085 0
-6027.9692 3431.657 9065.2314 0
-5923.7759 3402.7549 8988.8818 0
-5934.2993 3439.822 9086.7998 0
-5215.46 3050.9116 8059.4355 0
-5382.5415 3177.8357 8394.7246 0
-4976.5903 2965.6533 7834.2134 0
-4924.4795 2962.3149 7825.3945 0
-4887.981 2968.3943 7841.4541 0
-4866.9365 2984.0659 7882.8525 0
-4830.4307 2990.47 7899.77 0
-4787.5425 2993.0103 7906.4805 0
-4750.1699 2999.0828 7922.5225 0
-4709.3447 3003.0752 7933.0688 0
-4672.5566 3009.7493 7950.6992 0
-4653.7642 3028.2695 7999.623 0
-4601.6587 3025.2708 7991.7012 0
-4570.6738 3036.2397 8020.6777 0
-4536.4937 3045.2952 8044.5996 0
-4489.9082 3046.1272 8046.7969 0
-4443.1362 3046.8494 8048.7046 0
-4404.3394 3053.1155 8065.2573 0
-4373.8369 3065.3323 8097.5303 0
-4670.0381 3309.3335 8742.0957 0
-4685.269 3357.481 8869.2842 0
-4645.4219 3366.8057 8893.917 0
-4603.3833 3374.7385 8914.873 0
-4552.1763 3376.0566 8918.3545 0
-4506.3364 3381.4331 8932.5576 0
-4472.6157 3396.1401 8971.4082 0
-4435.2993 3408.4385 9003.8965 0
-4389.2202 3414.2209 9019.1719 0
-4352.9121 3427.8416 9055.1523 0
-4301.0518 3429.4026 9059.2754 0
-4249.9561 3431.6201 9065.1338 0
-4214.1196 3446.3745 9104.1094 0
-4158.4517 3445.0825 9100.6973 0
-4110.6528 3450.3621 9114.6436 0
-4071.7878 3463.3813 9149.0361 0
-4021.8276 3467.188 9159.0918 0
-3976.825 3475.4319 9180.8691 0
-3921.3447 3474.6208 9178.7266 0
-3871.4863 3478.8389 9189.8691 0
-3823.6699 3485.0386 9206.2461 0
-3781.4565 3496.5994 9236.7861 0
-3735.5498 3505.0349 9259.0703 0
-3699.9729 3523.5603 9308.0078 0
-3647.8657 3526.6672 9316.2148 0
-3589.4768 3523.7029 9308.3848 0
-3540.2979 3529.8291 9324.5674 0
-3504.5989 3549.8035 9377.333 0
-3461.0969 3562.3923 9410.5879 0
-3404.6562 3561.8584 9409.1777 0
-3356.8848 3570.5276 9432.0781 0
-3308.2195 3578.5244 9453.2031 0
-3271.8889 3600.3711 9510.9141 0
-3214.1104 3598.9688 9507.21 0
-3170.6169 3613.7988 9546.3857 0
-3125.4124 3627.1829 9581.7422 0
-3078.8311 3639.437 9614.1133 0
-3027.5034 3646.4377 9632.6064 0
-2969.2466 3645.2017 9629.3408 0
-2921.2827 3656.8013 9659.9834 0
-2872.2207 3667.4639 9688.1504 0
-2819.8206 3674.2134 9705.9795 0
-2770.5464 3685.4028 9735.5381 0
-2721.0457 3696.7617 9765.5449 0
-2670.8833 3707.6975 9794.4326 0
-2615.7759 3712.1028 9806.0703 0
-2566.5173 3725.1982 9840.6641 0
-2512.1074 3731.2532 9856.6592 0
-2456.5044 3735.783 9868.625 0
-2404.916 3746.7886 9897.6982 0
-2349.824 3752.7512 9913.4492 0
-2288.3035 3748.4895 9902.1914 0
-2231.7681 3752.3848 9912.4814 65536
-2181.3213 3767.0061 9951.1055 0
-2137.4727 3794.1541 10022.821 0
-2085.6536 3808.3052 10060.203 0
-2038.7085 3832.4541 10123.996 0
-1982.0844 3839.3235 10142.143 0
-1924.2246 3844.1548 10154.905 0
-1869.7412 3856.2629 10186.891 0
-1816.9609 3872.8118 10230.606 0
-1764.8109 3891.8962 10281.021 0
-1711.9135 3910.6421 10330.542 0
-1659.0773 3930.928 10384.13 0
-1611.8938 3966.6924 10478.606 0
-1558.1633 3988.5718 10536.404 0
-1500.0166 4000.5059 10567.93 0
-1443.1398 4017.0176 10611.549 0
-1388.3033 4040.9778 10674.843 0
-1337.3405 4079.0481 10775.41 0
-1278.4673 4095.6062 10819.151 0
-1214.7046 4097.4253 10823.957 0
-1153.8766 4109.9004 10856.911 0
-1102.3873 4159.0864 10986.845 0
-1046.8002 4198.0332 11089.729 0
-991.13208 4241.8672 11205.521 0
-934.35797 4286.9414 11324.592 65536
-874.17987 4322.1831 11417.688 65536
-893.03046 4786.9814 12645.521 0
-751.64423 4399.3423 11621.516 0
-682.12311 4396.439 11613.846 0
-634.33356 4548.7158 12016.108 1
-588.33881 4754.1348 12558.752 2303013
-513.23535 4749.855 12547.446 0
-425.28207 4604.9805 12164.739 65536
-362.50778 4729.2422 12492.995 65536
-279.09018 4578.8389 12095.682 131072
-201.79132 4459.2847 11779.862 131072
-131.52502 4450.6724 11757.111 131072
-61.837219 4464.2998 11793.11 131072
8.3171129 4498.8145 11884.286 131072
78.676041 4483.2305 11843.118 131072
151.00334 4541.5645 11997.217 65536
231.14203 4722.0586 12474.019 0
309.28009 4783.9409 12637.49 0
383.92999 4778.228 12622.398 0
445.27057 4635.8159 12246.195 0
518.38141 4638.7461 12253.937 0
593.21124 4654.4424 12295.399 0
682.23468 4765.8467 12589.69 256
761.40485 4793.2012 12661.952 0
838.62567 4804.4668 12691.712 0
908.63428 4775.9648 12616.419 0
993.08826 4821.9478 12737.891 0
1105.752 4988.6865 13178.356 65536
1182.7245 4982.9941 13163.319 65536
1338.7458 5290.3906 13975.352 65536
1354.1431 5038.623 13310.271 65536
1430.818 5030.0713 13287.68 0
1514.0968 5044.416 13325.573 0
1665.2749 5272.3052 13927.577 0
1756.2847 5297.1382 13993.176 256
1828.1506 5264.5957 13907.211 256
1839.8833 5069.1919 13391.022 256
1917.7245 5064.5801 13378.84 256
2006.2262 5087.3682 13439.039 0
2090.9673 5099.2402 13470.399 0
2176.0652 5111.0752 13501.664 0
2261.886 5123.7051 13535.028 0
2309.6179 5052.1514 13346.008 0
2413.6536 5104.4204 13484.085 513
2437.2917 4988.7686 13178.573 1025
2485.2676 4928.5825 13019.583 658957
2551.2864 4906.7329 12961.862 593679
2686.1501 5014.688 13247.043 1055516
2763.6172 5012.3945 13240.984 1056030
2864.135 5050.8774 13342.643 2503993
2898.2393 4973.3228 13137.77 2109495
2971.5527 4965.3535 13116.719 2373181
3026.6138 4928.0732 13018.236 3096905
3067.8486 4870.7002 12866.677 3228492
3161.8064 4897.7881 12938.233 3228236
3211.7825 4857.0771 12830.69 3688017
3269.7446 4830.0518 12759.298 2767686
3328.6052 4805.5488 12694.57 3294543
3380.2959 4772.0098 12605.972 3886939
3371.877 4656.9077 12301.912 3492181
3337.2046 4511.2021 11917.011 4083029
3339.1299 4419.9971 11676.079 3686985
3350.2881 4344.4795 11476.587 264
3408.1714 4331.356 11441.92 1909801
3688.4268 4595.8247 12140.554 3688527
3889.1094 4752.8984 12555.486 3755351
3983.8201 4776.9868 12619.12 4347745
4135.0205 4866.6709 12856.033 4347747
4236.4209 4895.5522 12932.327 4281954
4294.3726 4874.0898 12875.632 4413540
4345.001 4845.2119 12799.347 4282212
4339.7114 4756.0469 12563.804 4545383
4301.3262 4634.2397 12242.032 4413798
4142.1006 4388.458 11592.764 4545384
4238.8896 4417.5225 11669.541 4479591
4092.594 4196.4009 11085.416 4413798
4030.3616 4067.1157 10743.89 4479076
3932.4429 3906.4131 10319.37 4346718
3691.25 3610.5063 9537.6885 4675422
3523.8372 3394.6248 8967.4053 790031
3675.8147 3488.2712 9214.7861 4
3642.1025 3405.5396 8996.2383 3621703
4289.457 3952.8176 10441.954 4610143
4477.3525 4067.1233 10743.91 4544866
4620.1743 4137.8467 10930.736 4808553
4869.3823 4300.5674 11360.587 5136490
5440.3892 4739.1577 12519.188 5727340
5698.5796 4897.0938 12936.399 2106924
5717.8433 4848.2358 12807.334 723213
5744.2793 4806.6626 12697.513 1051661
5677.7905 4689.4189 12387.797 196608
5839.3921 4761.1514 12577.287 1381654
6015.3511 4842.6279 12792.521 2763824
6065.0771 4821.7163 12737.278 2171429
6115.8262 4802.123 12685.521 2697000
6138.1733 4760.9775 12576.829 723724
6061.2495 4644.751 12269.799 4
6118.4209 4632.8237 12238.291 461837
6516.4551 4876.2427 12881.318 2962749
6669.2954 4932.6621 13030.358 2897726
6613.2261 4835.0479 12772.496 1778732
6553.7056 4737.1548 12513.897 2041642
6665.9629 4764.23 12585.42 1450794
6700.9595 4736.0977 12511.105 1120544
6823.894 4770.0542 12600.807 2963006
7082.4414 4897.0405 12936.26 2700089
6963.3745 4763.0083 12582.193 2698802
6430.1846 4351.5693 11495.316 65794
6440.3335 4312.6162 11392.416 393216
6526.7295 4324.9995 11425.128 458752
6639.5566 4354.4624 11502.958 262144
6385.001 4144.8369 10949.201 196608
6377.7192 4098.3403 10826.374 131072
6516.0107 4145.3838 10950.646 393216
6443.2339 4058.5464 10721.253 589824
6501.8159 4055.3418 10712.787 720896
6547.0298 4043.9421 10682.673 851968
6589.5493 4031.113 10648.783 786432
6627.627 4015.8369 10608.429 720896
6661.001 3998.0249 10561.376 720896
6692.23 3979.2708 10511.834 851970
6713.3208 3954.8904 10447.43 851969
6684.0122 3901.5381 10306.492 786433
6848.0586 3960.9941 10463.554 720898
6919.1753 3966.1113 10477.072 524290
7001.3667 3977.4294 10506.97 458754
6895.7593 3882.8032 10257.001 1906459
7120.0522 3973.9651 10497.818 328966
7266.1157 4020.259 10620.111 3026995
7281.9868 3994.3428 10551.649 2697261
7407.7256 4028.6191 10642.195 2038303
7503.9253 4046.3867 10689.131 131073
7139.1133 3817.3484 10084.093 328712
7755.3599 4112.3384 10863.352 4
7580.1309 3986.2354 10530.232 658445
8080.5308 4214.5884 11133.46 4015435
8969.4922 4640.2485 12257.904 3489601
9432.748 4840.5908 12787.14 1909544
9389.7881 4780.0332 12627.167 592653
9317.7441 4705.7476 12430.931 65796
8544.2002 4281.1387 11309.263 4
8293.6084 4123.1416 10891.891 131075
8009.7432 3951.1792 10437.626 262146
8528.4395 4174.7178 11028.136 327682
8682.1182 4217.5308 11141.232 196608
8857.7178 4270.2637 11280.535 196608
8992.7207 4302.7803 11366.433 196608
9141.3594 4341.2876 11468.155 0
9274.6592 4371.9946 11549.272 0
9368.2939 4383.6899 11580.167 131586
9473.1992 4400.4497 11624.44 2829099
9677.0508 4462.5957 11788.609 0
9609.2256 4399.4653 11621.84 256
10251.137 4659.8608 12309.714 395014
10522.003 4749.0942 12545.438 789773
10615.501 4757.5815 12567.857 66049
10748.396 4783.4824 12636.279 1
10348.697 4573.6426 12081.956 2
10762.034 4723.543 12477.94 2
0 0 0 0
0 0 0 0
8695.8086 3739.3569 9878.0664 1
8519.9873 3639.1812 9613.4365 0
8433.3594 3578.1833 9452.3027 0
7844.54 3306.3289 8734.1582 0
7843.3203 3284.0825 8675.3916 65536
7993.6689 3325.1763 8783.9463 65536
8016.5454 3313.0552 8751.9268 65536
0 0 0 0
0 0 0 0
0 0 0 0
0 0 0 0
4841.3237 1937.9364 5119.3467 196608
4910.8843 1953.5038 5160.4702 262144
4964.7319 1962.6664 5184.6743 458752
5031.4023 1976.7535 5221.8877 196608
5093.417 1988.8501 5253.8428 262144
0 0 0 0
0 0 0 0
0 0 0 0
-7585.9717 3210.0645 8348.7842 0
-6295.52 2681.5393 6974.188 0
-6091.4565 2611.8162 6792.8506 0
-6485.3091 2799.2395 7280.3042 0
-6411.228 2785.8513 7245.4839 0
-6219.8384 2720.9631 7076.7217 0
-6092.4395 2683.3757 6978.9644 0
-6174.8447 2738.314 7121.8477 0
-6140.8965 2742.0552 7131.5786 0
-6084.2476 2735.6421 7114.8989 0
-6064.9604 2746.0554 7141.9824 0
-6031.916 2750.3428 7153.1328 0
-6873.3481 3156.2522 8208.8281 0
-5678.439 2626.1887 6830.2314 0
-5740.1445 2673.8416 6954.1675 0
-6897.7021 3236.3516 8417.1514 0
-6793.6504 3210.8179 8350.7432 0
-6713.6968 3196.3818 8313.1973 0
-6882.3936 3300.991 8585.2666 0
-6808.8682 3290.1184 8556.9893 0
-6742.6499 3282.6399 8537.5391 0
-6693.5898 3283.4648 8539.6846 0
-6527.1841 3226.2998 8391.0088 0
-6693.5659 3334.0132 8671.1523 0
-6632.7485 3329.3545 8659.0352 0
-6522.0469 3299.387 8581.0957 0
-6372.8252 3249.3074 8450.8467 0
-6339.6895 3258.0901 8473.6895 0
-6370.5435 3300.1631 8583.1133 0
-6444.7314 3365.5447 8753.1592 0
-6231.064 3280.4443 8531.8291 0
-6354.5107 3372.8828 8772.2441 0
-5400.1167 2890.0156 7516.396 0
-5810.2197 3135.4309 8154.6763 0
-5617.3716 3056.8611 7950.3306 0
-5274.8501 2894.8186 7528.8872 0
-5246.0161 2903.6257 7551.7935 0
-5236.6284 2923.4417 7603.3311 0
-5179.3125 2916.6128 7585.5703 0
-5139.5337 2919.6265 7593.4082 0
-6023.3525 3452.0115 8978.043 0
-5986.1016 3461.3262 9002.2686 0
-5949.7788 3471.3499 9028.3389 0
-5768.5786 3396.2595 8833.043 0
-5533.9409 3288.0398 8551.583 0
-5428.9194 3255.5396 8467.0566 0
-4909.7583 2971.7627 7729.0049 0
-4911.2788 3000.7585 7804.418 0
-4869.4277 3003.5547 7811.6899 0
-4842.1582 3015.4856 7842.7197 0
-5170.7627 3251.4253 8456.3555 0
-5153.3262 3272.2668 8510.5605 0
-5100.0947 3270.5674 8506.1406 0
-5076.1274 3287.7881 8550.9287 0
-5036.0415 3294.8113 8569.1953 0
-4997.0049 3302.6719 8589.6387 0
-4958.8467 3311.2815 8612.0303 0
-4913.3818 3315.1401 8622.0664 0
-4865.3887 3317.3567 8627.8311 0
-4842.7534 3337.0942 8679.165 0
-4800.7856 3343.7915 8696.583 0
-4762.4038 3353.1594 8720.9473 0
-4734.2979 3370.0481 8764.8721 0
-4692.083 3377.1575 8783.3623 0
-4648.9595 3383.7661 8800.5498 0
-4609.5127 3393.2312 8825.167 0
-4558.0864 3393.9944 8827.1514 0
-4509.9526 3397.2554 8835.6328 0
-4470.4287 3407.155 8861.3799 0
-4438.4937 3423.1438 8902.9639 0
-4392.9971 3428.9329 8918.0205 0
-4352.334 3438.6824 8943.377 0
-4310.8257 3447.9966 8967.6016 0
-4262.2646 3451.8328 8977.5781 0
-4219.3608 3460.4055 8999.875 0
-4179.9263 3472.0801 9030.2383 0
-4132.6089 3477.425 9044.1396 0
-4082.2502 3480.3191 9051.666 0
-4039.6379 3489.9822 9076.7979 0
-3996.3159 3499.2852 9100.9932 0
-3952.5955 3508.4895 9124.9326 0
-3894.7786 3505.2637 9116.543 0
-3843.6147 3508.0193 9123.709 0
-3803.6025 3521.1775 9157.9307 0
-3759.9373 3531.2859 9184.2217 0
-3715.0178 3540.4973 9208.1787 0
-3672.1528 3551.9717 9238.0215 0
-3618.8694 3553.5635 9242.1611 0
-3562.6987 3552.3257 9238.9424 0
-3519.4888 3564.1748 9269.7598 0
-3479.6921 3579.9121 9310.6895 0
-3432.2976 3588.2151 9332.2832 0
-3383.1377 3594.9146 9349.708 0
-3336.189 3604.2271 9373.9277 0
-3284.2078 3608.3264 9384.5898 0
-3242.7432 3624.3223 9426.1914 0
-3195.3669 3634.156 9451.7676 0
-3146.5767 3642.7053 9474.0029 0
-3095.5291 3648.9055 9490.1279 0
-3047.3782 3658.8135 9515.8965 0
-2998.689 3668.4373 9540.9268 0
-2943.7734 3670.6689 9546.7305 0
-2901.7607 3689.3931 9595.4287 0
-2848.1951 3693.8848 9607.1104 0
-2795.4592 3699.658 9622.126 0
-2744.5969 3708.2043 9644.3535 65536
-2697.4348 3722.2207 9680.8076 65536
-2652.6665 3740.2239 9727.6299 65536
-2600.4934 3748.355 9748.7783 65536
-2550.1755 3759.5928 9778.0059 65536
-2494.728 3763.6155 9788.4678 65536
-2438.0425 3765.9185 9794.457 65536
-2392.4341 3785.8621 9846.3271 65536
-2337.7876 3792.146 9862.6699 65536
-2276.5764 3787.8296 9851.4443 0
-2221.8718 3794.3977 9868.5264 65536
-2171.4841 3808.894 9906.2285 0
-2125.3691 3831.9014 9966.0664 0
-2069.3198 3837.804 9981.418 0
-2019.4343 3855.8235 10028.283 0
-1961.3765 3858.8601 10036.182 65536
-1906.4159 3868.3728 10060.922 65536
-1853.3403 3882.45 10097.534 65536
-1801.0604 3899.1919 10141.077 65536
-1744.7633 3908.0952 10164.232 0
-1697.4674 3938.522 10243.367 0
-1647.172 3963.9941 10309.615 0
-1597.5404 3993.0935 10385.298 0
-1549.1473 4027.7517 10475.438 65536
-1487.7761 4030.1572 10481.693 65536
-1427.8451 4036.8447 10499.086 65536
-1372.5221 4057.7659 10553.499 65536
-1345.3361 4167.8604 10839.833 65536
-1282.4398 4172.834 10852.77 65536
-1218.311 4174.1118 10856.093 65536
-1155.8295 4181.4917 10875.287 65536
-1096.5481 4202.0093 10928.648 65536
-1039.5133 4234.2617 11012.531 65536
-987.6228 4293.21 11165.846 0
-928.86206 4328.6353 11257.98 0
-872.39288 4381.0684 11394.349 0
-810.71997 4413.9951 11479.985 0
-743.37787 4419.2705 11493.706 131585
-727.57367 4763.0024 12387.688 66306
-664.98944 4843.4126 12596.82 658186
-605.93091 4973.1621 12934.275 197379
-508.28775 4777.9209 12426.488 0
-407.483 4481.5244 11655.616 65536
-333.35486 4417.1948 11488.307 65536
-266.38861 4439.0703 11545.2 65536
-197.55521 4434.2148 11532.572 65536
-129.45425 4449.3755 11572.003 65536
-60.742905 4454.147 11584.412 65536
8.1075239 4454.2983 11584.806 65536
76.876823 4449.4829 11572.282 65536
146.85229 4486.0615 11667.416 0
223.41258 4635.8101 12056.885 0
297.96039 4681.208 12174.956 0
369.45557 4670.2764 12146.524 0
431.66064 4564.6782 11871.884 0
503.49579 4576.2803 11902.058 256
580.16071 4623.5132 12024.902 855820
679.11572 4818.5415 12532.136 66050
744.46661 4760.1514 12380.273 790542
820.04974 4771.8066 12410.586 198149
878.94708 4692.4565 12204.212 527114
960.32288 4736.063 12317.624 658442
1053.7689 4828.8022 12558.821 723721
1119.1973 4789.377 12456.283 0
1204.8743 4836.1177 12577.848 65536
1285.0573 4856.6333 12631.205 65536
1350.2303 4821.2891 12539.28 0
1432.4631 4847.3706 12607.114 1316373
1504.9283 4839.4497 12586.514 1185046
1503.0396 4604.4985 11975.449 1843747
1660.3562 4856.4604 12630.756 2435373
1771.3047 4956.8672 12891.895 67082
1799.6396 4827.3447 12555.031 528147
1913.0399 4927.23 12814.814 2634295
1979.726 4903.7563 12753.763 1648172
2057.2979 4907.9839 12764.758 2503995
2153.2854 4954.2808 12885.167 2503995
2250.7664 5000.7153 13005.937 2043444
2322.5195 4988.8042 12974.956 1713966
2384.634 4957.6187 12893.849 1056292
2456.5264 4948.0708 12869.017 1186592
2432.6184 4751.96 12358.969 1252126
2441.3887 4629.3086 12039.975 1120284
2495.6741 4597.4893 11957.22 2438203
2644.0381 4735.9443 12317.315 2833732
2704.0752 4712.9917 12257.62 2175289
2824.875 4794.3701 12469.27 2636355
2862.0461 4733.2812 12310.39 2767685
2986.3987 4815.8262 12525.073 990247
3000.3186 4720.6045 12277.419 2438466
3076.6895 4725.8301 12291.01 2702410
3167.6951 4752.771 12361.078 3162961
3255.342 4773.5654 12415.16 3031374
3333.6897 4780.104 12432.166 3229011
3252.0073 4561.8711 11864.583 3163473
3303.2908 4535.4648 11795.905 3689043
3300.8962 4437.9883 11542.387 1711908
3197.8928 4211.9678 10954.549 8
3352.9202 4328.0396 11256.431 3820369
3544.1582 4485.3975 11665.689 4149595
3692.5955 4583.5884 11921.066 3754841
3903.3154 4753.9385 12364.115 4149856
3965.2271 4740.1045 12328.135 4346979
3995.4768 4689.6099 12196.808 4281442
4031.1965 4647.2207 12086.562 4413028
4049.562 4586.6597 11929.054 4347491
4172.9678 4645.1079 12081.066 4741993
4078.4429 4463.0942 11607.683 4676456
4062.2803 4371.4624 11369.365 4676456
4011.2854 4245.959 11042.954 4610920
3988.8025 4154.1899 10804.28 4676970
3886.5898 3983.6099 10360.632 4741993
3827.3396 3861.698 10043.562 4479591
3775.1699 3750.5652 9754.5264 4806755
3667.6587 3588.6443 9333.4004 4673107
3573.78 3444.6892 8958.999 262
3643.1375 3459.99 8998.7939 132360
4136.7803 3871.9741 10070.288 4543580
4481.6016 4134.8989 10754.106 4610145
4676.4595 4254.0122 11063.899 4479332
4900.2646 4395.7905 11432.638 4609636
5247.8271 4643.1885 12076.074 4806498
5711.5439 4985.2954 12965.831 4805983
5828.8706 5019.9736 13056.022 3817799
5673.936 4822.3428 12542.021 724497
5651.1523 4740.6978 12329.678 65537
5706.2905 4725.6738 12290.604 196610
5857.6299 4789.6924 12457.104 393217
5804.8779 4687.313 12190.834 262145
5905.7842 4710.0039 12249.849 393218
5976.2144 4708.1333 12244.983 262148
5970.0679 4646.7046 12085.22 6
6116.1001 4703.7749 12233.648 197641
6513.0894 4950.2427 12874.666 3357766
6530.3262 4905.7085 12758.841 3227209
6533.4478 4851.7153 12618.415 2503232
6402.7886 4700.7305 12225.73 2964296
6441.502 4676.0864 12161.636 2898760
6592.0327 4732.2603 12307.733 2700870
6822.7046 4844.1006 12598.609 3228241
7000.1108 4916.1055 12785.881 3423559
6913.9102 4803.4233 12492.815 4080199
6368.0117 4377.1548 11384.17 65537
6489.4551 4413.7354 11479.309 131073
6419.314 4320.6055 11237.096 65537
6417.1333 4274.6646 11117.612 131073
6378.3838 4205.5483 10937.854 131330
6323.1758 4127.085 10733.785 131072
6462.0347 4175.5898 10859.937 458752
6432.1465 4115.1733 10702.804 589824
6500.5972 4118.2397 10710.78 655360
6457.0884 4051.0059 10535.917 655360
6486.3721 4030.2937 10482.048 655360
6490.5225 3994.5073 10388.975 2496027
6268.3345 3821.4106 9938.7822 459267
6463.918 3903.8579 10153.212 786692
6519.5269 3901.0244 10145.843 720896
6542.2114 3878.7231 10087.841 786432
6501.3862 3819.5151 9933.8525 786432
6663.3408 3879.4326 10089.687 786432
6810.4521 3929.7163 10220.465 589824
6682.3159 3821.6934 9939.5176 459525
6812.4375 3861.97 10044.27 328195
7185.7334 4038.2053 10502.625 2697262
7421.0752 4134.5464 10753.189 2961462
7472.0488 4127.3999 10734.604 4276038
7435.0054 4072.1685 10590.957 2894127
6991.3496 3797.031 9875.375 65540
7504.0537 4041.554 10511.334 5
7533.1973 4023.7515 10465.033 65542
7828.5576 4147.2725 10786.288 3422016
8309.0439 4366.0625 11355.321 3489092
8533.1602 4447.7012 11567.647 3621193
8626.9805 4460.6641 11601.361 2832191
8596.7119 4409.7681 11468.991 2831418
8603.958 4378.7656 11388.359 3027769
8316.5625 4199.4668 10922.036 2039589
8186.9272 4101.9897 10668.517 262918
8310.1387 4131.7241 10745.851 196610
8456.124 4172.2417 10851.229 196608
8708.5615 4264.271 11090.581 196608
8871.4512 4311.3999 11213.153 327680
9029.0869 4355.291 11327.306 262144
9153.7627 4382.752 11398.727 196608
9370.8877 4453.7471 11583.372 196608
9798.8076 4623.1621 12023.99 0
10136.267 4747.7534 12348.028 2
10215.719 4750.5728 12355.361 2
10423.261 4812.4922 12516.402 197379
10890.421 4992.5522 12984.705 66051
11143.078 5072.4346 13192.464 1776411
11017.281 4980.1279 12952.393 0
11067.57 4968.147 12921.23 2
9433.0605 4205.2485 10937.074 2
8701.1738 3852.4275 10019.451 2
8509.4805 3741.9463 9732.1104 65538
8352.1953 3647.9858 9487.7363 2
8296.3652 3599.3005 9361.1143 2
8210.9492 3538.5142 9203.0205 0
8580.8301 3673.4441 9553.9482 197379
7814.4585 3323.3691 8643.4688 0
7821.5171 3304.647 8594.7754 65536
7978.6899 3349.1804 8710.5986 65536
0 0 0 0
0 0 0 0
0 0 0 0
4742.6392 1940.4347 5046.7119 1709587
4813.2788 1956.9602 5089.6914 131072
4882.6343 1972.7604 5130.7847 196608
4929.3955 1979.2921 5147.7725 196608
4997.6299 1994.312 5186.8369 196608
5052.0068 2003.6519 5211.1279 262144
0 0 0 0
0 0 0 0
0 0 0 0
-6089.8203 2616.7893 6702.186 0
-6089.9897 2634.0918 6746.501 0
-6089.479 2651.3274 6790.6455 0
-6033.6528 2644.5483 6773.2827 0
-6009.9443 2651.8499 6791.9834 0
-6043.7402 2684.7949 6876.3633 0
-5979.1001 2674.1631 6849.1328 0
-5941.5405 2675.5803 6852.7627 0
-5990.1587 2716.0923 6956.5229 0
-5880.251 2684.7883 6876.3462 0
-5869.4917 2698.6316 6911.8022 0
-5803.6064 2687.146 6882.3848 0
-5719.5449 2667.0217 6830.8423 0
-5793.6797 2720.9041 6968.8472 0
-5650.6709 2672.8503 6845.7705 0
-5716.7046 2723.697 6976 0
-5712.5732 2741.6123 7021.8853 0
-5671.6514 2742.0046 7022.8901 0
-6437.7095 3135.4358 8030.5562 0
-5628.2729 2761.6812 7073.2861 0
-5549.6074 2743.574 7026.9097 0
-5546.3965 2762.7778 7076.0952 0
-5495.1675 2758.1731 7064.3018 0
-5512.8911 2788.3738 7141.6519 0
-5528.5933 2818.0122 7217.563 0
-5417.6792 2783.0718 7128.0723 0
-5417.2251 2804.771 7183.6489 0
-5458.4263 2848.5532 7295.7852 0
-5904.207 3105.8628 7954.8125 0
