# .PCD v0.7 - Point Cloud Data file format
VERSION 0.7
FIELDS x y z rgb
SIZE 4 4 4 4
TYPE F F F U
COUNT 1 1 1 1
WIDTH 1464
HEIGHT 1
VIEWPOINT 0 0 0 1 0 0 0
POINTS 1464
DATA ascii
-73.853745 3490.1863 14084.809 65536
9.9800529 3533.7107 14260.453 65536
96.338638 3593.5339 14501.872 0
184.11896 3624.8506 14628.252 0
270.90048 3622.7212 14619.66 0
355.2153 3596.6504 14514.449 0
443.17419 3610.4553 14570.159 0
534.18835 3640.5688 14691.685 0
631.50348 3699.1304 14928.012 0
730.70856 3752.97 15145.285 0
823.27148 3764.6277 15192.329 0
905.07336 3729.6362 15051.12 0
1003.5791 3763.5815 15188.108 0
1110.9601 3822.4612 15425.72 0
1207.2125 3836.9934 15484.364 0
1326.0137 3916.0583 15803.436 0
1433.1322 3952.4443 15950.272 0
1527.6571 3951.7383 15947.422 0
1623.9319 3955.3762 15962.104 0
1751.7852 4031.2827 16268.429 0
1868.6875 4075.3662 16446.328 0
1993.4907 4131.4404 16672.619 0
2127.4832 4200.3472 16950.695 0
2255.0425 4250.896 17154.688 0
2401.1311 4330.4897 17475.893 0
2533.0845 4379.0469 17671.846 0
2669.1428 4430.5518 17879.695 0
2784.0723 4444.3823 17935.512 0
2903.2253 4463.6875 18013.418 0
3038.2366 4505.1343 18180.678 0
3147.9624 4507.5278 18190.338 0
3486.6262 4826.6919 19478.338 0
3444.8232 4615.5713 18626.352 0
3600.1121 4673.4502 18859.924 65536
3793.2578 4775.4932 19271.725 196608
3941.2764 4816.4077 19436.836 196608
4088.1865 4853.6758 19587.232 196608
4265.332 4923.7827 19870.152 196608
0 0 0 0
0 0 0 0
4615.2583 4919.1362 19851.402 262144
4755.3403 4942.1021 19944.082 262144
4878.6636 4946.958 19963.678 262144
5001.8438 4951.4414 19981.771 262144
0 0 0 0
0 0 0 0
0 0 0 0
0 0 0 0
0 0 0 0
0 0 0 0
0 0 0 0
0 0 0 0
0 0 0 0
0 0 0 0
6262.207 4915.3501 19836.123 655360
6316.168 4866.0957 19637.355 655360
6431.8687 4865.3306 19634.268 655360
6565.312 4877.7759 19684.49 655360
6689.687 4883.1655 19706.24 458752
6828.8506 4898.9785 19770.055 458752
6942.2378 4896.0771 19758.348 393216
0 0 0 0
0 0 0 0
7366.6387 4944.4771 19953.666 393216
7310.9292 4829.3398 19489.025 393216
7364.2568 4788.6973 19325.01 393216
7459.4062 4776.0796 19274.092 393216
7543.5811 4756.9238 19196.787 393216
7642.0146 4747.1968 19157.531 393216
7733.2739 4733.3628 19101.705 393216
7895.8608 4762.9565 19221.131 393216
7948.2983 4726.209 19072.834 458752
7966.5239 4670.4375 18847.768 458752
8018.8345 4635.9185 18708.465 458752
8091.5679 4613.9893 18619.967 458752
8082.5049 4546.6387 18348.172 524288
8092.8052 4491.8291 18126.984 524288
8119.0957 4447.2183 17946.955 655360
8186.1138 4425.7832 17860.453 655360
8199.9199 4376.4966 17661.555 655360
8194.8623 4318.5156 17427.568 655360
8213.8955 4274.5181 17250.016 655360
8215.4551 4222.6245 17040.596 655360
8209.126 4167.9893 16820.113 655360
8202.9297 4114.7354 16605.205 655360
8199.8613 4064.2986 16401.664 655360
8176.478 4005.0952 16162.748 524288
8152.5645 3947.0103 15928.343 458752
8135.5825 3893.5767 15712.709 458752
8162.5024 3862.1277 15585.796 393216
8184.1982 3828.9409 15451.868 393216
8243.6182 3813.9431 15391.345 393216
8259.9268 3779.5488 15252.544 327680
8270.623 3743.3601 15106.503 393216
8225.2998 3682.8665 14862.378 327680
8208.5791 3636.3293 14674.575 327680
8198.3623 3593.6208 14502.223 262144
8234.2451 3571.7983 14414.157 262144
8267.3086 3549.2144 14323.02 262144
8178.021 3475.1006 14023.929 262144
8156.9814 3431.1899 13846.727 262144
8115.4404 3379.6191 13638.609 262144
8103.7041 3341.3569 13484.201 262144
8091.5894 3303.6899 13332.194 262144
8043.2266 3252.0977 13123.991 262144
8021.46 3212.1465 12962.767 262144
8005.8291 3175.3892 12814.431 393216
8017.4707 3150.04 12712.132 393216
8028.3594 3124.8711 12610.562 393216
8079.0972 3115.5342 12572.883 458752
8103.2427 3096.2083 12494.892 458752
8116.3267 3073.0449 12401.415 458752
8105.082 3041.1699 12272.782 393216
8149.2241 3030.4604 12229.563 393216
8167.0063 3010.2244 12147.899 262144
7679.2109 2805.6279 11322.242 393216
8237.8799 2983.5952 12040.437 458752
7640.0542 2743.2444 11070.49 458752
8388.3594 2986.2148 12051.009 458752
8450.2627 2982.7837 12037.162 393216
8532.2715 2986.4478 12051.948 393216
8517.4834 2956.4519 11930.898 327680
8600.8525 2960.7412 11948.208 262144
8613.8037 2940.918 11868.211 196608
8658.1025 2932.0325 11832.353 262144
8682.3418 2916.552 11769.881 196608
8694.5869 2897.3218 11692.276 327680
8641.3623 2856.7529 11528.56 196608
8605.75 2822.5996 11390.731 196608
8656.165 2816.9749 11368.032 196608
8730.0947 2819.0303 11376.327 131072
8159.6079 2614.5652 10551.198 65536
8341.1699 2652.3586 10703.716 65536
8937.2549 2820.3938 11381.829 65536
9019.7588 2825.0469 11400.607 0
9111.8535 2832.6125 11431.14 0
9187.3262 2834.9375 11440.521 0
9270.7168 2839.6531 11459.552 0
9375.9902 2850.9541 11505.157 0
9442.6299 2850.4287 11503.037 0
9504.4541 2848.468 11495.125 0
9566.0439 2846.4656 11487.044 0
9645.4502 2849.7554 11500.319 0
9696.0674 2844.553 11479.325 0
9790.7725 2852.2668 11510.455 0
9874.2734 2856.6328 11528.073 0
11253.792 3233.293 13048.104 0
11319.84 3230.0115 13034.86 0
10064.68 2852.342 11510.759 0
10045.095 2827.5718 11410.797 0
10087.639 2820.5051 11382.279 0
10085.146 2801.0239 11303.662 0
10120.857 2792.3418 11268.624 0
10145.411 2780.7151 11221.704 0
10194.208 2775.8416 11202.037 0
10232.082 2768.0764 11170.7 0
10330.251 2776.6179 11205.17 0
10419.238 2782.5977 11229.302 0
10585.612 2809.0371 11335.999 0
10737.151 2831.23 11425.561 0
9939.2129 2604.3545 10509.993 0
10342.339 2693.0598 10867.968 0
10102.169 2614.1948 10549.704 0
9751.3516 2507.8467 10120.531 0
9618.8535 2458.6052 9921.8154 0
0 0 0 0
0 0 0 0
0 0 0 0
-6751.0396 1885.271 7429.895 0
-6702.1958 1883.9537 7424.7041 0
-6649.8979 1881.642 7415.5933 0
-6613.1479 1883.7281 7423.8145 0
-6564.1025 1882.3164 7418.251 0
-6516.3096 1881.2469 7414.0361 0
-6467.4678 1879.8584 7408.564 0
-6410.021 1875.9324 7393.0913 0
-6369.9717 1877.0786 7397.6089 0
-6331.1758 1878.6129 7403.6558 0
-6282.7056 1877.2781 7398.3945 0
-6240.6572 1877.8567 7400.6748 0
-6197.877 1878.2218 7402.1138 0
-6155.8696 1878.8279 7404.5024 0
-6121.7275 1881.8606 7416.4546 0
-6059.0063 1876.088 7393.7046 0
-6034.0732 1882.0173 7417.0723 0
-6185.4575 1943.4316 7659.1074 0
-6367.187 2015.3616 7942.585 0
-6258.8257 1995.8597 7865.728 0
-7301.3809 2345.8389 9245.0039 0
-7260.1963 2350.2942 9262.5615 0
-7217.7622 2354.4094 9278.7803 0
-7174.2124 2358.2217 9293.8037 0
-7129.0762 2361.5674 9306.9893 0
-7084.4033 2365.1201 9320.9912 0
-7041.02 2369.1626 9336.9229 0
-6999.1963 2373.7986 9355.1934 0
-6951.1079 2376.3669 9365.3154 0
-6907.4297 2380.4968 9381.5908 0
-6861.0132 2383.7422 9394.3809 0
-6817.0938 2387.9155 9410.8291 0
-6771.998 2391.7427 9425.9111 0
-6719.3691 2392.9509 9430.6729 0
-6668.103 2394.6689 9437.4434 0
-6625.2622 2399.467 9456.3535 0
-6584.7925 2405.2139 9479.002 0
-6551.5869 2413.7358 9512.5869 0
-6517.6689 2422.1416 9545.7139 0
-6455.9932 2420.2888 9538.4121 0
-6411.5571 2424.9236 9556.6777 0
-6363.2588 2428.1672 9569.4609 0
-6315.6851 2431.7483 9583.5742 0
-6286.2661 2442.4485 9625.7441 0
-6240.6919 2447.0105 9643.7227 0
-6194.5654 2451.439 9661.1748 0
-6145.5054 2454.7776 9674.334 0
-6098.4502 2458.9885 9690.9287 0
-6056.8481 2465.4993 9716.5879 0
-6005.3169 2468.0547 9726.6582 0
-5957.1465 2472.0542 9742.4209 0
-6017.4204 2521.5757 9937.5859 0
-6256.7139 2647.8396 10435.195 0
-6063.0537 2591.5723 10213.443 0
-5792.2764 2500.8701 9855.9844 0
-5722.6768 2496.0625 9837.0381 0
-5677.3721 2501.8621 9859.8936 0
-5629.4165 2506.6021 9878.5742 0
-5582.5859 2511.9478 9899.6426 0
-5540.7378 2519.6736 9930.0898 0
-5485.1836 2521.2656 9936.3643 0
-5437.127 2526.3765 9956.5059 0
-5388.1216 2531.1533 9975.332 0
-5344.8208 2538.7468 10005.258 0
-5296.2622 2543.9854 10025.903 0
-5248.7983 2549.8752 10049.115 0
-5204.0312 2557.2256 10078.083 0
-5154.3672 2562.3125 10098.131 0
-5104.9834 2567.6609 10119.208 0
-5054.9614 2572.8115 10139.507 0
-5004.48 2577.8496 10159.363 0
-4952.6875 2582.3276 10177.011 0
-4902.7427 2587.8914 10198.938 0
-4852.6226 2593.501 10221.045 0
-4801.1016 2598.4944 10240.725 0
-4750.792 2604.28 10263.526 0
-4698.4253 2609.0745 10282.42 0
-4645.5537 2613.7102 10300.69 0
-4593.1216 2618.7212 10320.438 0
-4543.5942 2625.5459 10347.335 0
-4489.1167 2629.658 10363.541 0
-4436.1943 2634.8086 10383.84 0
-4383.5098 2640.2476 10405.274 0
-4333.3643 2647.3938 10433.438 0
-4282.6396 2654.3879 10461.002 65536
-4227.9199 2659.0757 10479.477 65536
-4175.7241 2665.5149 10504.854 65536
-4121.9521 2671.1282 10526.976 65536
-4067.3953 2676.3977 10547.743 65536
-4015.5452 2683.6414 10576.291 65536
-3963.9441 2691.2844 10606.412 65536
-3915.1121 2701.0852 10645.037 65536
-3855.5269 2703.6672 10655.213 65536
-3805.9131 2713.4446 10693.745 65536
-3756.2095 2723.4888 10733.33 65536
-3706.7295 2734.0452 10774.933 65536
-3650.1165 2739.6187 10796.898 65536
-3595.3127 2746.7742 10825.099 65536
-3536.2891 2750.908 10841.39 65536
-3479.0334 2756.5957 10863.806 65536
-3424.3621 2764.585 10895.291 65536
-3371.4775 2774.3525 10933.785 65536
-3318.2627 2784.2271 10972.701 65536
-3264.4031 2793.9456 11011.001 65536
-3208.7773 2802.519 11044.79 65536
-3151.0422 2809.5701 11072.578 65536
-3093.9517 2817.5088 11103.865 65536
-3035.6931 2824.7065 11132.231 65536
-2978.0413 2832.8025 11164.138 65536
-2921.333 2842.1851 11201.115 65536
-2864.9976 2852.3767 11241.28 65536
-2807.0823 2861.4446 11277.017 65536
-2748.9504 2870.73 11313.61 65536
-2687.9265 2877.3845 11339.837 65536
-2626.9595 2884.4441 11367.659 65536
-2569.168 2895.4558 11411.056 65536
-2510.5798 2906.1421 11453.171 65536
-2451.374 2916.689 11494.736 0
-2385.7878 2920.0315 11507.909 0
-2330.7588 2936.8735 11574.284 0
-2271.0222 2948.6284 11620.61 0
-2209.6067 2958.8721 11660.981 0
-2147.6101 2968.9761 11700.801 0
-2088.1802 2983.4231 11757.737 0
-2032.6547 3004.6423 11841.362 0
-1976.1776 3025.9263 11925.243 0
-1918.349 3046.6475 12006.906 0
-1857.6635 3064.2571 12076.306 0
-1797.3154 3083.8613 12153.566 0
-1734.7294 3101.1067 12221.53 0
-1671.8494 3119.3108 12293.273 0
-1608.2032 3137.6838 12365.682 0
-1547.3613 3163.5496 12467.62 65536
-1484.951 3188.6499 12566.54 65536
-1423.4879 3218.55 12684.378 65536
-1360.8672 3249.0305 12804.502 65536
-1293.4897 3271.093 12891.45 65536
-1225.8805 3295.3103 12986.892 65536
-1158.2747 3322.7927 13095.199 65536
-1088.3507 3347.1042 13191.013 65536
-1016.5404 3368.9395 13277.064 65536
-943.3056 3389.3311 13357.429 65536
-867.68542 3404.1121 13415.682 65536
-787.7132 3403.0833 13411.627 65536
-709.31897 3409.407 13436.549 65536
-632.91223 3428.1008 13510.222 65536
-557.13953 3456.1599 13620.803 65536
-479.44577 3479.8167 13714.035 196608
-400.44281 3501.7151 13800.338 0
-320.28745 3522.2227 13881.158 65536
-239.5103 3547.75 13981.763 65536
-156.99297 3560.9309 14033.708 0
-73.832413 3572.8647 14080.74 0
9.951745 3608.2021 14220.005 0
96.42292 3682.9431 14514.561 0
184.1769 3712.9595 14632.856 0
271.39996 3716.4509 14646.615 0
355.53333 3686.2119 14527.443 0
443.59079 3700.5261 14583.855 0
534.9057 3732.8928 14711.413 0
632.36151 3792.9993 14948.294 0
740.42719 3894.0969 15346.723 0
833.61432 3903.3503 15383.191 0
905.58441 3821.2466 15059.618 0
1004.1929 3856.207 15197.398 0
1112.6555 3920.1152 15449.262 0
1210.5204 3939.7881 15526.792 0
1350.7004 4084.6389 16097.652 0
1447.7844 4088.6208 16113.347 0
1540.3505 4080.1418 16079.93 0
1632.9288 4072.6838 16050.538 0
1758.9403 4144.8325 16334.877 0
1886.6715 4213.2734 16604.605 0
2014.8638 4275.8887 16851.373 0
2131.7976 4309.813 16985.07 0
2274.4685 4390.3501 17302.467 0
2385.1189 4404.7837 17359.352 0
2516.1699 4454.1348 17553.844 0
2650.2241 4504.6597 17752.965 0
2761.9775 4514.8623 17793.174 0
2910.0664 4581.5176 18055.863 0
3043.5999 4621.3315 18212.771 0
3155.4939 4626.6821 18233.857 0
3480.8748 4934.3052 19446.207 0
3488.4675 4786.1538 18862.338 65536
3639.9922 4838.5532 19068.846 65536
3826.7029 4933.147 19441.643 196608
3973.3623 4972.0781 19595.07 196608
4119.2686 5007.876 19736.15 196608
4282.9517 5062.7056 19952.234 196608
0 0 0 0
0 0 0 0
0 0 0 0
0 0 0 0
0 0 0 0
0 0 0 0
0 0 0 0
0 0 0 0
0 0 0 0
0 0 0 0
0 0 0 0
0 0 0 0
0 0 0 0
0 0 0 0
0 0 0 0
6169.0249 5053.4854 19915.898 393216
6232.7896 5009.5991 19742.941 458752
6293.0015 4964.5312 19565.328 524288
6400.7983 4957.9575 19539.422 524288
6526.2754 4965.0693 19567.449 458752
6656.3682 4975.3818 19608.09 458752
6782.0273 4982.0825 19634.498 393216
6897.5874 4981.2632 19631.27 196608
0 0 0 0
0 0 0 0
7238.7695 4975.1846 19607.314 262144
7269.0156 4916.8193 19377.295 262144
7319.6113 4873.8247 19207.852 262144
7383.1514 4840.6377 19077.061 262144
7485.2661 4833.3623 19048.389 262144
7581.8457 4822.7827 19006.695 262144
7662.6938 4802.6543 18927.367 327680
7763.5205 4795.4487 18898.971 327680
7857.7466 4784.4307 18855.547 393216
7882.1831 4731.8247 18648.227 393216
7948.0654 4705.2148 18543.355 458752
8038.0562 4693.4087 18496.828 458752
8052.2495 4638.2607 18279.488 458752
8053.0503 4576.9692 18037.938 458752
8060.0063 4520.7407 17816.34 458752
8111.1836 4490.4517 17696.971 458752
8145.5498 4451.7505 17544.449 524288
8131.6777 4387.998 17293.197 524288
8125.2383 4329.7969 17063.826 524288
8134.7061 4281.4033 16873.105 655360
8125.6577 4224.5615 16649.092 655360
8119.395 4170.5186 16436.107 655360
8111.2261 4116.7925 16224.372 655360
8109.0591 4067.3403 16029.479 655360
8093.6167 4012.4543 15813.172 589824
8088.9873 3964.1279 15622.717 589824
8129.2188 3938.6338 15522.243 524288
8163.2383 3910.7354 15412.295 524288
8183.4312 3876.9055 15278.972 524288
8186.7422 3835.9087 15117.402 524288
8171.0303 3786.9856 14924.595 589824
8137.9712 3731.1594 14704.583 720896
8144.6895 3694.5637 14560.357 720896
8148.7354 3657.5378 14414.438 655360
8156.5493 3622.9558 14278.149 589824
8159.082 3586.7644 14135.519 458752
8141.9199 3542.741 13962.021 393216
8130.7603 3502.1914 13802.215 262144
8138.9497 3470.7029 13678.117 262144
8092.1025 3416.6001 13464.897 262144
8087.0996 3381.0513 13324.798 196608
8081.6484 3346.0059 13186.684 196608
8076.7842 3311.8748 13052.172 131072
8048.0381 3268.6929 12881.991 196608
8032.7256 3231.7302 12736.32 393216
8043.9204 3206.022 12635.004 393216
8072.144 3187.5137 12562.062 393216
8106.9111 3171.9053 12500.549 393216
8121.874 3148.9016 12409.892 393216
8093.957 3109.8369 12255.937 393216
8126.1348 3094.3528 12194.913 393216
8137.4341 3071.2622 12103.912 393216
7453.4346 2788.4534 10989.357 393216
8127.1147 3014.0767 11878.543 458752
8209.0791 3018.2556 11895.013 393216
7622.2876 2778.5791 10950.442 458752
7643.7588 2762.8162 10888.32 458752
7626.6167 2733.478 10772.698 327680
7708.8682 2739.9563 10798.229 196608
8479.2441 2988.8875 11779.271 196608
8537.5869 2984.8086 11763.197 196608
8535.1143 2959.7078 11664.274 262144
8611.1641 2962.021 11673.391 262144
8639.4092 2947.9849 11618.074 262144
8576.9424 2903.4641 11442.616 262144
8570.5244 2878.468 11344.106 196608
8592.4531 2863.3076 11284.359 196608
8033.2261 2656.2209 10468.227 131072
8117.8765 2663.582 10497.236 65536
8177.0166 2662.5242 10493.067 65536
8297.9326 2681.4451 10567.635 0
8946.1016 2869.1816 11307.509 0
9023.5273 2872.4351 11320.331 0
9108.3867 2877.9895 11342.221 0
9184.9326 2880.855 11353.514 0
9273.0127 2887.2695 11378.794 0
9336.5264 2885.9976 11373.781 0
9412.0479 2888.4292 11383.364 0
9466.0293 2884.2629 11366.944 0
9530.0986 2883.2075 11362.785 0
11858.229 3562.3098 14039.143 0
11786.896 3516.1396 13857.186 0
11682.747 3460.8889 13639.44 0
11447.615 3367.865 13272.831 0
11640.592 3401.2007 13404.207 0
11345.867 3292.5532 12976.025 0
10999.984 3170.6267 12495.511 0
9968.1523 2853.9443 11247.458 0
9956.7725 2831.6963 11159.778 0
9978.7549 2819.1687 11110.406 0
9764.7021 2740.5598 10800.607 0
10032.271 2797.2668 11024.091 0
10080.193 2792.3921 11004.879 0
10181.525 2802.2798 11043.848 0
10289.82 2813.9456 11089.822 0
10411.835 2829.1907 11149.903 0
10553.647 2849.5884 11230.291 0
10674.395 2864.0774 11287.394 0
10253.946 2734.0833 10775.083 0
10041.876 2660.9192 10486.741 0
9668.4453 2546.1633 10034.486 0
9543.0176 2497.7253 9843.5908 0
0 0 0 0
0 0 0 0
0 0 0 0
-6732.3848 1924.0979 7409.3643 0
-6683.0981 1922.5874 7403.5479 0
-6634.877 1921.3656 7398.8428 0
-6589.4238 1920.9342 7397.1816 0
-6541.0947 1919.6532 7392.2485 0
-6485.2881 1916.1458 7378.7417 0
-6431.4873 1913.1869 7367.3477 0
-6392.1416 1914.5168 7372.4697 0
-6351.7603 1915.5532 7376.4604 0
-6310.0752 1916.2078 7378.981 0
-6260.9253 1914.589 7372.7471 0
-6219.1768 1915.2263 7375.2017 0
-6182.8589 1917.5573 7384.1772 0
-6135.895 1916.5961 7380.4766 0
-6085.2017 1914.4478 7372.2036 0
-6057.5791 1919.5791 7391.9634 0
-6021.9897 1922.2424 7402.2192 0
-5978.0869 1922.2719 7402.3325 0
-6044.0439 1957.8892 7539.4883 0
-6901.7939 2252.4456 8673.7734 0
-7253.3682 2384.998 9184.21 0
-7211.1421 2389.0925 9199.9775 0
-7168.3374 2393.0566 9215.2422 0
-7124.6919 2396.7986 9229.6523 0
-7081.1484 2400.6335 9244.4199 0
-7037.2725 2404.4148 9258.9805 0
-6994.3906 2408.5979 9275.0889 0
-6960.9585 2416.1274 9304.084 0
-6915.8188 2419.6814 9317.7695 0
-6872.9702 2424.1008 9334.7881 0
-6831.6299 2429.1284 9354.1484 0
-6781.7568 2431.1794 9362.0469 0
-6747.9922 2439.0872 9392.498 0
-6700.6821 2442.1902 9404.4463 0
-6650.998 2444.4722 9413.2344 0
-6605.9092 2448.4961 9428.7305 0
-6562.0298 2453.0417 9446.2344 0
-6504.4829 2452.512 9444.1943 0
-6451.894 2453.8589 9449.3809 0
-6425.23 2465.176 9492.9609 0
-6378.9326 2469.0942 9508.0498 0
-6331.5449 2472.6565 9521.7676 0
-6289.2827 2478.303 9543.5107 0
-6256.5415 2487.8379 9580.2285 0
-6218.8633 2495.5669 9609.9912 0
-6192.9087 2508.1875 9658.5908 0
-6139.5317 2509.834 9664.9307 0
-6083.5049 2510.4177 9667.1797 0
-6044.7959 2518.2273 9697.2529 0
-5992.3569 2520.4126 9705.667 0
-5943.9814 2524.3657 9720.8906 0
-5896.4478 2528.7578 9737.8037 0
-5989.3374 2594.0557 9989.2549 0
-5939.5977 2598.2683 10005.477 0
-5780.4907 2554.24 9835.9307 0
-5722.8276 2554.595 9837.2979 0
-5669.9668 2557.1228 9847.0322 0
-5618.5337 2560.3542 9859.4766 0
-5569.0293 2564.542 9875.6025 0
-5522.5366 2570.2207 9897.4697 0
-5474.853 2575.4612 9917.6504 0
-5425.8779 2580.2019 9935.9062 0
-5374.7769 2584.0247 9950.627 0
-5328.6416 2590.3467 9974.9717 0
-5281.249 2596.1926 9997.4834 0
-5232.7593 2601.6262 10018.407 0
-5183.9629 2607.0305 10039.219 0
-5138.4282 2614.2205 10066.905 0
-5089.3623 2619.7617 10088.244 0
-5040.5298 2625.5566 10110.56 0
-4992.1279 2631.7188 10134.288 0
-4940.5703 2636.3474 10152.112 0
-4890.0449 2641.6477 10172.523 0
-4838.3311 2646.4312 10190.943 0
-4787.8931 2652.0422 10212.551 0
-4735.9048 2656.928 10231.364 0
-4681.8887 2660.7881 10246.229 0
-4630.833 2666.4548 10268.051 0
-4583.0454 2674.1797 10297.798 0
-4530.8105 2679.4834 10318.222 0
-4477.1167 2684.0583 10335.839 0
-4425.623 2690.0977 10359.096 0
-4373.8071 2696.1089 10382.243 0
-4324.144 2703.6382 10411.237 0
-4274.2544 2711.2424 10440.521 65536
-4222.856 2718.0994 10466.925 65536
-4169.7266 2724.0305 10489.765 65536
-4114.4438 2728.7139 10507.8 65536
-4061.7837 2735.3076 10533.191 0
-4012.9746 2744.7417 10569.521 65536
-3962.9128 2753.6055 10603.653 65536
-3913.1379 2762.9585 10639.67 65536
-3850.8953 2763.6707 10642.412 65536
-3799.9343 2772.6387 10676.946 65536
-3753.5474 2785.3054 10725.724 65536
-3702.0786 2794.5735 10761.414 65536
-3643.8713 2798.9915 10778.427 65536
-3587.2649 2804.8191 10800.867 65536
-3527.1953 2808.1021 10813.51 65536
-3470.2644 2814.0522 10836.423 65536
-3417.7234 2823.8545 10874.169 65536
-3362.6316 2831.8862 10905.099 65536
-3310.4978 2842.7737 10947.023 65536
-3256.9385 2852.8491 10985.823 65536
-3201.4736 2861.6338 11019.651 65536
-3143.3867 2868.3926 11045.678 65536
-3086.7009 2876.7454 11077.843 65536
-3028.8425 2884.3455 11107.109 65536
-2970.9395 2892.2412 11137.515 65536
-2914.3945 2901.8486 11174.512 0
-2858.2097 2912.2712 11214.647 65536
-2800.957 2922.0774 11252.409 65536
-2743.3335 2931.9673 11290.493 65536
-2683.7805 2940.2393 11322.347 65536
-2623.8748 2948.54 11354.312 65536
-2563.9839 2957.2961 11388.03 65536
-2506.1748 2968.9937 11433.075 65536
-2235.5332 2722.1794 10482.637 65536
-2383.468 2985.521 11496.719 65536
-2308.6599 2977.166 11464.545 65536
-2267.8044 3013.4182 11604.146 0
-2204.3777 3021.0112 11633.386 0
-2143.4724 3032.6638 11678.258 0
-2084.0078 3047.2029 11734.245 0
-2025.6476 3064.4192 11800.542 0
-1972.8309 3091.5576 11905.048 0
-1915.614 3113.5632 11989.787 0
-1854.7987 3131.1948 12057.683 0
-1795.1611 3152.3115 12139 0
-1732.4198 3169.5178 12205.259 0
-1670.0063 3188.8545 12279.721 0
-1606.3951 3207.5671 12351.779 0
-1544.4717 3231.6028 12444.337 65536
-1483.8137 3260.8376 12556.915 65536
-1422.7559 3292.2439 12677.854 65536
-1359.9091 3322.7908 12795.486 65536
-1292.9202 3346.2373 12885.773 65536
-1225.4055 3371.1892 12981.86 65536
-1158.189 3400.3696 13094.229 65536
-1088.4521 3425.8223 13192.242 65536
-1016.6472 3448.2114 13278.458 65536
-943.51038 3469.4717 13360.328 65536
-867.83319 3484.4395 13417.967 65536
-787.47333 3481.7324 13407.542 65536
-709.07501 3488.0652 13431.929 65536
-632.64325 3506.9055 13504.479 65536
-556.41699 3532.5261 13603.14 65536
-478.76569 3556.2722 13694.581 0
-401.03555 3589.04 13820.766 65536
-320.48337 3606.9285 13889.65 65536
-239.13048 3625.0908 13959.591 65536
-157.01932 3644.9497 14036.063 0
-73.707184 3650.3496 14056.858 0
9.9452 3690.2878 14210.652 0
96.396576 3768.178 14510.594 0
184.33867 3803.2654 14645.709 0
271.63464 3806.7893 14659.279 0
355.71637 3774.4958 14534.923 0
443.82053 3789.1643 14591.408 0
535.65546 3825.6829 14732.035 0
631.76953 3878.2083 14934.301 0
726.86188 3912.2932 15065.557 0
819.55933 3927.425 15123.826 0
907.04822 3917.0725 15083.961 0
1003.3221 3943.1082 15184.219 0
1106.7673 3990.7039 15367.503 0
1209.5105 4028.7056 15513.84 0
1321.0994 4088.6997 15744.867 0
1428.6599 4129.1143 15900.496 0
1524.1825 4131.8804 15911.149 0
1619.2664 4133.2041 15916.246 0
1734.2948 4182.4805 16106 0
1847.0398 4221.3823 16255.806 0
1949.098 4233.207 16301.34 0
2073.116 4289.3472 16517.525 0
2204.1643 4354.2993 16767.645 0
2323.2153 4390.957 16908.807 0
2466.8987 4469.1997 17210.105 0
2602.6179 4527.3589 17434.066 0
2727.0037 4562.104 17567.865 0
2848.5864 4589.771 17674.404 0
2995.1482 4654.2852 17922.838 0
3243.7581 4867.499 18743.887 0
3387.6423 4914.6235 18925.355 0
3489.0879 4899.1299 18865.691 65536
3654.9951 4972.2959 19147.441 65536
0 0 0 0
0 0 0 0
0 0 0 0
4252.9365 5144.9775 19812.408 196608
4408.9053 5189.9648 19985.646 262144
0 0 0 0
4629.6104 5171.1348 19913.135 262144
0 0 0 0
0 0 0 0
0 0 0 0
0 0 0 0
0 0 0 0
0 0 0 0
0 0 0 0
0 0 0 0
0 0 0 0
0 0 0 0
0 0 0 0
0 0 0 0
0 0 0 0
6309.1333 5189.7363 19984.766 458752
6408.021 5173.6787 19922.932 458752
6386.9443 5063.105 19497.131 458752
6584.2959 5126.5405 19741.41 458752
0 0 0 0
6757.1328 5080.061 19562.426 393216
0 0 0 0
0 0 0 0
0 0 0 0
7171.0317 5044.0713 19423.836 262144
7216.3101 4995.4995 19236.795 262144
6905.6587 4705.8936 18121.572 262144
7326.9741 4916.3247 18931.906 262144
7466.0298 4933.8613 18999.436 262144
7603.1396 4949.6084 19060.076 262144
7742.0698 4966.0615 19123.434 327680
7739.272 4892.4434 18839.943 327680
7959.7754 4960.0732 19100.375 393216
7843.2495 4818.7378 18556.115 393216
7904.645 4789.1172 18442.053 393216
7989.8516 4774.5361 18385.902 393216
8016.7456 4725.9717 18198.891 393216
8001.6226 4654.2612 17922.746 393216
8019.1348 4603.168 17725.994 393216
8040.9253 4555.8242 17543.682 393216
8078.2666 4518.3901 17399.529 393216
8085.6323 4465.3481 17195.275 458752
8009.8467 4368.2827 16821.492 458752
8068.6792 4346.1211 16736.152 458752
8068.8428 4293.2827 16532.68 458752
8050.7441 4232.1157 16297.137 524288
8085.4697 4199.8413 16172.854 458752
8008.042 4110.7544 15829.795 458752
8024.8906 4071.5684 15678.896 458752
8035.7217 4030.2642 15519.842 458752
8068.1704 4000.6167 15405.674 458752
8113.5664 3977.9822 15318.514 524288
8121.8062 3937.8357 15163.915 458752
8104.2056 3886.1787 14964.993 458752
8115.5713 3849.3823 14823.298 458752
8098.1313 3799.8601 14632.597 458752
8069.5166 3746.2024 14425.971 458752
8082.0479 3712.574 14296.473 524288
8099.751 3681.9961 14178.723 524288
8092.7666 3640.9414 14020.628 524288
8072.627 3594.8652 13843.196 393216
8065.7231 3555.553 13691.812 393216
8075.4165 3524.2698 13571.346 327680
8083.6016 3492.9531 13450.752 262144
8063.5171 3450.1545 13285.941 196608
8059.0962 3414.823 13149.886 196608
8052.0103 3379.0515 13012.136 196608
8047.6782 3345.1055 12881.416 262144
8032.728 3307.4272 12736.323 393216
8037.7812 3278.6116 12625.36 393216
8056.1035 3255.6924 12537.101 393216
8084.5063 3237.2285 12466.001 393216
8104.1841 3215.6387 12382.861 393216
8093.0786 3182.3328 12254.606 393216
8097.3447 3155.6116 12151.708 393216
8108.9214 3132.1865 12061.502 393216
8121.7583 3109.6545 11974.735 393216
8164.0039 3098.676 11932.459 393216
8219.0469 3092.7021 11909.455 393216
8262.2383 3082.4089 11869.817 393216
8329.1338 3081.0586 11864.617 393216
8375.4189 3072.1707 11830.392 327680
8414.0186 3060.6353 11785.971 327680
8454.0645 3049.8118 11744.291 393216
8494.9014 3039.449 11704.386 458752
8476.9561 3008.3931 11584.795 393216
8529.8809 3002.7856 11563.202 393216
8534.4717 2980.3892 11476.957 393216
8514.3281 2949.7788 11359.082 393216
8169.9717 2808.2104 10813.927 393216
8084.6431 2757.1907 10617.459 262144
7884.1338 2667.9844 10273.941 131072
8185.8789 2748.8057 10585.17 65536
8744.082 2913.8557 11220.748 65536
8304.8457 2746.5383 10576.438 0
8847.7002 2904.0874 11183.133 0
8938.4404 2911.9956 11213.586 65536
9007.4678 2912.7659 11216.552 65536
9105.123 2922.7141 11254.86 0
9179.4639 2925.0879 11264.001 0
11387.371 3602.3779 13872.127 0
11659.761 3662.0344 14101.853 0
11662.116 3636.6328 14004.037 0
11788.532 3650.0046 14055.528 0
11728.836 3605.968 13885.952 0
11716.635 3577.0471 13774.582 0
11676.789 3540.1467 13632.485 0
11662.918 3511.5752 13522.462 0
11598.827 3468.3774 13356.115 0
9776.9795 2903.7212 11181.723 0
9770.1738 2882.1094 11098.499 0
9788.7705 2868.2305 11045.054 0
9348.0732 2720.8547 10477.535 0
9380.4766 2712.2188 10444.279 0
9766.6709 2805.3169 10802.784 0
9605.5791 2741.0269 10555.215 0
9663.9766 2739.7976 10550.481 0
9988.1455 2813.4465 10834.09 0
10065.677 2817.124 10848.252 0
9691.7197 2695.1992 10378.74 0
9751.4277 2694.6531 10376.638 0
9820.2646 2696.6206 10384.214 0
10120.192 2761.624 10634.531 0
10271.345 2785.4746 10726.375 0
9595.6348 2586.178 9958.9189 0
9456.6816 2533.1025 9754.5352 0
0 0 0 0
0 0 0 0
0 0 0 0
-6721.1777 1964.8582 7397.0303 0
-6668.8691 1962.4022 7387.7852 0
-6623.8882 1962.0845 7386.5889 0
-6573.9585 1960.2867 7379.8208 0
-6805.4863 2042.9567 7691.0449 0
-6905.4082 2086.9697 7856.7397 0
-6730.4673 2047.9471 7709.833 0
-7009.5952 2147.5007 8084.6191 0
-8016.6338 2472.9751 9309.9199 0
-7797.0986 2421.9695 9117.9014 0
-7777.0503 2432.6492 9158.1064 0
-7730.6304 2435.1724 9167.6055 0
-6789.4697 2153.8848 8108.6523 0
-7536.8384 2408.0718 9065.5811 0
-7540.9248 2426.7258 9135.8076 0
-6200.1704 2009.7318 7565.9648 0
-7424.6196 2424.208 9126.3291 0
-6936.2158 2281.4067 8588.7295 0
-6667.1626 2209.1699 8316.7822 0
-7326.2832 2445.7021 9207.2471 0
-7278.1504 2447.9185 9215.5898 0
-7232.5737 2451.0344 9227.3203 0
-7187.0142 2454.2036 9239.252 0
-7138.0234 2456.2412 9246.9229 0
-7090.2212 2458.7224 9256.2637 0
-7049.1196 2463.5847 9274.5684 0
-7062.5918 2487.7463 9365.5293 0
-6975.7461 2476.6753 9323.8496 0
-6922.3647 2477.4028 9326.5889 0
-6877.3633 2481.1655 9340.7539 0
-6843.5093 2489.0439 9370.4141 0
-6783.1211 2487.3218 9363.9307 0
-6753.0024 2496.7625 9399.4717 0
-6727.0322 2507.9072 9441.4277 0
-6674.4321 2509.2285 9446.4014 0
-6631.4521 2514.219 9465.1895 0
-6579.9346 2516.0303 9472.0078 0
-6537.8726 2521.5198 9492.6748 0
-6497.1353 2527.6204 9515.6416 0
-6449.0479 2530.9434 9528.1514 0
-6404.9146 2535.8909 9546.7764 0
-6353.0923 2537.8552 9554.1719 0
-6305.1914 2541.4353 9567.6504 0
-6252.9009 2543.2959 9574.6543 0
-6203.3032 2546.2954 9585.9463 0
-6160.4351 2552.1387 9607.9443 0
-6109.4058 2554.6785 9617.5059 0
-6143.3291 2593.1252 9762.2451 0
-6034.292 2571.3855 9680.4023 0
-6061.9941 2608.0566 9818.457 0
-5970.4902 2593.656 9764.2432 0
-5890.688 2584.106 9728.291 0
-5842.1304 2588.2092 9743.7373 0
-5791.2812 2591.3687 9755.6318 0
-5753.6899 2600.5847 9790.3271 0
-5711.2153 2607.7588 9817.3359 0
-5663.8794 2612.8391 9836.4609 0
-5616.1719 2617.8518 9855.332 0
-5564.687 2621.1909 9867.9023 0
-5514.6074 2625.2703 9883.2598 0
-5463.1978 2628.7969 9896.5371 0
-5414.5854 2633.7617 9915.2275 0
-5366.8208 2639.252 9935.8975 0
-5312.4097 2641.5601 9944.5859 0
-5266.4663 2648.1777 9969.499 0
-5217.3359 2653.3252 9988.8779 0
-5165.6606 2657.2822 10003.774 0
-5117.7461 2663.2883 10026.386 0
-5067.5376 2668.228 10044.982 0
-5016.5205 2672.8547 10062.4 0
-4964.2295 2676.9062 10077.652 0
-4911.2397 2680.6753 10091.842 0
-4857.9053 2684.3472 10105.665 0
-4808.457 2690.2852 10128.02 0
-4759.2622 2696.5173 10151.481 0
-4709.9146 2702.822 10175.216 0
-4655.4517 2706.3169 10188.373 0
-4601.9692 2710.4812 10204.051 0
-4553.9365 2718.0093 10232.392 0
-4503.2046 2724.1086 10255.354 0
-4451.8809 2730.0125 10277.579 0
-4401.7417 2736.8171 10303.196 0
-4348.5859 2741.9116 10322.376 0
-4298.6348 2749.2014 10349.819 65536
-4244.8892 2754.2407 10368.791 65536
-4192.2178 2760.136 10390.984 65536
-4146.894 2771.1172 10432.325 65536
-4102.2891 2782.9199 10476.758 65536
-4049.0964 2789.1707 10500.29 65536
-4000.5393 2798.8604 10536.769 65536
-3948.5857 2806.4438 10565.317 65536
-3891.7983 2810.7817 10581.648 65536
-3831.719 2812.8452 10589.417 0
-3782.7385 2823.2612 10628.63 0
-3737.8784 2837.1587 10680.949 0
-3686.0955 2846.1912 10714.953 0
-3628.2297 2850.7612 10732.158 0
-3572.7668 2857.417 10757.215 0
-3517.824 2864.7388 10784.779 0
-3461.8606 2871.4861 10810.18 0
-3410.5464 2882.4177 10851.334 65536
-3357.2566 2892.0688 10887.667 65536
-3302.593 2900.8923 10920.885 65536
-3250.4473 2912.3257 10963.928 65536
-3193.981 2920.2771 10993.861 65536
-3136.2007 2927.3333 11020.426 65536
-3078.9934 2935.2371 11050.182 65536
-3021.1602 2942.8757 11078.938 65536
-2963.5884 2951.115 11109.956 65536
-2907.4768 2961.2173 11147.987 0
-2851.083 2971.4961 11186.685 0
-2793.748 2981.2617 11223.448 0
-2736.0532 2991.1116 11260.53 65536
-2677.5283 3000.5254 11295.97 65536
-2616.209 3007.2112 11321.14 65536
-2563.7405 3024.6921 11386.949 65536
-2485.9573 3012.4448 11340.843 65536
-2225.4773 2771.9563 10435.484 65536
-2173.8062 2785.2178 10485.409 65536
-2324.5139 3066.2163 11543.273 65536
-2264.1023 3077.3533 11585.201 0
-2199.3733 3083.1372 11606.976 0
-2138.7278 3095.2051 11652.407 0
-2078.989 3109.4373 11705.986 0
-2021.7592 3128.5366 11777.89 0
-1970.0376 3157.8359 11888.191 0
-1912.9883 3180.4573 11973.354 0
-1852.738 3199.2993 12044.287 0
-1791.9653 3218.7173 12117.389 0
-1729.1415 3235.9233 12182.163 0
-1666.7761 3255.5281 12255.969 0
-1603.6946 3275.4622 12331.014 0
-1544.4608 3305.5405 12444.25 65536
-1481.6816 3330.675 12538.872 65536
-1420.4854 3362.2183 12657.622 65536
-1358.2729 3394.7498 12780.093 65536
-1292.2462 3421.0376 12879.058 65536
-1225.1227 3447.5491 12978.863 65536
-1157.0089 3474.6499 13080.889 65536
-1087.7722 3502.0396 13184.002 65536
-1016.1193 3525.2988 13271.564 65536
-943.10791 3547.3625 13354.629 65536
-867.58459 3563.166 13414.123 65536
-787.94537 3563.5527 13415.579 65536
-708.52832 3565.1445 13421.571 65536
-632.18085 3584.5457 13494.609 65536
-616.35095 4002.5857 15068.39 65536
-517.54291 3932.293 14803.762 131072
-401.61569 3676.4927 13840.759 0
-320.60864 3690.9216 13895.079 65536
-239.24382 3709.8152 13966.207 65536
-157.10724 3730.4585 14043.923 65536
-73.822868 3739.7546 14078.92 65536
9.9602041 3780.4417 14232.093 0
96.52961 3859.7385 14530.619 0
184.38312 3891.248 14649.24 0
271.76706 3895.8132 14666.427 0
356.24399 3866.6086 14556.482 0
444.56564 3882.3928 14615.904 0
536.27991 3917.802 14749.208 0
633.21765 3976.0605 14968.532 0
739.42572 4071.0051 15325.966 0
830.81506 4072.4846 15331.536 0
913.92218 4037.0864 15198.273 0
1006.2435 4045.0969 15228.431 0
1128.2949 4161.438 15666.415 0
1223.8018 4169.6011 15697.147 0
1350.6343 4275.7773 16096.864 0
1451.8116 4292.061 16158.168 0
1553.6823 4308.2466 16219.102 0
1630.0928 4256.0669 16022.661 0
1748.6643 4313.6514 16239.446 0
1865.9301 4362.1577 16422.059 0
1981.3486 4401.7388 16571.068 0
2092.7676 4429.1069 16674.1 0
2268.8232 4584.6113 17259.521 0
2382.8169 4606.6787 17342.598 0
2501.2659 4635.1729 17449.867 0
2645.9963 4708.1611 17724.645 0
2779.3235 4756.0474 17904.92 0
2915.4438 4805.0049 18089.229 0
3053.332 4853.2905 18271.008 0
3267.0586 5014.6655 18878.529 0
3444.4109 5111.3452 19242.498 0
3497.7209 5023.6548 18912.371 65536
0 0 0 0
3863.4729 5213.8657 19628.453 196608
3982.9055 5217.5 19642.133 196608
4123.437 5247.7783 19756.123 196608
0 0 0 0
0 0 0 0
4530.8804 5312.4907 19999.742 196608
4609.8271 5266.8818 19828.041 196608
4708.9976 5246.0781 19749.721 196608
4845.2969 5266.6431 19827.141 196608
4964.9795 5268.5986 19834.504 196608
5098.9629 5285.2876 19897.33 131072
0 0 0 0
0 0 0 0
0 0 0 0
0 0 0 0
0 0 0 0
0 0 0 0
0 0 0 0
0 0 0 0
6115.4473 5244.2744 19742.932 327680
6289.8433 5292.2822 19923.664 393216
6262.7056 5172.0781 19471.137 393216
6374.895 5169.2124 19460.348 393216
6473.8882 5155.939 19410.377 393216
6687.0259 5232.4458 19698.4 196608
6863.9951 5278.5059 19871.801 131072
0 0 0 0
0 0 0 0
7111.2056 5200.1841 19576.945 196608
7174.5356 5162.0347 19433.326 262144
7225.6587 5116.4507 19261.717 262144
7229.585 5039.3892 18971.607 262144
7285.5986 5000.4458 18824.998 262144
0 0 0 0
7977.6421 5312.2681 19998.904 262144
7986.814 5240.2998 19727.967 327680
8037.3315 5197.1484 19565.518 327680
8282.1729 5279.0908 19874.004 393216
8347.9287 5246.1841 19750.121 327680
7846.3149 4862.5762 18305.965 393216
7857.689 4803.0249 18081.775 393216
7880.3696 4751.8989 17889.303 393216
7933.7739 4720.4146 17770.773 393216
7913.1943 4646.3159 17491.818 393216
7951.1875 4608.085 17347.891 393216
7986.8799 4569.5171 17202.695 393216
7989.8125 4513.4175 16991.5 458752
7974.5601 4448.5742 16747.387 458752
8000.9697 4408.2837 16595.707 458752
8006.3735 4357.543 16404.684 393216
8136.2749 4374.9658 16470.277 458752
8169.1348 4340.415 16340.204 458752
7974.145 4187.0376 15762.789 458752
7985.8027 4144.4673 15602.527 458752
7993.0967 4100.6362 15437.518 458752
8019.5278 4067.5063 15312.794 458752
8056.981 4040.6477 15211.681 458752
8064.0947 3999.3376 15056.163 458752
8062.2788 3954.5554 14887.572 458752
8060.6406 3910.8313 14722.966 458752
8055.1714 3866.2075 14554.972 524288
8053.2544 3824.219 14396.898 524288
8042.8174 3779.1094 14227.077 524288
8042.0576 3739.4385 14077.729 524288
8051.0859 3705.0894 13948.417 458752
8054.1802 3668.7373 13811.562 458752
8045.8984 3627.9885 13658.158 393216
8046.4341 3591.9905 13522.638 393216
8036.1846 3551.938 13371.853 327680
8059.1475 3527.2051 13278.741 262144
8078.0435 3501.1895 13180.802 262144
8080.77 3468.7327 13058.612 196608
8057.1729 3425.7009 12896.613 327680
8034.8799 3384.0298 12739.735 393216
8034.0474 3352.0911 12619.496 393216
8045.5244 3325.8311 12520.637 393216
8069.7935 3305.292 12443.314 393216
8070.7095 3275.6482 12331.714 393216
8071.084 3246.3196 12221.302 393216
8071.1899 3217.4072 12112.457 393216
8076.4263 3191.0332 12013.168 393216
8082.8545 3165.5881 11917.376 393216
8115.105 3150.6101 11860.989 393216
8178.98 3148.0627 11851.398 458752
8214.0996 3134.5852 11800.66 393216
8196.5742 3101.4163 11675.79 393216
8314.1738 3119.5034 11743.883 393216
8277.8408 3080.0142 11595.219 524288
8359.3535 3084.6631 11612.72 720896
8399.7109 3074.1736 11573.23 786432
8469.0166 3074.3633 11573.944 851968
8452.0479 3043.4832 11457.691 655360
8445.8867 3016.9575 11357.831 524288
8458.2471 2997.4158 11284.264 393216
8451.5713 2971.4885 11186.656 393216
8495.165 2963.5027 11156.592 262144
8482.583 2936.1958 11053.79 196608
8060.0835 2768.5085 10422.504 65536
8241.5098 2809.2354 10575.827 65536
8295.502 2806.2371 10564.539 0
8407.2295 2822.668 10626.396 0
8831.0781 2942.8647 11078.896 0
8865.7314 2932.5471 11040.055 0
10547.536 3463.2124 13037.83 0
11014.307 3590.0984 13515.514 0
10922.809 3534.4976 13306.195 0
11098.783 3565.625 13423.38 0
11206.188 3574.4368 13456.554 0
11496.021 3640.8997 13706.765 0
11584.662 3643.1572 13715.262 0
11466.222 3580.7146 13480.187 0
11487.523 3562.4749 13411.521 0
11477.462 3534.8271 13307.437 0
11422.058 3493.6887 13152.564 0
9799.8369 2977.1218 11207.863 0
10912.714 3292.8237 12396.375 0
9644.7637 2890.7136 10882.565 0
9745.1455 2901.3433 10922.582 0
9585.9971 2835.0759 10673.107 0
9616.7402 2825.4707 10636.948 0
9424.6738 2750.9561 10356.425 0
9591.1162 2781.3735 10470.937 0
9625.1904 2773.2607 10440.395 0
9684.043 2772.345 10436.947 0
9579.6484 2725.0042 10258.725 0
9624.4834 2720.4429 10241.554 0
9700.6602 2724.7427 10257.74 0
9993.3076 2789.4116 10501.197 0
10095.594 2800.4727 10542.838 0
9541.1914 2630.3582 9902.415 0
9379.0146 2569.7971 9674.4229 0
0 0 0 0
0 0 0 0
0 0 0 0
-6984.4189 2087.4988 7686.7422 0
-6836.5117 2056.7451 7573.4995 0
-6828.916 2068.0764 7615.2241 0
-6948.3384 2118.2817 7800.0942 0
-6912.3599 2121.4673 7811.8242 0
-7788.9038 2406.6516 8861.9512 0
-7907.2495 2459.8525 9057.8516 0
-6707.4697 2100.9185 7736.1577 0
-6755.9897 2130.7217 7845.9014 0
-6716.624 2133.0291 7854.3975 0
-7736.7798 2474.2004 9110.6846 0
-7695.3105 2478.2839 9125.7207 0
-6482.9102 2102.6484 7742.5278 0
-7572.2637 2473.5237 9108.1924 0
-7528.147 2476.8191 9120.3271 0
-7494.5303 2483.6421 9145.4512 0
-6164.8242 2057.9106 7577.7915 0
-7416.1519 2493.8416 9183.0078 0
-7370.4595 2496.8516 9194.0918 0
-7251.9312 2475.0481 9113.8057 0
-7276.6719 2502.1812 9213.7178 0
-7153.228 2478.3843 9126.0908 0
-7183.9653 2508.0515 9235.333 0
-7132.0664 2509.1033 9239.2061 0
-7094.8481 2515.3762 9262.3047 0
-7057.8608 2521.8301 9286.0693 0
-5925.5239 2133.9233 7857.6909 0
-6958.9556 2525.9954 9301.4072 0
-6912.1206 2529.0857 9312.7871 0
-6863.5469 2531.585 9321.9893 0
-6820.9512 2536.3474 9339.5264 0
-6844.3086 2565.9138 9448.3984 0
-6776.2637 2561.4197 9431.8496 0
-6718.5845 2560.801 9429.5713 0
-6681.2832 2568.0046 9456.0977 0
-6627.4624 2568.9275 9459.4951 0
-6585.8896 2574.6536 9480.5811 0
-6538.6729 2578.2537 9493.8369 0
-6494.2656 2583.0334 9511.4375 0
-6448.6943 2587.4307 9527.6289 0
-6398.1689 2589.8999 9536.7217 0
-6365.7148 2599.7939 9573.1543 0
-6305.1841 2598.2964 9567.6396 0
-6258.6387 2602.5872 9583.4395 0
-6226.1606 2612.8601 9621.2676 0
-6155.626 2607.2051 9600.4434 0
-6105.165 2610.0256 9610.8301 0
-6194.1548 2673.0791 9843.0107 0
-6121.2134 2666.7878 9819.8447 0
-6062.6362 2666.6936 9819.4971 0
-5981.7305 2656.6807 9782.626 0
-6072.7168 2723.563 10028.906 0
-5908.6846 2676.2644 9854.7393 0
-5794.5391 2650.8401 9761.1201 0
-5750.5073 2657.301 9784.9111 0
-5813.6602 2713.9299 9993.4346 0
-5709.752 2692.9355 9916.127 0
-5607.4165 2672.2529 9839.9678 0
-5557.6978 2676.4734 9855.5088 0
-5509.5601 2681.553 9874.2139 0
-5457.0151 2684.5742 9885.3379 0
-5406.2764 2688.5591 9900.0117 0
-5361.5366 2695.6477 9926.1143 0
-5314.1313 2701.5396 9947.8086 0
-5262.4316 2705.3557 9961.8613 0
-5213.4102 2710.6514 9981.3613 0
-5164.9409 2716.3596 10002.381 0
-5115.8467 2721.8679 10022.664 0
-5063.729 2725.8787 10037.433 0
-5012.9365 2730.707 10055.212 0
-4958.7964 2733.8059 10066.623 0
-4907.7095 2738.6846 10084.588 0
-4860.9951 2746.1543 10112.093 0
-4810.938 2751.8984 10133.245 0
-4761.6909 2758.2578 10156.662 0
-4709.6523 2763.1426 10174.648 0
-4659.1729 2769.0811 10196.516 0
-4607.0649 2774.1956 10215.349 0
-4559.5527 2782.251 10245.011 0
-4510.6382 2789.6572 10272.282 0
-4458.5728 2795.2908 10293.027 0
-4408.7314 2802.4956 10319.558 0
-4355.9326 2807.9966 10339.813 0
-4303.0161 2813.5784 10360.367 0
-4247.3945 2817.5278 10374.91 65536
-4192.3306 2821.969 10391.264 65536
-4136.3315 2825.9041 10405.754 65536
-4085.9463 2833.8521 10435.021 65536
-4032.6951 2840.0271 10457.758 65536
-3984.2454 2849.8293 10493.853 65536
-3931.1638 2856.5776 10518.702 65536
-3884.9817 2868.6387 10563.114 65536
-3823.1145 2869.324 10565.638 0
-3774.6069 2880.2261 10605.782 0
-3731.103 2895.3816 10661.589 0
-3679.8391 2904.9348 10696.767 0
-3621.8347 2909.4092 10713.242 0
-3569.6082 2918.7683 10747.705 0
-3517.9226 2928.9187 10785.082 0
-3463.7993 2937.3787 10816.233 0
-3410.2095 2946.6199 10850.262 65536
-3356.5193 2956.1284 10885.275 65536
-3299.0701 2962.6355 10909.236 65536
-3241.9451 2969.6997 10935.249 65536
-3183.938 2976.2292 10959.292 65536
-3125.8855 2982.988 10984.18 65536
-3069.6497 2991.8054 11016.647 65536
-3012.146 2999.7446 11045.882 65536
-2954.8237 3008.2222 11077.099 65536
-2897.4214 3017.0032 11109.433 65536
-2839.1606 3025.2786 11139.905 65536
-2779.5378 3032.4634 11166.361 65536
-2722.3069 3042.6729 11203.955 65536
-2673.1274 3062.6191 11277.403 65536
-2612.6741 3070.3423 11305.843 65536
-2549.1379 3074.7554 11322.092 65536
-2490.2839 3085.2078 11360.581 65536
-2434.2856 3099.8794 11414.606 65536
-2373.3291 3108.8979 11447.814 65536
-2318.239 3126.3596 11512.113 0
-2256.4558 3135.5828 11546.075 0
-2195.9321 3147.1899 11588.815 0
-2134.9626 3158.8887 11631.894 0
-2074.8745 3172.7183 11682.818 0
-2017.3682 3191.5898 11752.31 0
-1968.6632 3226.2393 11879.897 0
-1910.3373 3247.1128 11956.76 0
-1850.5983 3267.105 12030.377 0
-1790.6263 3288.2764 12108.335 0
-1727.9736 3306.0916 12173.935 0
-1665.1696 3325.1614 12244.156 0
-1602.157 3345.5386 12319.19 0
-1540.8541 3371.6091 12415.189 65536
-1480.0552 3401.46 12525.108 65536
-1420.7864 3438.1755 12660.305 65536
-1357.6711 3469.1687 12774.431 65536
-1291.0111 3494.2395 12866.748 65536
-1225.0343 3524.4326 12977.927 65536
-1156.0979 3549.5967 13070.588 65536
-1087.1401 3578.3157 13176.34 65536
-1015.6774 3602.6086 13265.793 65536
-942.94745 3626.1172 13352.357 65536
-867.58563 3642.8953 13414.139 65536
-788.35675 3645.1882 13422.583 65536
-709.32837 3649.0295 13436.728 0
-633.03864 3669.7209 13512.919 262144
-556.82166 3696.9087 13613.031 131072
-479.41101 3724.0684 13713.04 196608
-401.83267 3760.7837 13848.236 65536
-321.12537 3779.5867 13917.474 65536
-249.48947 3955.2493 14564.312 65536
-157.31328 3818.9282 14062.341 65536
-73.897156 3827.2783 14093.088 0
9.9946995 3878.4136 14281.382 0
96.899292 3961.2119 14586.268 0
185.13411 3994.5173 14708.907 0
272.68219 3996.3928 14715.813 0
357.11322 3962.7683 14591.999 0
445.44714 3977.1311 14644.887 0
537.61346 4015.4219 14785.885 0
634.29022 4071.9092 14993.887 0
740.53381 4168.3296 15348.933 0
837.12433 4195.2236 15447.964 0
912.05798 4118.9956 15167.272 0
1007.5081 4140.8018 15247.568 0
1117.5923 4214.1919 15517.81 0
1216.1134 4236.1138 15598.532 0
1384.0454 4479.5845 16495.059 0
1496.8712 4524.2876 16659.666 0
1597.9318 4530.0889 16681.029 0
1671.3425 4461.4053 16428.117 0
1782.597 4495.7466 16554.572 0
1872.9773 4476.6035 16484.082 0
1958.9939 4449.4526 16384.104 0
2091.3176 4525.0698 16662.547 0
2240.5171 4628.7129 17044.189 0
2294.5696 4535.3267 16700.316 0
2400.4951 4547.9634 16746.848 0
2552.0549 4642.6099 17095.363 0
2698.9548 4721.8564 17387.17 0
2793.7332 4707.4336 17334.061 0
2920.5337 4746.0742 17476.348 0
3034.623 4762.1147 17535.412 0
3359.4314 5096.7832 18767.754 197891
3520.697 5169.7959 19036.605 0
3783.5159 5382.7397 19820.723 1381651
0 0 0 0
0 0 0 0
0 0 0 0
0 0 0 0
0 0 0 0
0 0 0 0
4612.3745 5387.7026 19838.998 196608
4700.832 5354.1567 19715.473 196608
4841.7119 5380.4985 19812.471 196608
4958.4194 5379.3647 19808.297 196608
5083.3306 5386.978 19836.33 196608
5197.644 5383.269 19822.672 65536
5354.7227 5423.0361 19969.105 65536
5466.6323 5416.3247 19944.393 65536
5577.7617 5409.1416 19917.943 196608
5697.0703 5410.0239 19921.191 196608
0 0 0 0
0 0 0 0
0 0 0 0
6095.0596 5343.7388 19677.111 327680
6206.8389 5339.293 19660.74 393216
0 0 0 0
6302.7837 5225.0908 19240.217 393216
6439.6514 5243.4248 19307.727 393216
6583.3638 5266.5923 19393.037 262144
6722.5732 5285.4224 19462.373 196608
6805.8696 5260.3989 19370.23 196608
6930.0537 5267.2852 19395.588 196608
7065.8125 5282.5991 19451.979 262144
7153.1973 5261.8369 19375.527 262144
7201.2935 5213.29 19196.764 262144
7213.874 5140.9478 18930.379 262144
7260.9868 5095.0581 18761.402 262144
7527.9341 5202.4829 19156.969 262144
7504.9897 5109.3501 18814.027 262144
7608.5288 5103.7964 18793.578 262144
7633.5527 5046.4971 18582.586 262144
7728.043 5036.1016 18544.307 262144
7822.6982 5026.1045 18507.494 262144
7845.9692 4971.1558 18305.158 196608
5952.2241 3719.7126 13697.002 196608
8008.1997 4937.0278 18179.49 196608
7970.5156 4848.3818 17853.07 262144
7953.5996 4774.5312 17581.133 262144
8067.2324 4779.9478 17601.078 262144
8051 4709.2642 17340.801 196608
7978.3999 4607.8125 16967.229 393216
7955.3389 4537.147 16707.02 393216
7964.4873 4486.3672 16520.035 393216
7957.1626 4427.6587 16303.853 393216
7937.604 4363.6367 16068.106 393216
7916.2754 4300.1758 15834.426 393216
7917.4023 4250.2603 15650.623 393216
7925.8369 4205.3813 15485.367 393216
7943.1016 4166.1641 15340.959 393216
7963.9097 4129.6748 15206.596 458752
7992.1787 4097.8296 15089.332 458752
8003.8574 4058.2793 14943.697 458752
7976.6011 4000.072 14729.362 458752
7978.1064 3957.3953 14572.214 458752
7969.4238 3910.636 14400.033 524288
7974.1362 3871.3733 14255.458 524288
7989.6392 3838.1201 14133.01 524288
7986.7383 3796.8093 13980.894 458752
8015.6235 3771.3049 13886.979 458752
8145.3521 3793.2827 13967.907 458752
7899.0605 3641.4719 13408.897 393216
7975.8691 3640.155 13404.049 393216
7841.6929 3543.5239 13048.228 393216
7989.125 3574.7935 13163.369 393216
7993.3931 3542.0173 13042.68 327680
7918.5415 3475.1484 12796.449 393216
7990.0947 3473.1924 12789.246 393216
8046.5259 3464.7612 12758.201 458752
7291.748 3110.4495 11453.527 655360
7923.5137 3348.6807 12330.761 655360
7996.1348 3348.4021 12329.735 786432
8042.9414 3337.4172 12289.285 786432
8033.5005 3303.4998 12164.393 655360
8040.3447 3276.825 12066.168 655360
8054.9253 3253.7466 11981.187 458752
8071.5728 3231.8999 11900.741 458752
8068.1479 3202.4658 11792.357 524288
8092.9961 3184.6646 11726.808 524288
8142.1792 3176.6606 11697.336 524288
8202.1445 3172.9644 11683.725 589824
8231.9219 3157.7498 11627.7 655360
8269.5068 3145.7583 11583.545 720896
8305.5996 3133.4021 11538.045 917504
8336.4189 3119.2751 11486.026 1114112
8357.3848 3101.7202 11421.385 1048576
8359.2197 3077.4058 11331.852 917504
8385.0527 3062.2441 11276.022 655360
8401.998 3044.1028 11209.221 458752
8416.3311 3025.3074 11140.012 393216
8459.8359 3017.2102 11110.195 196608
8505.4287 3009.9773 11083.562 196608
8560.7129 3006.2585 11069.868 65536
8655.6436 3016.4131 11107.26 65536
8702.7939 3009.8889 11083.236 0
8789.6582 3017.0947 11109.771 0
9095.6904 3098.8628 11410.862 0
10227.718 3458.7512 12736.069 0
10492.429 3522.2014 12969.712 0
10693.877 3563.6453 13122.318 0
10663.646 3527.842 12990.481 0
11115.055 3650.7493 13443.06 0
10937.009 3566.6326 13133.318 0
11148.513 3609.8425 13292.43 0
11183.063 3595.551 13239.804 0
9303.6191 2970.3755 10937.737 0
9335.8398 2959.9807 10899.46 0
9383.9336 2954.7266 10880.113 0
9488.6924 2967.2649 10926.283 0
9488.9268 2947.1685 10852.282 0
9529.832 2939.8899 10825.48 0
9550.5635 2926.5273 10776.276 0
9564.6416 2911.3179 10720.271 0
9618.0703 2908.2078 10708.818 0
9175.3848 2756.1152 10148.771 0
9240.0879 2757.4236 10153.59 0
9283.4951 2752.4014 10135.097 0
9343.4639 2752.3228 10134.807 0
9423.6504 2758.1624 10156.31 0
9477.1787 2756.1748 10148.991 0
9508.9727 2747.9314 10118.637 0
9556.2109 2744.2271 10104.996 0
9919.96 2830.8923 10424.122 0
9931.333 2816.5476 10371.301 0
9377.4922 2643.0725 9732.5176 0
9306.5488 2606.9958 9599.6738 0
0 0 0 0
0 0 0 0
0 0 0 0
-7233.7334 2209.3293 7961.1265 0
-8619.0244 2649.7573 9548.1709 0
-7203.3257 2229.2043 8032.7451 0
-8344.7734 2599.6768 9367.71 0
-8409.3037 2637.3762 9503.5566 0
-8362.0713 2640.2969 9514.0811 0
-8154.1758 2592.1833 9340.708 0
-7921.1602 2535.3699 9135.9854 0
-6533.9946 2105.8069 7588.0933 0
-6408.8257 2079.822 7494.459 0
-6386.2119 2086.9883 7520.2817 0
-6443.9697 2120.7058 7641.7798 0
-7223.8398 2394.2354 8627.4199 0
-6404.3359 2137.7971 7703.3667 0
-6334.1396 2129.5894 7673.791 0
-6291.6948 2130.6604 7677.6504 0
