# .PCD v0.7 - Point Cloud Data file format
VERSION 0.7
FIELDS x y z rgb
SIZE 4 4 4 4
TYPE F F F U
COUNT 1 1 1 1
WIDTH 1368
HEIGHT 1
VIEWPOINT 0 0 0 1 0 0 0
POINTS 1368
DATA ascii
-4098.2544 4187.8071 8319.6768 0
-4031.5247 4169.9312 8284.1631 0
-3993.4604 4181.6284 8307.4023 0
-3956.2991 4194.5767 8333.125 0
-3899.9246 4187.2241 8318.5186 0
-3852.4153 4189.3232 8322.6895 0
-3808.6641 4195.6172 8335.1934 0
-3780.5417 4219.521 8382.6807 0
-3731.7368 4220.6699 8384.9639 0
-3688.1731 4227.8589 8399.2451 0
-3644.1274 4234.6846 8412.8057 0
-3600.8914 4242.6543 8428.6387 256
-3535.4868 4224.3608 8392.2959 256
-3517.4685 4262.9731 8469.0049 256
-3465.2876 4260.7031 8464.4951 512
-3435.2637 4286.0098 8514.7705 512
-3355.0857 4248.563 8440.377 512
-3338.5154 4291.7485 8526.1709 512
-3273.2122 4272.6519 8488.2334 331017
-3186.3264 4224.3447 8392.2637 67846
-3174.8784 4276.105 8495.0928 397068
-3124.3894 4276.105 8495.0928 659984
-3073.9001 4276.105 8495.0928 1541
-3001.4197 4245.002 8433.3027 67847
-2668.4844 3838.2173 7625.167 770
-2719.2134 3978.7549 7904.3647 923929
-2795.2939 4161.9805 8268.3682 990237
-2684.4736 4068.5022 8082.6606 661787
-2495.8171 3851.5027 7651.5596 925218
-2500.9143 3930.9937 7809.4805 1122344
-2431.9556 3894.8882 7737.752 1977654
-2401.4316 3920.1326 7787.9028 1845809
-2331.3713 3880.5608 7709.2876 398104
-2285.542 3880.543 7709.2524 266002
-2237.9583 3877.4846 7703.1772 1121055
-2148.6667 3800.5269 7550.2891 595738
-2169.3076 3918.8801 7785.415 134933
-2076.1155 3832.27 7613.3516 266519
-2036.3859 3842.6848 7634.042 199699
-1962.8506 3788.3289 7526.0562 67855
-1916.0558 3784.2507 7517.9541 1548
-1859.0968 3759.4238 7468.6323 1290
-1797.8256 3724.4495 7399.1504 199185
-1744.6682 3704.9512 7360.4146 68112
-1733.3959 3775.6843 7500.936 199699
-1639.8302 3666.1687 7283.3672 397078
-1622.1868 3725.0554 7400.3545 330255
-1534.1907 3621.1709 7193.9727 264462
-1504.3146 3652.4434 7256.1001 5
-1443.2424 3607.5833 7166.979 5
-1383.5803 3563.6262 7079.6523 5
-1358.5206 3608.8313 7169.4585 261
-1312.4597 3599.3691 7150.6606 262
-1274.4287 3612.0322 7175.8174 6
-1211.3265 3552.0537 7056.6621 262
-1164.9076 3538.4492 7029.6348 262
-1110.5804 3498.9172 6951.0991 5
-1070.0348 3501.428 6956.0864 518
-1031.1725 3509.8694 6972.8569 260
-977.27563 3465.7014 6885.1108 132873
-897.13123 3320.5234 6596.6938 260
-873.00598 3378.894 6712.6553 593423
-836.94659 3394.4526 6743.5649 922388
-799.63092 3406.2253 6766.9531 726294
-729.69177 3272.9172 6502.1177 660759
-697.13824 3301.7644 6559.4263 4544092
-650.73596 3264.5537 6485.502 3887449
-602.31903 3211.9141 6380.9258 3097935
-559.39441 3183.4561 6324.3901 3623508
-518.4881 3163.2117 6284.1719 3689815
-475.72101 3127.5908 6213.4062 3295313
-433.31967 3088.5815 6135.9082 3032911
-402.21378 3130.3118 6218.8115 4282722
-366.51926 3141.1619 6240.3667 3822170
-330.84735 3154.6709 6267.2041 4807524
-290.46597 3121.0049 6200.3218 923681
-251.16345 3090.832 6140.3794 13
-213.69603 3076.8223 6112.5469 9
-176.59428 3063.417 6085.915 2501943
-139.71086 3047.8682 6055.0254 3622221
-102.6193 3015.4143 5990.5513 396301
-67.52047 3038.1406 6035.7002 859171
-31.726286 3045.635 6050.5889 332313
4.2664413 3068.6438 6096.2993 1978426
40.080883 3036.9739 6033.3823 3030604
75.337883 3012.9199 5985.5957 68376
111.90945 3040.0061 6039.4062 1913920
149.14542 3067.6021 6094.2295 2833739
186.58527 3087.7874 6134.3306 4743021
223.01234 3087.3533 6133.4678 4809841
258.54422 3076.3889 6111.686 4875377
295.66479 3084.7014 6128.1997 4743791
339.26038 3151.3357 6260.5781 4612205
363.99146 3046.8875 6053.0771 3954275
421.99554 3214.698 6386.4565 3691103
461.49832 3225.502 6407.9204 3230039
507.17947 3274.5491 6505.3594 3426648
549.75293 3298.0044 6551.957 1057328
596.49365 3341.7034 6638.7705 2043964
634.95941 3336.4976 6628.4287 1188398
681.9093 3373.8765 6702.687 1319468
719.14514 3361.72 6678.5366 727331
767.89258 3401.8325 6758.2261 791838
786.17816 3309.7166 6575.2246 528150
850.46228 3410.8032 6776.0474 659736
863.36725 3306.0078 6567.8564 595229
914.87299 3351.6951 6658.6206 2438460
952.71051 3345.5955 6646.5029 1648945
1022.8533 3448.9102 6851.752 1978682
1063.7894 3449.6028 6853.1289 2702661
1093.7427 3415.9441 6786.2607 3622991
1127.2606 3395.4163 6745.479 924452
1169.4596 3401.5483 6757.6616 66051
1200.0618 3374.6624 6704.249 462612
1240.5858 3376.509 6707.917 2060
1303.0269 3436.0344 6826.1729 775
1360.6592 3479.668 6912.8569 517
1376.6801 3417.4478 6789.248 517
1419.6226 3423.698 6801.665 132618
1491.7864 3498.124 6949.5229 132617
1538.6763 3510.8708 6974.8467 593685
1593.0577 3539.5947 7031.9102 264979
1644.4727 3560.4265 7073.2959 1251875
1691.6212 3571.2136 7094.7256 1121061
1712.9598 3528.3132 7009.4976 1056041
1742.9856 3504.9182 6963.0205 1122091
1826.7211 3588.1072 7128.2871 1319986
1877.0272 3603.3501 7158.5698 1517879
1914.5083 3593.843 7139.6821 2110017
1966.6948 3611.7537 7175.2642 2505805
2036.1052 3659.8638 7270.8423 2966613
2072.6692 3648.1606 7247.5918 3493212
2088.1846 3600.6399 7153.1851 3428190
2137.4734 3612.0886 7175.9297 3427933
2166.71 3589.8665 7131.7827 3822948
2208.522 3588.9331 7129.9277 3954277
2250.4697 3588.2507 7128.5723 4020070
2282.1875 3571.584 7095.4614 4217449
2353.071 3615.7036 7183.1118 4151915
2392.8596 3611.3223 7174.4072 4151656
2421.7131 3590.8799 7133.7954 4085866
2471.9106 3602.2451 7156.374 4020329
2510.3269 3596.3477 7144.6582 3954792
2620.2065 3691.323 7333.3403 4875636
2608.9976 3615.3936 7182.4956 4611951
2604.5308 3551.1011 7054.7695 4151656
2669.252 3581.6843 7115.5273 3954533
2621.084 3462.1982 6878.1514 4151911
2630.7434 3421.5933 6797.4834 4479850
0 0 0 0
0 0 0 0
0 0 0 0
0 0 0 0
1528.6375 1846.4 3668.1372 526
1542.8926 1837.4137 3650.2847 268
1542.2743 1811.2097 3598.2266 4084830
1616.2462 1872.1211 3719.2361 3887710
1662.5775 1899.8047 3774.2332 4479592
1702.8423 1919.911 3814.1775 4479592
1737.6073 1933.3699 3840.9153 4216934
1764.5834 1937.9257 3849.9661 4544871
1784.2572 1934.4478 3843.0564 5662321
1790.2343 1916.3958 3807.1938 520
1857.1981 1963.2642 3900.3047 261
1881.3562 1964.2844 3902.3315 6
1882.1021 1941.1335 3856.3389 6
0 0 0 0
1773.267 1785.4009 3546.9539 657419
1809.5598 1800.5371 3577.0242 3
1799.0067 1769.2507 3514.8691 4
1838.9264 1787.7507 3551.6221 263
1832.2357 1761.0319 3498.5413 263
1816.962 1726.7559 3430.447 4873830
1841.5355 1730.6891 3438.261 4479848
1905.7939 1771.4229 3519.1843 4479593
1951.6156 1794.3214 3564.6758 4545645
2001.702 1820.6072 3616.896 3558234
2048.2332 1843.1351 3661.6509 4807529
2044.2623 1820.2218 3616.1306 1974317
0 0 0 0
2062.1584 1798.3436 3572.6665 269
0 0 0 0
0 0 0 0
4337.291 3669.0764 7289.144 4348777
4396.376 3682.2793 7315.373 4216934
4575.5737 3794.8411 7538.9932 3822175
4721.3716 3877.7878 7703.7788 3624540
4791.7085 3897.7581 7743.4531 2966097
4911.2817 3957.0186 7861.1821 2505545
5053.9014 4033.5554 8013.2334 1319988
5095.8687 4029.082 8004.3462 857379
5167.3149 4047.7827 8041.4985 2372162
5298.5869 4112.5762 8170.2197 2569028
5403.9668 4156.2778 8257.04 1253168
5368.2583 4091.6572 8128.6611 1252910
5454.6704 4120.438 8185.8389 791064
5343.5127 4000.7864 7948.1338 2306113
5600.061 4156.1274 8256.7402 2635846
5667.6289 4169.7344 8283.7725 3030605
5718.2139 4170.7202 8285.7314 2833225
5595.1646 4046.126 8038.207 2898760
5675.1392 4069.2151 8084.0767 2505025
5701.8247 4054.0273 8053.9038 2833476
5905.7632 4164.0708 8272.5215 2899012
5923.606 4142.1675 8229.0068 1253671
5903.8438 4094.5422 8134.3926 1384229
5801.0264 3990.5564 7927.8101 1778727
5492.7529 3748.0505 7446.0376 593426
5324.2979 3604.0654 7159.9907 66308
0 0 0 0
4950.7017 3298.4495 6552.8408 0
4534.6313 2997.6572 5955.2739 0
4226.8389 2772.5479 5508.062 723203
4209.1343 2739.7158 5442.8364 262144
4150.27 2680.7983 5325.7886 262144
4143.71 2656.3022 5277.1235 196608
4034.3003 2566.7378 5099.1914 1709329
4126.6328 2605.9067 5177.0059 196608
4360.3394 2733.1104 5429.7139 196608
4280.2256 2663.1841 5290.7954 196608
4449.563 2748.356 5460.0015 65536
4528.0918 2776.6108 5516.1338 65536
4667.2271 2841.356 5644.7593 65536
4722.6226 2854.5613 5670.9937 65536
4842.6978 2906.3975 5773.9736 65536
5031.8745 2998.6846 5957.3149 0
5026.2231 2974.3875 5909.0454 0
4835.8242 2841.8574 5645.7559 0
4857.2451 2834.7761 5631.6875 0
4911.8799 2847.0432 5656.0576 0
4951.1602 2850.304 5662.5356 0
4993.7095 2855.3901 5672.6401 0
5067.2422 2878.0054 5717.5684 0
5111.6587 2883.8923 5729.2642 0
5146.5698 2884.3743 5730.2217 0
5123.1152 2852.3545 5666.6094 0
5159.124 2853.6436 5669.1704 0
5195.2734 2854.9929 5671.8511 0
5228.6934 2854.8347 5671.5366 0
4868.2148 2640.9897 5246.7031 0
4890.1147 2635.9858 5236.7622 0
6124.1802 3280.323 6516.8301 0
6183.896 3291.4919 6539.019 0
5268.9868 2786.9998 5536.7729 0
5296.377 2784.0996 5531.0112 0
5324.3447 2781.5374 5525.9209 0
5348.6885 2777.1245 5517.1543 0
0 0 0 0
0 0 0 0
0 0 0 0
-7300.1992 4091.8975 8034.2759 65536
-6932.2515 3911.239 7679.5601 65536
-7427.8223 4218.6206 8283.0908 65536
-6883.0425 3935.2957 7726.7939 65536
-7341.6484 4225.6909 8296.9736 65536
-7264.9863 4209.8428 8265.8564 0
-6498.9141 3791.5654 7444.5854 0
-6480.2837 3806.6125 7474.1299 0
-6430.5957 3803.4978 7468.0142 0
-6395.9761 3809.313 7479.4326 0
-6315.6455 3787.7959 7437.1846 0
-6301.7339 3806.0906 7473.105 0
-6228.8682 3788.7847 7439.126 0
-5933.7231 3635.0615 7137.2964 0
-6009.9673 3708.2795 7281.0571 0
-6095.4771 3788.3181 7438.2095 0
-6056.3374 3791.4912 7444.4395 0
-6625.3682 4178.2495 8203.8242 0
-6670.2593 4237.7466 8320.6445 65536
-6578.623 4210.7466 8267.6309 65536
-6205.9956 4002.1338 7858.0278 65536
-5998.7393 3897.8105 7653.1934 65536
-6021.3994 3942.4282 7740.7988 65536
-5967.6929 3937.3479 7730.8232 65536
-5935.5044 3946.4954 7748.7847 0
-5931.4707 3974.6531 7804.0708 0
-5907.0039 3989.4543 7833.1323 0
-5966.9287 4061.9397 7975.4546 0
-5868.3721 4026.8369 7906.5317 0
-5811.0835 4019.7136 7892.5459 0
-5947.416 4147.4985 8143.4463 0
-5750.0234 4042.7441 7937.7646 0
-5614.0537 3979.7991 7814.1743 0
-5631.0527 4025.1475 7903.2144 0
-5924.5996 4270.6021 8385.1543 0
-5838.5947 4244.3091 8333.5293 0
-5485.5762 4021.8027 7896.6475 0
-5460.3979 4037.8899 7928.2339 256
-5439.5273 4057.47 7966.6787 256
-5706.1514 4293.7266 8430.5586 256
-5542.2749 4207.3584 8260.9785 0
-5273.4033 4039.0281 7930.4688 256
-5225.0581 4038.092 7928.6304 0
-5192.1953 4049.2124 7950.4653 0
-5272.0688 4149.2637 8146.9121 0
-5424.2358 4308.5947 8459.752 256
-5254.749 4213.0195 8272.0938 256
-5073.1123 4105.8062 8061.5845 0
-5021.5728 4102.8428 8055.7661 0
-4967.4189 4097.666 8045.6016 0
-4915.6494 4094.3745 8039.1392 0
-4874.0884 4099.6045 8049.4082 0
-4861.7856 4129.7915 8108.6787 0
-4756.7451 4081.0193 8012.917 0
-4709.8418 4081.6438 8014.1426 0
-4688.6069 4104.7524 8059.5161 0
-4661.7046 4123.3257 8095.9834 0
-4614.9702 4124.5615 8098.4102 0
-4569.1167 4126.6187 8102.4497 0
-4494.7847 4102.7261 8055.5366 0
-4447.1929 4102.9888 8056.0527 0
-4405.8354 4109.0718 8067.9971 0
-4360.98 4111.9902 8073.7275 256
-4300.5518 4100.1274 8050.4346 256
-4266.3867 4113.3179 8076.3335 256
-4225.9316 4120.6758 8090.7803 256
-4192.1973 4134.8311 8118.5737 256
-4149.3472 4140.2202 8129.1553 256
-4097.8418 4136.999 8122.8306 256
-4044.2285 4131.5469 8112.126 0
-3981.9917 4117.0479 8083.6572 0
-3938.0481 4121.3389 8092.083 0
-3921.1958 4154.4395 8157.0737 0
-3884.7166 4167.3135 8182.3516 0
-3831.1299 4161.9292 8171.7803 0
-3775.3914 4154.0391 8156.2886 256
-3740.9414 4169.6724 8186.9834 0
-3701.6572 4180.2578 8207.7676 512
-3671.0347 4201.0391 8248.5703 1282
-3598.314 4173.5537 8194.6045 512
-3569.6992 4197.1738 8240.9814 769
-3572.8591 4259.3306 8363.0234 1537
-3454.2546 4176.0332 8199.4727 2310
-3415.9167 4188.7793 8224.499 2822
-3301.2351 4106.9199 8063.7715 2051
-3291.6611 4155.334 8158.8311 265483
-3242.6545 4154.6733 8157.5332 331792
-2977.042 3872.2522 7603.0112 463381
-2867.969 3787.875 7437.3398 1583404
-2903.699 3895.0989 7647.8696 1583408
-2750.4045 3748.1384 7359.3184 1189162
-2645.7058 3663.7222 7193.5708 662047
-2690.1235 3786.4189 7434.4805 200980
-2643.8591 3783.4438 7428.6392 859166
-2505.5535 3646.4175 7159.5933 1253667
-2564.3457 3796.4553 7454.1865 1253413
-2454.2717 3697.3708 7259.6382 1253157
-2366.6797 3629.2151 7125.8174 1253156
-2370.0103 3700.5432 7265.8667 1121569
-2341.8721 3724.4709 7312.8481 529175
-2292.8088 3715.3955 7295.0288 397330
-2235.9163 3693.0386 7251.1318 397330
-2178.6572 3669.1855 7204.2979 594199
-2151.696 3696.4258 7257.7832 594968
-2092.7263 3668.6675 7203.2803 264974
-2034.0706 3640.3118 7147.6055 68110
-1978.6464 3616.6528 7101.1519 134417
-1939.9607 3623.2253 7114.0566 134417
-1874.4619 3578.8965 7027.0186 2060
-1834.4861 3582.3882 7033.8745 776
-1794.8271 3586.6765 7042.2944 68111
-1746.1462 3572.7095 7014.8706 68110
-1698.1249 3559.4421 6988.8213 775
-1658.5173 3563.5879 6996.9609 132874
-1610.9492 3550.4023 6971.0713 1288
-1576.3054 3565.7568 7001.2197 4
-1541.5942 3581.7874 7032.6948 260
-1485.265 3547.0833 6964.5552 260
-1431.1246 3515.7671 6903.0664 260
-1387.0975 3508.1797 6888.1694 1030
-1326.9956 3458.2395 6790.1138 1287
-1289.3379 3465.4924 6804.354 516
-1246.4703 3458.7573 6791.1309 516
-1200.2407 3441.9314 6758.0933 772
-1165.7784 3458.8528 6791.3184 1288
-1121.175 3445.821 6765.7305 2314
-1059.2587 3376.6309 6629.8779 464406
-1035.129 3427.2012 6729.1714 793374
-988.03754 3402.7571 6681.1758 2833983
-922.78864 3311.114 6501.2383 3689033
-871.85675 3265.0779 6410.8486 329480
-830.0351 3250.5112 6382.2471 0
-808.71985 3318.6995 6516.1328 3
-766.2287 3302.4788 6484.2837 1054489
-727.05579 3299.5986 6478.6289 4017492
-663.47626 3179.438 6242.6982 3360080
-631.02136 3203.0291 6289.0181 3953247
-592.45465 3196.6143 6276.4233 4150882
-556.40942 3203.8567 6290.6431 3493208
-504.10236 3111.7593 6109.814 3756380
-464.41705 3089.325 6065.7651 3756379
-431.56888 3112.4229 6111.1167 4216930
-391.49042 3082.8303 6053.0127 2768199
-357.16275 3097.1165 6081.063 3821659
-317.18845 3060.1418 6008.4648 3295059
-285.02713 3098.7261 6084.2236 3755094
-250.80458 3122.8582 6131.606 3163469
-210.36418 3064.6125 6017.2427 200727
-175.98534 3088.8992 6064.9287 3360592
-139.60561 3081.532 6050.4639 4347488
-101.01247 3003.2449 5896.75 2835275
-67.842537 3088.6758 6064.4902 3493461
-31.702269 3079.2632 6046.0088 4348514
4.2686086 3106.4534 6099.396 3756634
40.089283 3073.4766 6034.647 4480616
75.080093 3038.0632 5965.1143 4414825
110.43573 3035.3943 5959.8745 4086116
146.34764 3045.5986 5979.9097 4217445
184.49934 3089.3184 6065.752 4546411
221.13626 3097.5273 6081.8701 4612205
257.30533 3097.7974 6082.3999 4415083
293.82718 3101.7246 6090.1113 4743791
330.62628 3107.3965 6101.2476 4612205
365.98367 3099.7366 6086.2075 4349289
405.89011 3128.5173 6142.7173 3558230
442.50925 3129.301 6144.2563 1582899
494.22046 3228.5569 6339.1406 198414
539.58234 3275.2109 6430.7441 6
565.98462 3208.2229 6299.2158 5
610.45416 3245.6052 6372.6147 4
645.04413 3229.1616 6340.3286 4
681.72113 3224.4045 6330.9883 4
725.96704 3254.072 6389.2393 262
760.66937 3240.1384 6361.8809 4
801.32086 3251.6653 6384.5137 5
838.27948 3247.8423 6377.0073 4
883.84735 3276.2629 6432.8101 518
936.854 3328.7576 6535.8813 66825
998.53143 3406.6543 6688.8281 461840
1038.3359 3406.8201 6689.1533 1186340
1064.8955 3365.1189 6607.2749 528147
1089.3977 3320.114 6518.9097 198929
1135.0115 3340.3311 6558.605 1383713
1164.3442 3312.8821 6504.71 462352
1183.8048 3260.01 6400.8984 857369
1239.9264 3308.2463 6495.6084 923417
1278.6006 3308.4238 6495.9565 792088
1323.8406 3325.082 6528.6641 659731
1370.0911 3343.2573 6564.3511 395788
1408.6831 3342.2556 6562.3843 775
1455.4008 3360.0674 6597.3569 775
1490.7512 3351.3901 6580.3193 518
1525.3379 3341.4829 6560.8672 5
1572.4991 3358.9297 6595.123 262
1627.8439 3392.583 6661.1997 262
1691.9742 3442.5134 6759.2363 132877
1730.3616 3438.9658 6752.27 1318697
1773.7648 3445.321 6764.749 661796
1847.2681 3508.5652 6888.9263 1517365
1885.0865 3502.759 6877.5259 2373703
1923.4115 3498.1201 6868.4175 2044483
1960.6857 3491.8032 6856.0146 1979461
2006.4971 3500.6372 6873.3599 3032149
2055.5474 3514.6572 6900.8877 2571855
2081.3535 3489.1624 6850.8296 2901590
2124.2495 3492.7456 6857.8647 3427935
2175.3208 3509.3826 6890.5308 3691107
2217.1719 3510.8047 6893.3237 3954280
2260.0486 3513.7703 6899.146 4020072
2310.2871 3527.8716 6926.8335 4151657
2358.9312 3539.0874 6948.855 4217450
2403.6323 3544.1028 6958.7026 4020071
2445.2622 3544.4973 6959.4771 3888486
2461.2869 3508.3796 6888.5615 3822694
2483.0603 3481.5049 6835.7944 3756900
2503.4573 3453.5959 6780.9966 4020072
2510.9922 3409.1096 6693.6489 4085865
2537.855 3391.842 6659.7451 3954277
2534.4797 3335.3127 6548.7515 4086120
0 0 0 0
0 0 0 0
0 0 0 0
0 0 0 0
1532.6288 1873.079 3677.7148 270
1547.0396 1864.1056 3660.0959 524
1576.5439 1873.3158 3678.1799 4874605
1569.5713 1839.5232 3611.8296 4085348
1633.8051 1888.9702 3708.9165 4282470
1680.2556 1916.8135 3763.5859 4150370
1729.406 1946.9647 3822.7866 4216934
1747.9868 1942.3651 3813.7556 4084834
1774.8282 1946.9448 3822.7478 4478304
1801.407 1951.1245 3830.9543 8
1822.0793 1948.8822 3826.5515 7
1844.4669 1948.5074 3825.8157 5
1853.5439 1934.2516 3797.8247 4
1870.6743 1928.6412 3786.8093 3426121
1774.9103 1808.1559 3550.241 1578525
1780.0823 1792.1196 3518.7546 7
1797.0958 1788.2394 3511.1357 5
1824.5439 1794.712 3523.8445 263
1815.6831 1765.7277 3466.9351 266
1756.0774 1688.599 3315.4958 4545381
1825.4248 1735.8041 3408.1812 4216678
1881.2433 1769.2495 3473.8499 4479849
1943.5667 1808.0199 3549.9741 4215396
1971.3608 1814.1815 3562.0723 4281700
2014.6202 1834.2932 3601.5605 4346722
2083.584 1877.1394 3685.6873 4804701
2049.1411 1826.9023 3587.0491 268
2073.8518 1829.8951 3592.9253 270
0 0 0 0
0 0 0 0
4153.1191 3554.761 6979.6294 4480106
4471.0635 3789.0518 7439.6499 4611435
4339.0703 3641.1831 7149.3159 4544874
4493.394 3734.1189 7331.7915 4544873
4630.8394 3811.3779 7483.4868 4413030
4764.0273 3883.6965 7625.4814 4150372
4794.9233 3872.0481 7602.6099 3755872
4857.7114 3886.1304 7630.2603 3822692
4949.1338 3922.6475 7701.96 3822179
5044.0386 3961.2305 7777.7158 3822177
5208.9834 4053.6172 7959.1138 4216677
5160.4673 3979.7214 7814.0225 4018014
5224.2275 3992.9587 7840.0132 2965071
5316.5034 4027.5637 7907.959 3096400
5370.0693 4032.4941 7917.6396 990509
5377.7563 4003.1875 7860.0972 1517622
5516.9985 4071.4707 7994.1685 2833483
5520.6396 4039.3708 7931.1421 2965326
5610.6899 4070.5042 7992.2705 2768202
5675.3359 4082.8384 8016.4883 3820889
5676.4478 4049.6414 7951.3071 3886939
5653.4321 3999.9216 7853.6846 4018782
5615.0869 3940.259 7736.5396 3690075
5665.0078 3943.0015 7741.9243 3624026
5728.0088 3954.7302 7764.9531 3295060
5577.9878 3820.3728 7501.1475 2110269
0 0 0 0
0 0 0 0
4570.7773 3057.2283 6002.7441 1776667
4218.0938 2799.4797 5496.6655 591363
4174.6763 2749.3708 5398.2788 196608
4144.7778 2708.8618 5318.7407 196608
4115.4028 2669.3054 5241.0732 131072
4040.0637 2600.7542 5106.4761 1709328
4133.1577 2640.8445 5185.1914 723205
4188.0547 2656.1162 5215.1768 196608
4594.2129 2892.3005 5678.9155 196608
4789.7754 2993.4265 5877.4717 0
4885.1616 3030.9343 5951.1172 65536
4801.7515 2957.7688 5807.4595 65536
4851.7153 2967.2168 5826.0103 65536
4899.9277 2975.467 5842.2095 65536
4992.9702 3010.6326 5911.2554 0
6085.8472 3643.9688 7154.7856 0
4660.9814 2771.4495 5441.6294 0
4697.6011 2773.9761 5446.5898 0
4975.0566 2917.7102 5728.8062 0
5026.6694 2927.9412 5748.894 0
5076.2998 2936.887 5766.459 0
5125.834 2945.658 5783.6802 0
5176.7896 2955.123 5802.2646 0
5227.5791 2964.3687 5820.418 0
5281.9028 2975.4839 5842.2427 0
5245.0117 2935.4048 5763.5488 0
5395.7451 3000.1699 5890.7124 0
5442.083 3006.4277 5902.9995 0
5484.936 3010.6921 5911.3726 0
5539.2158 3021.135 5931.8765 0
6041.7266 3274.3682 6429.0898 0
6122.478 3297.2791 6474.0742 0
6185.4185 3310.3713 6499.7803 0
5242.2466 2788.1824 5474.4834 0
5269.0537 2785.1533 5468.5361 0
5293.8765 2781.1196 5460.6162 0
0 0 0 0
0 0 0 0
0 0 0 0
-7513.5107 4260.6079 8269.0361 65536
-7463.9409 4260.3662 8268.5664 65536
-7018.4917 4032.658 7826.6279 0
-7094.626 4103.6001 7964.314 0
-7343.9575 4276.3472 8299.583 0
-6449.874 3781.1245 7338.4487 0
-6390.3154 3771.7144 7320.1855 0
-6327.4189 3760.1909 7297.8208 0
-6296.8311 3767.8416 7312.6694 0
-6287.8984 3788.6465 7353.0479 0
-6260.1792 3798.3435 7371.8682 0
-6226.9224 3804.7942 7384.3872 0
-6228.2549 3832.6206 7438.3936 0
-6200.7461 3842.9709 7458.4814 0
-6212.5156 3877.9883 7526.4438 0
-6289.5649 3954.5583 7675.0518 0
-6234.0898 3948.3137 7662.9321 0
-6554.0415 4181.5015 8115.5049 0
-6470.5435 4158.8354 8071.5146 65536
-6423.2842 4159.2969 8072.4102 65536
-6133.1172 4001.2905 7765.7495 65536
-6052.8711 3978.8799 7722.2554 65536
-5971.0688 3955.0967 7676.0957 65536
-5906.8418 3942.678 7651.9941 65536
-5911.9404 3976.6992 7718.0225 0
-5935.5264 4023.7844 7809.4067 0
-5936.9619 4056.478 7872.8589 0
-5880.1309 4049.5637 7859.439 0
-5755.1294 3995.2148 7753.9585 0
-5713.2852 3998.1821 7759.7168 0
-5713.2466 4030.6919 7822.812 0
-5680.4365 4040.4243 7841.7017 0
-5577.8413 4000.2708 7763.771 256
-5561.895 4022.1074 7806.1514 256
-5944.5786 4335.0068 8413.4307 256
-5736.5039 4218.7583 8187.8135 256
-5474.0679 4060.1995 7880.0811 256
-5552.0396 4153.5688 8061.293 256
-5507.8071 4156.3447 8066.6812 256
-5420.0083 4126.0044 8007.7959 0
-5290.7822 4063.3103 7886.1187 256
-5285.6958 4095.6868 7948.9551 513
-5269.0566 4119.6152 7995.395 257
-5163.77 4074.0386 7906.9399 257
-5163.9116 4111.5679 7979.7773 256
-5048.4844 4056.9236 7873.7227 256
-4991.4321 4048.6042 7857.5771 512
-4978.7314 4076.4426 7911.6055 256
-4956.1089 4096.6099 7950.7466 256
-4907.8794 4095.7959 7949.167 256
-4864.7456 4099.2598 7955.8896 256
-4808.8159 4091.9036 7941.6123 256
-4771.7285 4100.5938 7958.4785 512
-4685.0161 4066.3857 7892.0869 256
-4638.0664 4066.3467 7892.0112 256
-4618.4546 4090.5198 7938.9272 512
-4586.5483 4104.1904 7965.4595 512
-4539.0728 4104.0693 7965.2246 768
-4493.9082 4106.0576 7969.0825 512
-4457.4609 4116.1367 7988.6445 768
-4411.957 4117.9805 7992.2236 768
-4417.9478 4168.4517 8090.1777 512
-4348.3301 4147.9092 8050.3086 256
-4257.9409 4106.8745 7970.6685 256
-4196.1797 4092.8403 7943.4307 256
-4158.6973 4102.437 7962.0562 256
-4149.4795 4140.4575 8035.8467 256
-4107.0874 4145.876 8046.3628 256
-4107.4023 4195.0405 8141.7822 512
-4006.9219 4141.2031 8037.2939 512
-3942.1836 4123.4531 8002.8447 512
-3910.6804 4140.4575 8035.8467 512
-3833.6633 4109.0981 7974.9839 512
-3823.4585 4149.4629 8053.3242 512
-3765.2029 4138.0415 8031.1582 512
-3726.9973 4148.646 8051.7388 256
-3673.1274 4141.8628 8038.5742 857364
-3585.5627 4096.4053 7950.3496 396813
-3539.2065 4097.4419 7952.3613 67847
-3595.7202 4219.2139 8188.6982 133898
-3443.6416 4096.207 7949.9653 397329
-3479.269 4196.1606 8143.9565 529430
-3347.2317 4093.8699 7945.4292 529432
-3279.0571 4067.8774 7894.9824 991267
-3160.5352 3977.7644 7720.0903 1254444
-3060.3928 3908.4695 7585.6016 1386029
-2869.1436 3719.0088 7217.894 1846837
-2725.9758 3587.0657 6961.8179 1451566
-2668.0664 3564.9751 6918.9438 1517103
-2584.2642 3507.0542 6806.5303 1451053
-2631.3049 3627.6792 7040.6406 1779758
-2572.3687 3603.7354 6994.1699 200468
-2539.0801 3615.5261 7017.0537 923677
-2497.8782 3616.2539 7018.4663 857626
-2446.0576 3601.3726 6989.5845 1286
-2407.9014 3606.4429 6999.4253 1288
-2336.176 3560.5293 6910.3154 1288
-2294.4832 3559.5637 6908.4409 260
-2235.1152 3530.6428 6852.3115 773
-2209.9519 3555.6819 6900.9072 517
-2158.9827 3539.3623 6869.2339 517
-2127.0037 3554.1455 6897.9258 265488
-2054.9241 3501.1865 6795.1426 199440
-2047.7308 3558.8743 6907.103 2059
-1994.9834 3538.1309 6866.8442 331538
-1953.5667 3537.0356 6864.7192 463123
-1892.7363 3499.9949 6792.8301 199951
-1852.7448 3500.7141 6794.2256 773
-1806.2883 3488.9778 6771.4478 331024
-1720.8517 3399.698 6598.1724 517
-1706.8848 3450.7417 6697.2383 773
-1681.0162 3479.5869 6753.2217 463123
-1623.4907 3442.7129 6681.6562 67080
-1585.2032 3445.8081 6687.6631 517
-1551.5641 3459.4265 6714.0938 260
-1518.3612 3474.7625 6743.8579 66822
-1485.9106 3492.698 6778.668 515
-1432.2599 3460.4131 6716.0088 67079
-1388.3196 3450.4104 6696.5952 132873
-1353.4779 3463.0977 6721.2188 66565
-1292.9635 3408.8704 6615.9746 331023
-1260.2303 3426.7842 6650.7412 515
-1210.0784 3396.9597 6592.8574 515
-1166.4924 3384.1875 6568.0693 264715
-1135.6636 3408.823 6615.8818 923931
-1070.257 3327.7141 6458.4653 134672
-1024.6479 3304.417 6413.25 1121055
-1004.9282 3366.0361 6532.8408 1384226
-942.9375 3285.3303 6376.2061 528403
-906.30615 3289.9211 6385.1157 1029
-838.06287 3175.1458 6162.3589 1030
-809.77905 3208.1924 6226.4956 2633264
-778.64435 3232.5679 6273.8042 3424067
-747.71552 3260.2932 6327.6138 3951184
-708.29608 3251.9729 6311.4653 2965318
-658.21057 3191.0127 6193.1533 3096907
-631.3667 3242.1802 6292.46 2307393
-572.88062 3127.072 6069.0566 1518389
-539.6709 3143.7371 6101.4004 4215646
-501.59583 3132.4192 6079.4346 2966094
-460.39767 3098.3269 6013.2681 2702150
-424.45297 3096.8254 6010.354 4084575
-383.5379 3055.4517 5930.0552 1518905
-351.84229 3086.5835 5990.4761 4019038
-316.03967 3084.6401 5986.7041 4084831
-282.3829 3105.8042 6027.7798 4611945
-245.58131 3093.5044 6003.9082 4414565
-207.58611 3059.4314 5937.7793 4611944
-172.36504 3060.6602 5940.1636 3822172
-138.33997 3089.2295 5995.6113 4282466
-102.82394 3092.7771 6002.4971 4611431
-67.018486 3086.7649 5990.8281 4545638
-31.617039 3106.8215 6029.7544 4611688
4.2045488 3095.5413 6007.8613 4545640
39.749989 3083.0269 5983.5732 4742762
75.223381 3079.3813 5976.498 4479592
111.02702 3087.2576 5991.7842 2768204
147.07413 3096.4341 6009.5942 2899790
183.04718 3100.7698 6018.0093 3557718
220.58067 3125.8008 6066.5898 4743535
257.48557 3136.1423 6086.6606 3888482
290.42587 3101.5964 6019.6133 2572879
326.44812 3103.9316 6024.1455 4020325
364.20374 3120.6577 6056.6074 4349290
401.71991 3132.5078 6079.6064 4414311
435.01227 3112.1836 6040.1611 4018523
478.35843 3161.4026 6135.6855 1713706
521.43707 3202.0061 6214.4893 265746
554.84167 3181.7612 6175.1982 516
590.41357 3175.6863 6163.4077 259
628.02344 3180.6426 6173.0273 259
665.52539 3184.5352 6180.582 258
708.62787 3213.4172 6236.6367 513
743.13873 3202.4045 6215.2627 513
781.16077 3206.8486 6223.8882 514
818.80804 3209.4226 6228.8833 258
855.53101 3208.3071 6226.7188 258
892.73468 3209.0122 6228.0869 257
924.69812 3191.5745 6194.2437 257
963.15747 3197.0342 6204.8398 1
1000.7385 3199.283 6209.2046 2
1042.772 3215.1003 6239.9028 2
1085.3007 3231.3052 6271.3535 258
1123.6178 3234.311 6277.1875 258
1163.1882 3240.6155 6289.4233 2
1184.603 3197.5215 6205.7856 258
1244.4801 3257.7131 6322.6064 199179
1292.9333 3285.3489 6376.2422 198923
1332.3761 3289.1667 6383.6519 66823
1367.3859 3282.1328 6370 1317661
1403.9685 3279.1514 6364.2139 1581090
1461.1602 3323.1987 6449.7017 1647141
1503.427 3331.9175 6466.623 463124
1559.3767 3369.77 6540.0874 594711
1619.1104 3413.7588 6625.4619 1713192
1663.4531 3423.9792 6645.2974 1121571
1722.6199 3463.531 6722.0601 924194
1770.9858 3480.0659 6754.1509 2175804
1769.2898 3399.6738 6598.1255 1451829
1784.3279 3354.2258 6509.9194 1320501
1806.4984 3323.8301 6450.9268 1649723
1922.9969 3464.647 6724.2261 2900560
1930.1232 3406.6875 6611.7373 3032146
1960.6259 3391.4773 6582.2173 2439755
2062.0015 3497.0588 6787.1318 2768721
2089.405 3475.5432 6745.3735 2768977
2139.2515 3491.4666 6776.2778 3229271
2183.6587 3498.0881 6789.1294 3097686
2215.9971 3485.4866 6764.6719 3295323
2268.3818 3504.3027 6801.1904 3361370
2302.6174 3494.9138 6782.9678 3559006
2315.2627 3453.6414 6702.8657 3296092
2350.6719 3447.1475 6690.2627 3362397
2404.0005 3466.7104 6728.231 3822693
2427.1523 3442.8289 6681.8809 4086122
2456.4702 3428.3215 6653.7251 4217451
2473.3735 3397.2222 6593.3672 4349037
2433.2087 3289.9312 6385.1357 4414828
2482.4487 3304.9636 6414.3105 4414828
2413.1653 3164.1328 6140.9849 4611437
0 0 0 0
0 0 0 0
0 0 0 0
1531.4442 1893.4724 3674.8726 272
1552.9855 1893.1069 3674.1633 66570
1570.6021 1888.0337 3664.3171 4940399
1600.0796 1897.1624 3682.0342 4611951
1651.4877 1931.6963 3749.0579 4677230
1677.4862 1935.9857 3757.3828 4151142
1719.1842 1958.043 3800.1919 4019298
1765.624 1984.8588 3852.2363 4413801
1779.4518 1974.7961 3832.7065 4544871
1828.3196 2003.3827 3888.1877 6
1819.6993 1969.0497 3821.5537 9
1819.4795 1944.5404 3773.9861 8
1836.8 1939.1462 3763.5171 9
1865.3304 1945.574 3775.9922 3361870
1815.0288 1870.603 3630.4873 3881282
1766.2391 1798.9337 3491.3906 6
2041.1339 2054.7764 3987.9331 5
1972.6554 1963.0454 3809.9006 8
1863.4088 1833.2871 3558.0642 267
1763.3514 1715.3802 3329.2292 3427671
1831.0646 1761.4854 3418.7109 4545128
1866.7484 1776.1045 3447.0837 4808814
1922.0599 1808.8784 3510.6914 4743022
1957.2043 1822.1724 3536.4927 4414057
2019.8588 1860.5238 3610.9255 4215649
2097.7808 1911.9841 3710.8003 4806757
2034.4164 1834.9407 3561.2734 9
2071.1621 1848.8481 3588.2651 527
2081.3979 1839.0491 3569.2471 266
0 0 0 0
0 0 0 0
4251.2725 3644.8301 7073.9272 4084581
4245.8481 3604.5327 6995.7178 4084580
4374.0869 3677.3904 7137.1211 3755615
4553.6934 3791.6194 7358.8179 3821665
4676.2129 3856.5945 7484.9219 3821666
4593.4839 3752.6658 7283.2163 3952226
4665.7285 3776.1028 7328.7026 3820126
4877.21 3910.7515 7590.0303 3688283
4944.5869 3928.4421 7624.3647 988708
4981.833 3922.0901 7612.0366 1055011
5027.8784 3922.718 7613.2554 3227985
5089.0601 3935.0381 7637.1665 4215907
5187.7388 3975.8787 7716.4297 4018784
5193.1445 3945.1448 7656.7817 3952735
5345.0249 4025.2532 7812.2568 3820891
5309.1665 3963.8162 7693.019 3360340
5470.479 4049.3784 7859.0796 3228498
5538.8506 4065.2776 7889.937 1978176
5557.6304 4044.8176 7850.2275 2241605
5546.5254 4003.1289 7769.3179 2109761
5530.187 3958.3826 7682.4736 2504520
5515.3955 3915.4675 7599.1831 3096912
5532.9199 3896.0044 7561.4097 3425876
5557.6479 3881.8867 7534.0098 3557976
5352.0796 3708.4243 7197.3516 3821406
0 0 0 0
4976.9307 3394.229 6587.5581 4017494
0 0 0 0
0 0 0 0
4198.1187 2797.0737 5428.5923 196608
4183.8613 2766.3142 5368.894 0
4201.9858 2757.269 5351.3389 1710099
4136.144 2693.6765 5227.9175 2433565
4080.6277 2637.7065 5119.2905 1512720
4176.0806 2679.4287 5200.2656 131072
4575.4058 2914.0742 5655.668 196608
4779.502 3021.8628 5864.8652 65536
4876.2495 3060.71 5940.2607 65536
4769.2476 2972.0293 5768.1479 65536
4828.5312 2987.498 5798.1699 65536
4888.5259 3003.1846 5828.6147 65536
4959.2393 3025.1887 5871.3203 0
5162.3335 3127.075 6069.0625 0
4693.6738 2823.457 5479.7974 0
4678.105 2794.6997 5423.9849 0
4784.772 2838.8604 5509.6919 0
5017.9146 2956.9497 5738.8813 0
5065.9868 2965.1228 5754.7441 0
5104.2417 2967.4788 5759.3164 0
5155.4766 2977.2996 5778.3765 0
5205.644 2986.3777 5795.9956 0
5256.916 2995.9663 5814.605 0
5061.793 2865.9236 5562.2168 0
5369.8916 3020.6375 5862.4873 0
5415.7358 3026.7861 5874.4209 0
5460.29 3032.1394 5884.8105 0
5498.7988 3034.0891 5888.5942 0
5537.1025 3035.9014 5892.1118 0
5580.0005 3040.1941 5900.4434 0
5619.3823 3042.5298 5904.9761 0
5199.3174 2797.6196 5429.6519 0
5226.4482 2794.8713 5424.3179 0
5251.5981 2791.1042 5417.0063 0
0 0 0 0
0 0 0 0
0 0 0 0
-7400.7749 4245.0889 8144.9644 65536
-7320.7031 4226.8071 8109.8877 0
-7303.3682 4244.7456 8144.3066 0
-6491.0962 3797.8208 7286.8008 0
-6489.7217 3822.5203 7334.1914 0
-6744.0918 3999.2085 7673.1992 0
-6414.8335 3829.8584 7348.271 0
-7080.6636 4256.3574 8166.5864 0
-6322.9434 3827.1082 7342.9941 0
-6294.8032 3836.5566 7361.1221 0
-6257.8667 3840.738 7369.145 0
-6243.1079 3858.6858 7403.5815 0
-6273.1396 3904.769 7492 0
-6316.4727 3959.8494 7597.6816 0
-6130.3892 3870.864 7426.9478 0
-6358.4937 4044.0127 7759.1646 0
-6116.0884 3918.26 7517.8853 0
-6029.6699 3891.3242 7466.2041 0
-5927.3809 3853.6711 7393.96 0
-6033.0132 3951.645 7581.9399 0
-6043.7637 3988.4773 7652.6099 0
-5940.4395 3950.0161 7578.8149 0
-5913.4146 3962.0889 7601.9785 0
-5867.9688 3961.9102 7601.6357 0
-5869.8652 3993.9412 7663.0933 0
-5941.7363 4074.457 7817.5776 258
-6283.0972 4342.4971 8331.8604 514
-6033.1133 4202.8477 8063.917 257
-5765.731 4048.7437 7768.2417 2
-5734.8735 4059.5828 7789.0381 0
-5886.5669 4200.873 8060.1294 197892
-5701.2324 4101.9932 7870.4097 0
-5594.3452 4058.3862 7786.7427 257
-5590.6455 4089.5327 7846.5029 257
-5513.7095 4067.1809 7803.6167 770
-5475.4385 4073.2131 7815.1904 66820
-5617.3848 4214.5601 8086.3901 514
-5554.6973 4203.4907 8065.1519 132871
-5446.4858 4157.4795 7976.8701 397071
-5350.5063 4120.0781 7905.1099 726035
-5224.6123 4058.7756 7787.4893 791828
-5218.4097 4090.1914 7847.7661 923671
-5220.8003 4128.9697 7922.1694 791058
-5161.8823 4119.5254 7904.0493 396299
-5144.4121 4143.2896 7949.6445 263942
-5022.6538 4082.7229 7833.4365 198919
-4981.3584 4087.0396 7841.7192 67333
-4921.2373 4075.8464 7820.2427 512
-4828.3145 4037.0134 7745.7349 512
-5036.1919 4251.3569 8156.9912 512
-4767.3354 4063.5151 7796.583 512
-4616.7759 3973.8081 7624.4644 769
-4697.2905 4083.1873 7834.3271 132869
-4706.7725 4132.3921 7928.7363 512
-4591.6421 4072.0806 7813.0171 512
-4554.0654 4080.0168 7828.2446 512
-4505.4854 4078.158 7824.6777 512
-4464.041 4082.7856 7833.5571 256
-4462.7764 4124.647 7913.8755 257
-4335.2803 4049.49 7769.6729 513
-4347.8823 4104.9868 7876.1533 513
-4195.9121 4004.6206 7683.5835 770
-4196.2734 4049.0334 7768.7974 66820
-4138.5068 4037.7217 7747.0938 265226
-3993.5828 3940.1638 7559.9116 659985
-3968.7336 3960.2026 7598.3599 1384479
-4088.1094 4126.2744 7916.998 1647651
-3902.2876 3984.5796 7645.1313 594964
-3753.9348 3878.2561 7441.1304 2314
-3738.1567 3907.9958 7498.1914 1285
-3361.5759 3556.7063 6824.1797 67848
-3702.1306 3964.8669 7607.3091 198665
-3771.8711 4089.5005 7846.4404 397587
-3619.6909 3973.6335 7624.1294 594708
-3436.2969 3820.1287 7329.603 1122340
-3318.385 3736.4133 7168.9795 1254443
-3458.7068 3945.0664 7569.3184 1188907
-3319.749 3836.4692 7360.9546 1386544
-3134.3857 3670.6262 7042.7554 1452850
-3079.2244 3654.8357 7012.4585 1189935
-3045.4602 3664.3569 7030.7271 2111294
-3021.8862 3686.5752 7073.3564 1979455
-2906.0679 3595.2981 6898.2246 2373957
-2870.1719 3601.7009 6910.5098 2242886
-2759.0713 3512.5476 6739.4531 2242884
-2754.1262 3557.9041 6826.4775 1913404
-2737.7361 3589.6106 6887.3125 1254446
-2637.114 3510.1614 6734.875 925479
-2625.1362 3548.0732 6807.6157 989988
-2511.2388 3447.2634 6614.1934 660509
-2500.375 3486.9341 6690.3086 68369
-2445.6399 3465.717 6649.6001 1033
-2475.5515 3565.7258 6841.4849 1546
-2344.7002 3433.6487 6588.0713 260
-2344.8982 3492.2576 6700.5229 1031
-2286.3225 3463.8472 6646.0127 1288
-2224.6572 3429.6755 6580.4478 67081
-2155.4084 3382.3799 6489.7026 199181
-2145.6274 3428.3806 6577.9639 517
-2102.5977 3421.9766 6565.6768 260
-2050.6384 3400.5237 6524.5151 774
-1989.6458 3362.9749 6452.4707 774
-1977.6646 3408.4187 6539.6636 1545
-1933.197 3398.574 6520.7744 517
-1896.969 3403.1077 6529.4727 260
-1842.0389 3373.5793 6472.8174 1031
-1791.4943 3350.9939 6429.4829 258
-1753.1399 3350.7227 6428.9629 258
-1706.5676 3334.3833 6397.6128 3
-1670.6178 3338.5269 6405.563 260
-1645.8799 3365.7917 6457.8755 260
-1602.9893 3356.3503 6439.7603 1546
-1555.8677 3337.3713 6403.3457 67338
-1527.4225 3358.5066 6443.8975 132874
-1490.0848 3360.6733 6448.0547 67081
-1425.0753 3298.8967 6329.5254 791574
-1397.7706 3323.4192 6376.5767 791832
-1369.1726 3346.1484 6420.1865 792345
-1299.6691 3267.3445 6268.9873 1120796
-1224.8173 3170.0471 6082.3042 989467
-1172.5685 3127.1113 5999.9243 1055517
-1150.6213 3164.8281 6072.291 1384481
-1134.5488 3221.6692 6181.3506 1187102
-1096.609 3218.1418 6174.5825 529173
-1058.5876 3214.1226 6166.8716 66566
-1024.8831 3223.3923 6184.6567 516
-973.03033 3174.1499 6090.1763 260
-943.56165 3196.9431 6133.9092 259
-898.94659 3168.1877 6078.7368 3
-865.03632 3176.3311 6094.3613 3
-825.59802 3164.001 6070.7036 3
-789.13831 3162.4802 6067.7856 259
-754.88898 3170.0962 6082.3989 131846
-713.10223 3145.2336 6034.6958 6
-679.18073 3154.2659 6052.0249 132875
-645.51062 3165.5405 6073.6577 1779506
-599.04059 3111.6633 5970.2847 1912121
-564.38562 3116.238 5979.062 595230
-527.09137 3105.875 5959.1787 2109500
-496.44797 3136.0327 6017.0415 3426390
-456.72772 3109.0833 5965.334 3887198
-418.57089 3089.136 5927.062 3952734
-383.95416 3094.0505 5936.4912 3624283
-346.36798 3073.6091 5897.271 3953247
-312.3266 3083.5623 5916.3677 4085345
-277.63831 3088.8438 5926.501 3953503
-240.94554 3070.1191 5890.5747 4611432
-204.58156 3049.9297 5851.8374 4019296
-171.37498 3078.1816 5906.0439 3821917
-137.31787 3101.7759 5951.314 3558488
-102.56118 3120.4578 5987.1582 4216160
-67.956436 3166.0693 6074.6724 3031116
-31.789614 3159.812 6062.6665 2636101
4.2496696 3164.8506 6072.334 2240831
39.694389 3114.2271 5975.2036 1055784
74.360062 3079.1531 5907.9077 1911093
110.07351 3096.0493 5940.3262 2436152
144.93269 3086.5464 5922.0933 66569
181.39687 3108.2588 5963.7524 330002
221.35016 3172.887 6087.7529 263952
254.39928 3134.2935 6013.7046 1383207
287.50122 3105.7791 5958.9946 3161417
325.17752 3127.5146 6000.6982 4082521
364.49374 3159.168 6061.4307 2634560
399.63818 3152.2205 6048.1011 1581356
437.6474 3167.1521 6076.7495 518
473.66156 3166.47 6075.4409 66310
503.94211 3130.2695 6005.9839 66567
548.20068 3179.9402 6101.2861 257
577.85046 3143.9644 6032.2603 514
614.01587 3145.571 6035.3428 256
650.6322 3149.1826 6042.2725 256
687.59601 3154.0105 6051.5356 256
724.86395 3159.6843 6062.4214 256
763.61688 3170.9871 6084.1079 256
798.75861 3166.95 6076.3623 256
837.53699 3177.0569 6095.7544 256
874.16443 3178.5054 6098.5327 257
914.40918 3192.4673 6125.3213 257
953.1449 3200.2932 6140.3369 2
989.81348 3200.8574 6141.4194 258
1025.3884 3197.9705 6135.8804 257
1065.1968 3208.0315 6155.1841 257
1103.7192 3213.6807 6166.0229 257
1146.6456 3231.3772 6199.9771 258
1181.0962 3224.8293 6187.4141 258
1215.4031 3218.2971 6174.8804 258
1245.6039 3201.5933 6142.8315 257
1300.1659 3246.6741 6229.3267 258
1310.1383 3180.9956 6103.311 258
1356.5273 3204.8926 6149.1621 259
1397.4447 3214.948 6168.4551 259
1421.5591 3186.8213 6114.4883 774
1471.0038 3215.4651 6169.4473 462867
1518.4404 3238.4338 6213.5166 923676
1583.8925 3297.8213 6327.4624 661277
1658.3806 3372.8323 6471.3838 1780274
1697.0604 3373.2661 6472.2163 4018008
1699.2959 3302.845 6337.1011 4215391
1688.8997 3211.459 6161.7603 3624025
1719.8804 3200.9604 6141.6167 2571339
1822.379 3321.238 6372.3916 3229782
1867.01 3333.303 6395.54 2768720
1911.4108 3344.4836 6416.9922 2505548
1939.4272 3327.1194 6383.6758 1716033
2003.2836 3370.7253 6467.3418 1913668
2048.5547 3382.0073 6488.9878 1584446
2073.8687 3360.5325 6447.7847 1584447
2111.3826 3359.248 6445.3203 2110792
2164.6963 3382.699 6490.3149 3032148
2193.4771 3367.6631 6461.4658 2703697
2216.3423 3344.2185 6416.4834 3558750
2250.4573 3338.2546 6405.041 3690336
2321.6812 3386.6201 6497.8384 3756130
2349.0818 3370.5239 6466.9551 3822179
2319.5498 3274.5725 6282.855 3625057
2288.4849 3179.5317 6100.502 3493472
2338.8118 3198.7744 6137.4229 4151659
2368.4307 3189.5391 6119.7031 4348780
2350.822 3117.9441 5982.3354 4611180
0 0 0 0
0 0 0 0
0 0 0 0
1532.344 1916.4386 3677.0315 271
1549.3635 1910.4774 3665.594 530718
1553.9688 1889.5862 3625.5105 4874606
1618.4347 1941.0601 3724.272 4743535
1649.7119 1951.8771 3745.0266 4479851
1687.9479 1970.5302 3780.8157 4677231
1713.8788 1974.5166 3788.4646 4874611
1769.5687 2012.2397 3860.843 4809073
1791.6068 2011.2201 3858.887 4809070
1810.7001 2006.9623 3850.7173 197899
1838.9006 2012.7792 3861.8782 267
1802.0023 1948.0767 3737.7349 9
1800.9111 1923.1886 3689.9824 265
1858.7611 1961.0848 3762.6934 3626068
1836.1329 1914.1814 3672.7007 5067610
1770.1064 1823.6682 3499.0349 7
1770.9033 1803.3035 3459.9614 8
0 0 0 0
1824.8879 1816.0984 3484.511 524
1811.2262 1782.2767 3419.6177 2041648
1791.1644 1742.9773 3344.2148 3689050
1837.8831 1768.8113 3393.782 3229271
1876.2288 1786.1136 3426.9797 1978689
1945.5735 1832.2375 3515.4766 4609895
2020.571 1882.6483 3612.1987 4412517
2070.7283 1909.0979 3662.9468 4280414
0 0 0 0
2072.344 1871.2416 3590.3127 525
2087.6152 1865.819 3579.9084 271
0 0 0 0
0 0 0 0
4175.7446 3621.3721 6948.2524 3755872
4242.7988 3643.4917 6990.6934 3689822
4389.2778 3732.7271 7161.9067 3953251
4348.5752 3662.5945 7027.3452 4150373
4406.7993 3676.3242 7053.6885 4281961
4538.0166 3750.1157 7195.27 4150375
4565.5972 3737.6853 7171.4204 3887203
4769.3828 3868.4041 7422.2271 3558238
4728.6636 3800.2278 7291.4194 3690081
4749.8628 3782.5991 7257.5957 3952996
4747.4863 3746.6829 7188.6831 4018533
4920.9185 3848.9158 7384.8359 3887460
4913.7627 3809.3428 7308.9077 3690851
4999.731 3842.0242 7371.6128 3690337
5048.4482 3845.7605 7378.7822 3427165
5194.3335 3922.8152 7526.625 3756385
5264.9409 3942.1887 7563.7964 3887456
5235.9897 3887.3198 7458.5205 3953247
5283.6123 3889.7446 7463.1733 3558746
5298.0298 3867.8872 7421.2363 3361111
5446.8833 3943.7273 7566.749 2637133
5468.4946 3926.9521 7534.563 2768207
5377.0127 3829.8962 7348.3438 2372166
5392.6968 3810.1208 7310.4009 2174527
5325.3301 3732.4521 7161.3794 1713976
5056.6763 3516.0542 6746.1812 1186346
4859.562 3352.4131 6432.2065 790291
4554.1777 3117.219 5980.9443 329997
4362.3447 2962.7886 5684.6416 329223
4226.9204 2848.7485 5465.8354 0
4222.9517 2824.3677 5419.0566 0
4318.5259 2866.4275 5499.7559 2237729
4297.2227 2830.8608 5431.5146 3554101
4202.7656 2747.9924 5272.5166 1579286
4148.5225 2692.45 5165.9487 394756
4295.0669 2767.0803 5309.1406 196608
4346.7563 2779.9583 5333.8486 196608
4420.5034 2806.6536 5385.0688 65536
4455.9683 2808.8347 5389.2534 65536
4496.3979 2814.0913 5399.3394 65536
4541.3325 2822.0735 5414.6543 65536
4586.9995 2830.3948 5430.6206 0
4630.9702 2837.5603 5444.3687 0
4674.1382 2844.1382 5456.9897 0
4712.1362 2847.5012 5463.4419 0
4751.1782 2851.4448 5471.0088 0
4792.9658 2856.9712 5481.6123 0
4833.9756 2861.9629 5491.1895 0
4874.2056 2866.4287 5499.7578 0
4916.3608 2871.9597 5510.3701 0
4956.4272 2876.2053 5518.5161 0
4998.5127 2881.5593 5528.7886 0
5036.6177 2884.5635 5534.5527 0
5074.9043 2887.6318 5540.4399 0
5109.5146 2888.5825 5542.2642 0
4726.0454 2654.6802 5093.4805 0
4747.9771 2650.0251 5084.5488 0
5091.7231 2823.9097 5418.1772 0
5122.8555 2823.3198 5417.0459 0
5147.6665 2819.2759 5409.2866 0
5153.0562 2804.7109 5381.3413 0
5179.6055 2801.7715 5375.7017 0
5204.3774 2797.9128 5368.2979 0
0 0 0 0
0 0 0 0
0 0 0 0
-6497.2759 3769.3398 7150.6138 65536
-6465.8984 3775.8342 7162.9336 0
-6421.9292 3775.0125 7161.3755 0
-6389.583 3781.0583 7172.8442 0
-6248.8091 3722.5913 7061.9302 0
-6223.2637 3732.4429 7080.6187 0
-6572.6265 3968.8135 7529.0244 0
-6879.8989 4182.834 7935.0317 0
-6197.9727 3794.2463 7197.8623 0
-6815.1836 4201.084 7969.6533 0
-6677.1191 4144.7842 7862.8491 0
-6209.4473 3881.646 7363.6641 0
-6368.4429 4009.2949 7605.8198 0
-6523.4102 4136.2153 7846.5938 0
-6078.3359 3881.7627 7363.8857 0
-6089.3994 3917.0325 7430.7935 0
-6109.3306 3958.5627 7509.5786 256
-6168.1138 4026.0642 7637.6318 256
-6214.771 4086.5928 7752.4575 0
-6308.6094 4179.2822 7928.2935 515
-6544.8091 4368.3862 8287.0332 66566
-6153.5029 4138.3491 7850.6416 132871
-6140.6938 4161.2876 7894.1567 513
-5993.2681 4092.6531 7763.9541 258
-6039.6665 4156.3384 7884.7681 259
-5980.1597 4147.5679 7868.1309 1542
-5927.3818 4143.3638 7860.1548 133386
-5750.3975 4051.5801 7686.0366 725525
-5722.7607 4064.395 7710.3472 1054746
-5508.4473 3943.7664 7481.5088 857368
-5549.7979 4005.7056 7599.0112 528660
-5438.7881 3957.7896 7508.1118 660501
-5243.8398 3847.4939 7298.8755 1186845
-5069.5918 3750.6726 7115.2012 1318431
-4994.3906 3726.1177 7068.6191 1121052
-5220.3442 3927.7312 7451.0898 594708
-4898.9502 3717.4534 7052.1826 660758
-4844.7085 3708.0176 7034.2827 1515811
-4770.9683 3683.3643 6987.5142 396557
-4791.4878 3731.6885 7079.1875 2
-4706.7651 3698.1787 7015.6182 257
-4688.8247 3717.011 7051.3438 515
-4630.8677 3704.1741 7026.9912 1
-4729.3179 3817.3503 7241.6919 258
-4689.9849 3820.3699 7247.4199 257
-4626.5449 3803.6262 7215.6567 257
-4587.2168 3806.5776 7221.2559 257
-4562.9233 3822.1792 7250.853 0
-4506.2964 3810.7356 7229.1436 256
-4497.479 3839.8904 7284.4517 1798
-4552.9194 3925.0081 7445.9238 68362
-4486.9966 3906.1438 7410.1377 257
-4436.5923 3900.5493 7399.5244 257
-4382.8823 3891.9072 7383.1304 514
-4402.7275 3949.0671 7491.5649 513
-4331.7993 3925.1426 7446.1787 514
-4126.6851 3777.8801 7166.8149 199690
-4283.5137 3962.3516 7516.7661 265740
-3900.5715 3646.1482 6916.9136 529171
-4219.9028 3986.6677 7562.895 857624
-4036.8945 3854.8342 7312.8008 463120
-3818.9062 3686.3657 6993.208 659985
-3772.8394 3681.9705 6984.8701 330764
-3724.0662 3674.8069 6971.2803 67594
-3571.0168 3563.4272 6759.9878 528660
-3616.2839 3649.6599 6923.5757 989727
-3610.7095 3685.9763 6992.4692 1056035
-3566.0503 3682.7744 6986.395 1254185
-3494.0984 3650.9785 6926.0771 1385772
-3443.4778 3640.9797 6907.1089 1517614
-3305.5063 3537.2642 6710.3555 728356
-3270.1785 3542.1973 6719.7139 860199
-3212.4585 3522.6975 6682.7217 1847351
-3115.2004 3458.8101 6561.5249 1913402
-3087.0471 3471.0034 6584.6553 597544
-3127.03 3561.1033 6755.5796 2242884
-3009.2383 3471.5349 6585.6641 2703179
-2979.5525 3482.5862 6606.6289 2111044
-2903.6843 3439.2329 6524.3853 1979715
-2858.7876 3431.8857 6510.4478 2440266
-2803.384 3411.551 6471.8716 2440266
-2752.8853 3396.7021 6443.7031 2505802
-2702.2485 3381.2622 6414.4126 2242630
-2666.6199 3384.4277 6420.418 2374216
-2641.7534 3401.5435 6452.8867 2374472
-2675.5872 3495.8596 6631.8086 2439493
-2593.6829 3439.5137 6524.918 2439234
-2532.031 3408.7222 6466.5059 1583153
-2565.6021 3507.1506 6653.229 924964
-2433.1191 3378.113 6408.4385 69398
-2469.8184 3483.5977 6608.5474 1803
-2367.0837 3392.6462 6436.0083 773
-2330.7703 3395.4692 6441.3643 774
-2272.3477 3365.6404 6384.7773 1030
-2227.9512 3355.9258 6366.3481 260
-2192.0315 3358.8643 6371.9224 516
-2140.8538 3338.115 6332.5601 773
-2087.7783 3313.6108 6286.0752 331024
-2033.5787 3286.3977 6234.4507 67338
-1998.2634 3289.2588 6239.8779 396304
-1970.0961 3304.2168 6268.2534 396303
-1913.0665 3270.4109 6204.1226 260
-1899.4019 3310.8657 6280.8672 517
-1874.5443 3333.0415 6322.936 260
-1840.2416 3338.9868 6334.2144 260
-1776.1725 3290.0437 6241.3667 132617
-1732.6071 3277.8015 6218.1431 260
-1692.2773 3271.2812 6205.7739 514
-1666.8782 3293.9749 6248.8242 66564
-1621.276 3276.8691 6216.374 514
-1600.3539 3310.012 6279.2471 514
-1542.335 3266.177 6196.0908 257
-1492.9132 3238.8499 6144.25 514
-1455.2328 3236.2634 6139.3433 330507
-1414.9261 3227.5535 6122.8198 258
-1379.9766 3230.926 6129.2178 258
-1320.2529 3174.9055 6022.9438 258
-1282.4441 3169.9314 6013.5078 66307
-1250.7018 3180.0969 6032.7925 258
-1203.8182 3151.2273 5978.0254 66309
-1174.5962 3168.24 6010.2998 258
-1140.8606 3173.7644 6020.7793 257
-1099.6886 3158.2886 5991.4214 258
-1064.7109 3160.1631 5994.9771 259
-1030.9139 3165.7925 6005.6567 4
-997.05023 3171.6135 6016.6997 515
-959.38281 3165.3181 6004.7568 462608
-921.28503 3157.0613 5989.0933 132871
-883.27942 3148.47 5972.7944 771
-846.47906 3143.6345 5963.6216 264203
-809.43494 3137.4316 5951.8545 330766
-767.01111 3108.8572 5897.6475 198923
-729.94366 3100.2957 5881.4058 462095
-702.46521 3133.6489 5944.6787 463641
-656.52271 3083.8062 5850.1245 1253672
-623.56458 3092.7893 5867.166 1319467
-595.84491 3130.3579 5938.4355 1319724
-555.45801 3101.9177 5884.4829 1451569
-521.86572 3110.1492 5900.0986 793639
-486.17477 3106.1587 5892.5283 595747
-447.20703 3078.988 5840.9844 1253164
-405.758 3028.7227 5745.6284 660771
-375.952 3064.1133 5812.7661 1647923
-345.3035 3099.1047 5879.1465 1450544
-307.99326 3075.4548 5834.2817 1055529
-270.80609 3047.1887 5780.6597 725792
-232.31465 2993.9004 5679.5688 528669
-196.84962 2968.1255 5630.6729 264462
-168.16002 3054.8784 5795.2476 264981
-132.53851 3027.9583 5744.1782 660253
-100.1306 3081.2468 5845.2695 527896
-66.356125 3126.7651 5931.6196 331029
-30.860098 3102.3994 5885.3965 264
4.0605164 3058.4666 5802.0542 528664
38.013012 3016.3228 5722.1055 660249
72.725441 3045.8059 5778.0366 331540
106.71595 3035.8394 5759.1294 260
143.11191 3082.5251 5847.6943 397074
