# .PCD v0.7 - Point Cloud Data file format
VERSION 0.7
FIELDS x y z rgb
SIZE 4 4 4 4
TYPE F F F U
COUNT 1 1 1 1
WIDTH 1551
HEIGHT 1
VIEWPOINT 0 0 0 1 0 0 0
POINTS 1551
DATA ascii
-6807.3013 1356.7015 9634.4521 65536
-6801.5552 1367.0555 9707.9795 65536
-6789.29 1376.2653 9773.3818 65536
-6748.0469 1379.7091 9797.8379 65536
-6707.1895 1383.2925 9823.2842 65536
-6661.0669 1385.8433 9841.3984 65536
-6618.5396 1389.1938 9865.1924 65536
-6576.8877 1392.7899 9890.7295 65536
-6536.8906 1396.8042 9919.2363 65536
-6496.48 1400.8026 9947.6309 65536
-6450.0371 1403.5616 9967.2236 65536
-6398.2329 1405.1945 9978.8184 65536
-6355.2549 1408.8143 10004.525 65536
-6308.395 1411.6339 10024.548 65536
-6257.9849 1413.7052 10039.257 65536
-6212.0649 1416.8406 10061.522 0
-6161.1348 1418.8832 10076.027 0
-6111.9106 1421.3624 10093.634 0
-6061.2563 1423.5549 10109.204 0
-6013.7891 1426.5476 10130.455 0
-5966.6489 1429.679 10152.692 0
-5918.9668 1432.7432 10174.452 0
-5868.687 1435.2352 10192.149 0
-5819.5718 1438.0673 10212.261 0
-5774.6538 1442.007 10240.238 65536
-5726.5444 1445.2252 10263.092 65536
-5678.1758 1448.4467 10285.969 65536
-5632.5044 1452.4337 10314.282 65536
-5583.7896 1455.715 10337.584 65536
-5538.8037 1460.0522 10368.385 65536
-5488.8872 1463.173 10390.546 65536
-5442.2852 1467.2581 10419.556 65536
-5397.8594 1472.0306 10453.448 65536
-5346.6221 1475.0353 10474.785 65536
-5314.9619 1483.5756 10535.433 65536
-5262.1343 1486.3402 10555.065 65536
-5212.5249 1490.0917 10581.706 65536
-5163.77 1494.182 10610.753 65536
-5111.2954 1497.2838 10632.78 65536
-5063.8696 1501.9608 10665.993 65536
-5018.1782 1507.2773 10703.748 65536
-4975.0239 1513.5022 10747.953 65536
-4934.1299 1520.5854 10798.254 0
-4884.2476 1525.0491 10829.952 0
-4828.4375 1527.7563 10849.177 0
-4769.3462 1529.4846 10861.45 1
-4796.7251 1559.371 11073.685 2
-4795.231 1580.5719 11224.24 7829883
-4753.7192 1588.9945 11284.053 2106403
-4773.1392 1618.3169 11492.282 514
-4860.896 1671.9965 11873.481 0
-4702.6187 1641.3828 11656.082 256
-4632.2017 1640.9788 11653.212 256
-4598.2012 1653.6588 11743.259 0
-4573.7642 1670.2222 11860.881 0
-4532.6406 1681.1152 11938.236 0
-4482.1162 1688.8124 11992.897 0
-4438.6113 1699.4462 12068.411 0
-4394.3311 1710.1273 12144.263 65536
-4343.1665 1718.4415 12203.305 65536
-4305.3755 1732.4193 12302.566 65536
-4256.6851 1742.4185 12373.574 65536
-4210.4873 1753.8077 12454.453 65536
-4162.438 1764.8192 12532.651 0
-4164.3765 1797.8127 12766.95 0
-4100.8564 1803.2468 12805.54 0
-4053.6663 1816.2031 12897.548 0
-3998.8269 1826.1659 12968.296 0
-3955.8364 1842.0372 13081.005 0
-3920.0134 1861.9495 13222.409 0
-3984.6379 1931.3636 13715.346 0
-4110.7173 2034.0865 14444.82 256
-3798.1392 1919.5029 13631.119 256
-3701.4453 1911.4062 13573.621 0
-3629.8796 1916.2139 13607.762 0
-3565.988 1925.3839 13672.882 256
-3509.9675 1939.3309 13771.924 256
-3458.6672 1956.614 13894.657 256
-3540.5649 2051.9377 14571.588 0
-3322.7622 1973.9948 14018.085 0
-3239.9573 1974.3051 14020.289 0
-3177.4165 1987.3062 14112.614 0
-3114.5798 2000.822 14208.596 0
-3035.5466 2004.3964 14233.979 0
-2971.0837 2018.0726 14331.099 0
-2895.2095 2024.5762 14377.283 0
-2830.8967 2039.8062 14485.437 0
-2753.8237 2046.5085 14533.033 0
-2675.7346 2052.8655 14578.176 0
-2606.0205 2066.2883 14673.497 0
-2529.3582 2074.9407 14734.941 0
-2506.1729 2129.6567 15123.499 0
-2413.4363 2127.1426 15105.646 0
-2354.6921 2155.5518 15307.392 0
-2258.1328 2150.2363 15269.645 0
-2179.0874 2161.8513 15352.125 0
-2099.8523 2174.2849 15440.421 0
-2022.1028 2189.4634 15548.209 0
-1950.3698 2212.9219 15714.797 0
-1884.0181 2245.1531 15943.683 0
-1799.8517 2258.4443 16038.069 0
-1813.8186 2403.2451 17066.355 0
-1652.4885 2319.1807 16469.381 256
-1556.2917 2321.6963 16487.246 256
-1466.7212 2335.0996 16582.428 256
-1393.1915 2377.8113 16885.74 256
-1296.7216 2384.9619 16936.52 256
-1207.7778 2408.3235 17102.418 256
-1138.0011 2477.7097 17595.156 256
-1065.0411 2553.5066 18133.42 0
-989.53314 2639.574 18744.615 0
-861.4776 2589.5259 18389.205 0
-758.57288 2611.52 18545.395 0
-654.54352 2636.4622 18722.518 0
-552.26245 2680.1062 19032.451 0
-454.42987 2773.3838 19694.85 0
-334.54004 2750.0662 19529.262 0
-223.46759 2812.9634 19975.92 0
0 0 0 0
0 0 0 0
0 0 0 0
0 0 0 0
0 0 0 0
0 0 0 0
0 0 0 0
0 0 0 0
0 0 0 0
0 0 0 0
0 0 0 0
0 0 0 0
0 0 0 0
0 0 0 0
0 0 0 0
0 0 0 0
0 0 0 0
0 0 0 0
0 0 0 0
0 0 0 0
2167.8855 2686.7415 19079.57 5793383
0 0 0 0
0 0 0 0
2458.5493 2633.6877 18702.816 259
0 0 0 0
0 0 0 0
0 0 0 0
2876.8118 2609.7686 18532.957 461325
2974.1648 2598.5896 18453.57 658961
3257.7104 2745.1006 19494 258
3445.1145 2803.3169 19907.416 197379
3470.4744 2730.1887 19388.105 257
3582.1777 2727.5034 19369.035 1
3662.3481 2701.7231 19185.961 0
3786.332 2708.8452 19236.537 0
3907.0542 2713.2849 19268.064 0
4012.8889 2707.427 19226.467 65536
4159.4224 2728.5925 19376.77 65536
4268.0186 2724.4006 19347.002 65536
4363.4883 2712.27 19260.857 65536
4466.5718 2705.3706 19211.863 65536
4546.9102 2685.3826 19069.92 0
4725.8218 2723.1675 19338.244 0
4773.8599 2685.5352 19071.004 329478
4877.1411 2680.0049 19031.73 65793
4972.6387 2670.5447 18964.551 2764333
5067.9678 2661.416 18899.725 3948607
4968.0352 2552.3655 18125.316 0
5149.3267 2589.3589 18388.02 66049
5159.8076 2540.7065 18042.521 1447958
5380.7539 2595.5596 18432.053 0
5533.6328 2616.0444 18577.523 0
5663.8369 2625.218 18642.668 0
5818.5698 2645.1904 18784.5 0
5989.8066 2671.7725 18973.27 0
6167.8662 2700.3594 19176.275 0
6288.2734 2703.1262 19195.924 0
6429.8247 2714.7214 19278.266 0
6519.3433 2704.3264 19204.447 0
6675.3555 2721.3972 19325.674 2
6811.0879 2729.7629 19385.082 1317146
6957.4043 2742.0215 19472.135 516
7164.604 2777.4814 19723.949 988952
0 0 0 0
0 0 0 0
0 0 0 0
0 0 0 0
0 0 0 0
0 0 0 0
0 0 0 0
0 0 0 0
0 0 0 0
0 0 0 0
8387.8896 2755.7314 19569.494 4544604
0 0 0 0
7830.2715 2503.1157 17775.574 514
8051.9561 2539.7158 18035.486 66309
7714.5176 2401.3152 17052.65 260
7826.0259 2404.4365 17074.814 259
7952.8389 2412.1196 17129.375 2
8107.0278 2427.8066 17240.775 2
8213.9902 2429.136 17250.215 2
8300.6289 2424.4958 17217.264 256
8393.6533 2421.8115 17198.201 256
8494.4707 2421.4133 17195.373 256
8611.0039 2425.4509 17224.047 256
8709.8047 2424.4578 17216.994 256
8784.1758 2416.7666 17162.375 256
8866.0586 2411.2947 17123.518 0
8982.9668 2415.3647 17152.422 256
9075.2725 2412.8027 17134.227 256
9131.9121 2400.9204 17049.846 256
9186.9648 2388.886 16964.385 256
9176.7363 2360.3223 16761.543 256
9247.7969 2353.0554 16709.939 256
9308.0059 2343.2114 16640.033 256
9391.7646 2339.4404 16613.254 256
9435.8477 2325.9675 16517.578 0
9511.2578 2320.4153 16478.148 256
9629.46 2325.3091 16512.902 256
9648.6309 2306.4319 16378.847 256
9979.0176 2361.5823 16770.49 256
10188.253 2387.2542 16952.797 256
10055.206 2333.0071 16567.568 2
10016.342 2301.4529 16343.489 257
9931.5654 2260.0566 16049.519 259
10278.396 2316.731 16451.986 5
9900.1436 2210.4456 15697.212 262
10998.28 2432.7063 17275.57 6
10695.323 2343.8147 16644.316 1187366
11082.478 2406.3999 17088.758 1978680
11059.972 2379.7046 16899.184 5403766
11687.446 2492.0833 17697.229 7375759
10497.202 2218.3269 15753.181 8823205
9739.6553 2040.0424 14487.114 4278606
8902.8154 1848.4194 13126.327 65799
8902.1904 1832.234 13011.389 8
9117.7227 1860.4333 13211.643 7
9202.0137 1861.6005 13219.932 260
9751.4023 1956.0425 13890.6 263690
9389.6826 1867.6727 13263.053 6383981
0 0 0 0
9549.5273 1868.1014 13266.097 329479
9589.083 1860.4783 13211.962 259
9799.6367 1885.8871 13392.398 460809
9828.5596 1876.2137 13323.705 3684924
9922.5684 1879.0204 13343.637 461323
9974.166 1873.8152 13306.672 258
10101.02 1882.7185 13369.897 257
10234.57 1892.7213 13440.932 460809
10362.915 1901.6139 13504.081 258
10433.737 1899.8955 13491.878 1
10528.714 1902.5681 13510.857 256
10771.63 1931.7308 13717.953 256
10843.784 1930.062 13706.103 256
10927.976 1930.5444 13709.528 256
10963.908 1922.5575 13652.81 256
10858.375 1890.0636 13422.059 256
10917.82 1886.5514 13397.116 256
10964.419 1880.8861 13356.885 256
10655.69 1814.7859 12887.482 256
10730.422 1814.4707 12885.245 0
10702.702 1796.959 12760.887 256
11564.406 1927.9749 13691.28 256
11637.036 1926.5276 13681.003 2
11114.45 1827.2454 12975.962 0
10611.776 1732.5824 12303.725 0
10699.086 1734.8824 12320.059 0
10616.581 1709.8025 12141.956 0
10931.129 1748.575 12417.294 256
11160.759 1773.3347 12593.123 256
11302.779 1783.9371 12668.414 256
11392.3 1786.1677 12684.255 256
11402.157 1775.9613 12611.774 2
11416.812 1766.6301 12545.511 2
11465.441 1762.6434 12517.199 2
11429.844 1745.8429 12397.893 257
11603.378 1760.9966 12505.505 257
11556.776 1742.7609 12376.006 257
11541.836 1729.5001 12281.837 1
11638.819 1733.0723 12307.203 1
11744.179 1737.8391 12341.054 1
11532.442 1695.9158 12043.341 198407
11546.993 1687.5812 11984.154 923158
11722.303 1702.6998 12091.517 593679
0 0 0 0
0 0 0 0
-8103.3013 1300.3293 8860.1797 0
-8059.9834 1301.838 8870.46 0
-8024.4185 1304.6273 8889.4648 0
-8007.8237 1310.5581 8929.876 0
-7973.1538 1313.59 8950.5352 0
-7928.7163 1315.0427 8960.4336 0
-7893.5273 1318.0594 8980.9883 0
-7922.2134 1331.8556 9074.9932 0
-7895.6318 1336.4857 9106.542 0
-7861.2422 1339.8492 9129.46 0
-7821.3779 1342.3197 9146.293 0
-7781.4863 1344.8201 9163.3301 0
-7745.2354 1347.9895 9184.9258 0
-7711.0381 1351.5636 9209.2793 0
-7673.2163 1354.5491 9229.6221 0
-7637.3062 1357.9175 9252.5732 0
-7601.5605 1361.3643 9276.0586 0
-7563.5728 1364.4568 9297.1309 0
-7518.5117 1366.3096 9309.7549 0
-7483.0239 1369.9423 9334.5078 0
-7450.4375 1374.1644 9363.2764 65536
-7413.3599 1377.6155 9386.792 65536
-7373.4072 1380.5807 9406.9961 65536
-7331.4673 1383.2163 9424.9541 65536
-7292.271 1386.4139 9446.7422 65536
-7244.2935 1387.9789 9457.4053 65536
-7198.5972 1390.0087 9471.2363 65536
-7149.5396 1391.4164 9480.8281 65536
-7103.9858 1393.5338 9495.2559 65536
-7059.856 1395.9666 9511.832 65536
-7018.7998 1399.0514 9532.8516 65536
-6971.4321 1400.9182 9545.5713 65536
-6925.2559 1403.057 9560.1445 65536
-6876.0801 1404.6183 9570.7832 65536
-6857.0889 1412.4231 9623.9639 0
-6839.6616 1420.6841 9680.252 0
-6828.4604 1430.3894 9746.3828 0
-6800.248 1436.667 9789.1562 0
-6759.3608 1440.3521 9814.2656 65536
-6719.291 1444.2767 9841.0078 65536
-6673.4995 1447.03 9859.7676 65536
-6632.9795 1450.9849 9886.7158 65536
-6590.2007 1454.5122 9910.75 65536
-6548.1748 1458.2706 9936.3594 65536
-6504.7378 1461.7804 9960.2744 65536
-6459.1558 1464.8685 9981.3154 65536
-6414.4771 1468.2201 10004.153 65536
-6367.624 1471.1323 10023.996 65536
-6322.9409 1474.6057 10047.663 65536
-6271.3892 1476.5281 10060.762 65536
-6223.8291 1479.4362 10080.577 0
-6171.6206 1481.2852 10093.176 0
-6123.979 1484.2775 10113.564 0
-6076.7393 1487.4274 10135.027 0
-6024.3145 1489.3585 10148.186 0
-5976.6885 1492.5271 10169.775 0
-5929.2578 1495.8096 10192.142 0
-5881.7441 1499.1387 10214.826 0
-5831.2222 1501.7626 10232.705 0
-5787.5303 1506.2194 10263.072 65536
-5737.8232 1509.1888 10283.306 65536
-5689.8906 1512.694 10307.189 65536
-5641.7144 1516.2102 10331.147 65536
-5593.8364 1519.8846 10356.185 65536
-5546.8584 1523.8881 10383.463 65536
-5497.644 1527.3602 10407.122 65536
-5452.4487 1532.0409 10439.015 65536
-5411.4424 1538.0197 10479.753 65536
-5361.4121 1541.5432 10503.762 65536
-5319.5366 1547.522 10544.5 65536
-5269.4844 1551.2363 10569.809 65536
-5215.9702 1554.0089 10588.7 65536
-5169.5913 1559.0009 10622.715 65536
-5111.1987 1560.4486 10632.579 65536
-5060.9253 1564.4424 10659.792 65536
-5019.4316 1571.2858 10706.421 65536
-4975.9692 1577.6808 10749.995 65536
-4927.7861 1582.726 10784.372 0
-4885.0552 1589.6782 10831.743 65536
-4826.3848 1591.5599 10844.565 0
-4765.0781 1592.6115 10851.73 0
-4758.7832 1612.3304 10986.092 0
-4967.6128 1706.4987 11627.735 4606023
-4774.835 1663.4155 11334.176 329222
-4831.188 1707.1315 11632.047 256
-4746.6411 1701.6061 11594.396 256
-4646.1997 1690.1355 11516.24 256
-4569.4072 1687.0537 11495.241 256
-4551.5122 1705.9536 11624.021 0
-4511.4863 1717.0132 11699.379 0
-4472.7075 1728.9014 11780.383 0
-4455.208 1749.5237 11920.898 0
-4443.4058 1773.0861 12081.447 0
-4413.2246 1789.9678 12196.477 65536
-4356.9927 1796.6713 12242.152 65536
-4322.0801 1812.543 12350.299 65536
-4272.9775 1822.9095 12420.935 65536
-4225.04 1834.1464 12497.5 0
-4172.9199 1843.9373 12564.213 0
-4143.9731 1864.5111 12704.398 0
-4097.3237 1877.7357 12794.51 0
-4051.0203 1891.6222 12889.129 0
-3989.6501 1898.873 12938.534 0
-3941.6614 1912.9028 13034.131 0
-3998.6707 1979.4727 13487.724 0
-4222.2617 2132.9167 14533.261 0
-4049.9126 2088.5796 14231.156 0
-3898.6155 2053.4395 13991.718 0
-3687.9324 1984.8064 13524.067 0
-3630.406 1997.3792 13609.735 0
-3572.1367 2010.1067 13696.458 0
-3512.9177 2022.8811 13783.5 0
-3450.0923 2034.1392 13860.21 0
-3482.364 2103.3875 14332.055 0
-3412.4258 2112.8247 14396.357 0
-3254.3989 2066.8042 14082.782 0
-3183.1938 2074.9482 14138.274 0
-3114.6082 2085.2876 14208.725 0
-3042.3103 2093.6484 14265.694 0
-2968.4561 2101.3872 14318.424 0
-2895.2402 2110.0479 14377.437 0
-2828.7241 2124.2666 14474.32 0
-2751.6184 2131.1753 14521.396 0
-2675.5938 2139.396 14577.409 0
-2603.5793 2151.4807 14659.752 0
-2529.6436 2162.7595 14736.604 0
-2455.6245 2174.7734 14818.465 0
-2405.6694 2209.7866 15057.035 0
-2324.4431 2217.6697 15110.749 0
-2249.9089 2232.8279 15214.034 0
-2171.6582 2245.4128 15299.786 0
-2091.762 2257.3218 15380.932 0
-2013.1191 2271.7341 15479.133 0
-1940.4329 2294.5698 15634.731 0
-1869.6693 2322.0908 15822.255 0
-1789.5768 2340.3269 15946.512 0
-1741.1465 2404.3247 16382.579 0
-1640.0122 2398.8147 16345.035 256
-1552.5007 2413.7915 16447.084 256
-1462.911 2427.3325 16539.35 256
-1400.4149 2491.0181 16973.289 256
-1311.5227 2513.9932 17129.838 256
-1220.123 2535.6245 17277.229 256
-1142.3345 2592.1167 17662.156 256
-1086.6399 2715.2498 18501.16 0
-973.40009 2706.1282 18439.008 0
-871.23511 2729.3875 18597.49 0
-750.54047 2692.9216 18349.02 0
-650.242 2729.6792 18599.479 0
-538.82495 2725.259 18569.359 0
-459.13763 2920.3811 19898.883 0
-340.05325 2913.3689 19851.104 0
-219.19882 2875.6851 19594.332 0
0 0 0 0
0 0 0 0
0 0 0 0
0 0 0 0
0 0 0 0
0 0 0 0
0 0 0 0
0 0 0 0
0 0 0 0
0 0 0 0
0 0 0 0
0 0 0 0
0 0 0 0
0 0 0 0
0 0 0 0
0 0 0 0
0 0 0 0
0 0 0 0
0 0 0 0
0 0 0 0
0 0 0 0
2225.0437 2731.1086 18609.219 3884103
0 0 0 0
2549.2554 2846.1138 19392.84 2
2533.1301 2705.7756 18436.605 0
2772.9468 2839.1257 19345.225 2
2879.873 2831.2126 19291.307 2
2957.0898 2795.8164 19050.123 2
2937.24 2674.6416 18224.465 1
3128.0886 2747.1245 18718.348 1448217
3319.3696 2814.9954 19180.805 789774
3476.6355 2850.4702 19422.523 1
3602.5737 2858.8052 19479.316 0
3683.8879 2832.3125 19298.801 0
3758.2659 2802.248 19093.947 0
3887.4016 2813.5774 19171.145 0
4050.1797 2847.918 19405.135 2368546
4125.3481 2820.459 19218.033 197378
4219.0591 2806.8154 19125.068 0
4310.0444 2792.1221 19024.951 65536
4437.4697 2801.1829 19086.689 65536
4580.7119 2819.5273 19211.686 0
4657.4341 2797.031 19058.4 0
4762.6924 2792.3333 19026.391 197379
4783.4434 2739.4565 18666.1 855309
4928.3828 2758.4871 18795.77 256
4974.1865 2722.4163 18549.99 256
5068.5137 2713.8911 18491.902 256
5152.5469 2700.3328 18399.518 0
5209.6128 2673.499 18216.678 0
5370.374 2699.8892 18396.496 0
5453.9619 2687.2029 18310.053 256
5560.8496 2686.2676 18303.682 4014397
5881.0972 2786.4585 18986.361 987664
5895.9272 2740.8945 18675.898 198665
6068.853 2769.1519 18868.438 5003350
6214.8862 2784.3357 18971.896 256
6430.9844 2829.8088 19281.742 0
6569.4995 2840.1487 19352.195 0
6700.2021 2846.8135 19397.607 0
6823.0801 2849.9844 19419.213 2
0 0 0 0
0 0 0 0
7292.5049 2898.9512 19752.863 10665406
0 0 0 0
0 0 0 0
0 0 0 0
0 0 0 0
0 0 0 0
0 0 0 0
0 0 0 0
0 0 0 0
6999.998 2430.5234 16561.092 4017487
7688.3882 2632.5283 17937.512 6188142
8067.7334 2724.637 18565.121 528404
7555.918 2517.3577 17152.762 1317660
7655.7422 2516.6604 17148.012 1185046
7702.5781 2498.7917 17026.258 259
7821.3467 2504.4197 17064.605 3
7953.332 2514.0811 17130.438 3
8095.04 2526.533 17215.281 2
8236.5967 2538.6274 17297.689 2
8327.7061 2535.0667 17273.428 256
8411.4707 2529.384 17234.709 256
8521.8223 2531.7371 17250.74 256
8650.2988 2539.3547 17302.646 256
8744.5479 2536.8635 17285.672 256
8796.7598 2522.3765 17186.961 256
8869.3154 2513.9888 17129.809 0
8995.5068 2520.8215 17176.365 256
9102.5674 2522.2002 17185.76 256
9153.8232 2508.2573 17090.754 256
9181.9453 2488.3508 16955.117 256
9162.3799 2456.0935 16735.32 256
9246.6543 2452.0654 16707.875 256
9296.665 2439.1333 16619.758 256
9378.0605 2434.6211 16589.012 256
9453.5762 2428.6919 16548.611 0
9511.6855 2418.4592 16478.889 256
8863.0635 2230.5718 15198.662 256
9740.4326 2426.6477 16534.684 256
10013.798 2469.8333 16828.941 256
10178.727 2485.6841 16936.945 256
9970.8975 2411.0872 16428.656 258
9912.0732 2373.6187 16173.354 258
9934.042 2356.0317 16053.521 257
9898.4053 2325.2471 15843.76 260
9914.3467 2307.0444 15719.73 4
10657.465 2456.8147 16740.234 1777956
10612.238 2423.7615 16515.018 66310
10905.253 2467.8582 16815.484 517
10583.703 2373.3416 16171.466 594197
10273.866 2283.1284 15556.772 1253667
10106.704 2225.9482 15167.159 7375244
9788.9629 2136.908 14560.456 8361882
9247.2373 2000.9612 13634.143 8358289
8877.3398 1904.2347 12975.067 396050
9195.2637 1955.4446 13324.001 9
9170.1855 1933.4606 13174.206 7
9151.8945 1913.2678 13036.617 6
9245.7627 1916.6648 13059.764 6
9401.5996 1932.7445 13169.328 4
9289.875 1894.0087 12905.39 5
9545.7891 1930.2472 13152.312 5
9667.6055 1939.0016 13211.962 197638
9641.3115 1918.1481 13069.871 1
9706.8066 1915.7434 13053.486 2
9911.1348 1940.5598 13222.58 2
10040.66 1950.4552 13290.005 2
10105.062 1947.6443 13270.852 1
10337 1976.917 13470.311 258
10427.229 1978.847 13483.462 1
10506.123 1978.613 13481.867 256
10799.364 2018.4448 13753.272 256
10828.835 2008.7488 13687.206 256
10782.091 1985.165 13526.511 256
10858.323 1984.4047 13521.33 0
10776.461 1954.9755 13320.805 0
10820.504 1948.6493 13277.7 0
10834.324 1937.0117 13198.403 256
11059 1962.9679 13375.264 256
10677.44 1881.7153 12821.625 256
10758.876 1882.6309 12827.863 256
9749.9844 1694.0862 11543.158 0
9698.123 1673.301 11401.533 0
9764.124 1672.9993 11399.477 0
9640.9873 1640.5176 11178.152 0
9743.415 1646.6 11219.598 0
9785.2695 1642.4327 11191.203 0
11255.069 1876.3806 12785.276 256
11232.129 1859.9985 12673.652 256
11356.207 1868.0184 12728.297 256
11449.159 1870.8459 12747.563 256
11462.954 1860.7865 12679.021 2
11504.647 1855.3579 12642.031 2
11562.427 1852.5768 12623.082 257
11531.12 1835.6501 12507.746 257
12612.762 1994.9768 13593.365 256
12085.095 1899.3489 12941.776 256
12114.139 1891.8723 12890.833 257
12337.529 1914.6504 13046.038 1448215
11989.003 1848.9429 12598.32 921358
12022.584 1842.6138 12555.195 3
11931.846 1817.427 12383.577 198152
11670.39 1766.7052 12037.969 66307
0 0 0 0
0 0 0 0
-8145.688 1360.0657 8906.5254 0
-8107.4849 1362.5415 8922.7383 0
-8074.3867 1365.9135 8944.8203 0
-8041.6816 1369.3969 8967.6318 0
-8002.6353 1371.84 8983.6309 0
-7959.2007 1373.5586 8994.8848 0
-7979.3916 1386.3546 9078.6816 0
-7935.4209 1388.1017 9090.1221 0
-7900.2656 1391.4253 9111.8867 0
-7864.1899 1394.6315 9132.8828 0
-7822.5186 1396.8829 9147.627 0
-7788.1289 1400.4753 9171.1523 0
-7751.7583 1403.7599 9192.6611 0
-7712.6216 1406.5863 9211.1699 0
-7664.3608 1407.7772 9218.9697 0
-7620.0132 1409.7095 9231.623 0
-7582.9014 1413.0179 9253.2891 0
-7548.8506 1416.9495 9279.0342 0
-7509.5376 1419.9436 9298.6416 0
-7473.1768 1423.5446 9322.2236 0
-7435.5303 1426.9528 9344.542 65536
-7397.8716 1430.4098 9367.1807 65536
-7358.5259 1433.5905 9388.0098 65536
-7317.7285 1436.535 9407.292 65536
-7279.7798 1440.0881 9430.5605 65536
-7232.2603 1441.7886 9441.6963 65536
-7184.8979 1443.5471 9453.2119 65536
-7139.4893 1445.7291 9467.501 65536
-7097.8687 1448.7188 9487.0791 65536
-7063.5659 1453.2621 9516.8311 65536
-7028.4844 1457.7172 9546.0059 65536
-6982.9438 1460.0577 9561.333 65536
-6940.9663 1463.188 9581.832 65536
-6896.2651 1465.791 9598.8779 65536
-6866.5806 1471.6559 9637.2852 65536
-6855.0259 1481.5377 9701.9971 65536
-6828.0874 1488.2344 9745.8506 0
-6801.0542 1495.0244 9790.3164 0
-6769.2163 1500.8667 9828.5752 65536
-6726.5298 1504.3843 9851.6104 65536
-6684.2759 1508.0612 9875.6885 65536
-6639.0273 1511.1218 9895.7314 65536
-6600.312 1515.7372 9925.9561 65536
-6555.6553 1519.0592 9947.71 65536
-6511.7568 1522.619 9971.0225 65536
-6469.4541 1526.6208 9997.2285 65536
-6425.0176 1530.1885 10020.592 65536
-6381.8369 1534.125 10046.37 65536
-6334.6943 1537.1743 10066.339 65536
-6283.4521 1539.2776 10080.112 65536
-6233.4194 1541.7206 10096.11 0
-6181.1978 1543.6642 10108.839 0
-6133.2002 1546.7113 10128.793 0
-6086.0049 1550.0231 10150.48 0
-6037.3765 1553.0326 10170.188 0
-5986.0781 1555.4092 10185.752 0
-5938.4121 1558.788 10207.878 0
-5893.4902 1562.9641 10235.226 0
-5843.6631 1565.9127 10254.536 0
-5798.4185 1570.1647 10282.38 65536
-5748.394 1573.1991 10302.251 65536
-5699.4663 1576.6023 10324.536 65536
-5657.9644 1582.1558 10360.904 65536
-5612.2715 1586.6467 10390.313 65536
-5562.4019 1590.0437 10412.56 65536
-5517.439 1594.9354 10444.594 65536
-5476.3682 1601.0765 10484.81 65536
-5434.3389 1607.0757 10524.095 65536
-5377.5625 1608.8024 10535.402 65536
-5336.4941 1615.3245 10578.113 65536
-5290.5073 1620.4957 10611.978 65536
-5241.6855 1624.913 10640.903 65536
-5195.2075 1630.1731 10675.352 65536
-5138.6138 1632.3505 10689.609 65536
-5089.7832 1637.0791 10720.575 65536
-5050.1523 1644.924 10771.948 65536
-5004.3311 1650.9282 10811.268 65536
-4957.4277 1656.7269 10849.241 0
-4901.417 1659.595 10868.022 0
-4850.4268 1664.262 10898.585 65536
-4797.2041 1668.2791 10924.892 65536
-4928.6309 1737.5015 11378.201 65793
-5100.9795 1823.2765 11939.908 1974047
-5170.0498 1874.0359 12272.311 0
-4813.688 1769.8306 11589.912 256
-4710.4756 1757.0255 11506.057 256
-4403.9932 1666.9056 10915.897 256
-4385.333 1684.6604 11032.166 256
-4364.6333 1702.1586 11146.755 0
-4448.269 1761.5127 11535.441 0
-4467.4023 1796.7823 11766.408 0
-4419.5483 1805.8032 11825.482 0
-4396.8164 1825.5465 11954.772 0
-4360.5161 1840.212 12050.812 65536
-4316.4927 1852.0536 12128.357 65536
-4295.4131 1874.3091 12274.1 65536
-4251.0166 1886.9833 12357.098 65536
-4200.4204 1897.3027 12424.676 0
-4132.7939 1900.1616 12443.397 0
-4137.5049 1936.9894 12684.568 0
-4082.428 1946.675 12747.995 0
-4043.9907 1964.8115 12866.764 0
-3985.8958 1973.9121 12926.359 0
-3942.3149 1990.6995 13036.293 0
-3898.6204 2008.101 13150.249 0
-3879.5649 2039.1655 13353.679 0
-3901.7361 2093.6497 13710.473 0
-3814.0989 2090.2786 13688.397 0
-3698.6023 2071.1594 13563.194 0
-3626.8608 2076.2371 13596.444 0
-3557.0674 2082.6863 13638.679 0
-3494.5371 2093.7883 13711.381 0
-3436.8647 2108.4004 13807.069 0
-3400.5007 2137.1191 13995.138 0
-3377.6387 2175.9763 14249.598 0
-3239.762 2140.8308 14019.443 0
-3170.1895 2150.1567 14080.516 0
-3102.5942 2161.3655 14153.917 0
-3035.8398 2173.8015 14235.354 0
-2962.791 2182.3137 14291.099 0
-2893.4207 2194.1179 14368.4 0
-2822.2551 2205.2375 14441.218 0
-2747.5125 2214.1721 14499.727 0
-2670.5974 2221.8777 14550.188 0
-2601.5562 2236.8691 14648.359 0
-2910.9834 2589.5801 16958.123 0
-2452.7751 2260.2192 14801.271 0
-2379.3811 2274.1499 14892.496 0
-2315.1521 2298.2546 15050.35 0
-2239.6035 2312.6089 15144.349 0
-2163.969 2328.072 15245.612 0
-2083.0227 2338.9233 15316.672 0
-2005.3145 2354.5676 15419.121 0
-1932.3765 2377.5798 15569.818 0
-1856.1696 2398.6826 15708.012 0
-1777.161 2418.2083 15835.878 0
-1702.2977 2445.8735 16017.047 0
-1619.8044 2465.2043 16143.636 256
-1538.5658 2488.999 16299.458 256
-1454.7465 2511.5359 16447.043 256
-1372.8854 2540.9441 16639.625 256
-1295.8091 2584.4612 16924.602 256
-1198.5626 2591.6882 16971.928 0
-1104.7827 2608.428 17081.551 0
-1066.0236 2771.6069 18150.145 0
-961.89014 2782.4233 18220.977 0
-881.00067 2871.751 18805.947 0
-758.66187 2832.2957 18547.57 0
-642.36371 2805.8103 18374.129 0
-540.53772 2844.6367 18628.387 0
-438.48923 2901.9924 19003.986 0
-331.39368 2954.1567 19345.59 0
-218.25124 2979.2061 19509.627 0
0 0 0 0
0 0 0 0
0 0 0 0
0 0 0 0
0 0 0 0
0 0 0 0
0 0 0 0
0 0 0 0
0 0 0 0
0 0 0 0
0 0 0 0
0 0 0 0
0 0 0 0
0 0 0 0
0 0 0 0
0 0 0 0
0 0 0 0
0 0 0 0
0 0 0 0
0 0 0 0
2238.1665 3007.9888 19698.113 5792611
0 0 0 0
0 0 0 0
2575.3982 2991.741 19591.715 1118738
2649.9688 2945.207 19286.98 66051
2778.9111 2960.4548 19386.834 1
2902.6768 2969.1936 19444.061 2
3023.324 2974.1956 19476.816 2
3136.7363 2971.9736 19462.266 2
3080.4463 2814.8396 18433.258 3159094
3436.2529 3032.1306 19856.209 1645597
3503.2288 2988.5916 19571.09 257
3621.8784 2990.5171 19583.699 256
3705.5059 2964.3057 19412.051 0
3813.8147 2958.8254 19376.164 0
3879.8223 2921.8105 19133.768 0
4000.8645 2927.1687 19168.855 0
4053.4978 2883.5659 18883.318 0
4173.7036 2889.0864 18919.471 65536
4258.854 2870.6887 18798.99 328964
4342.3706 2852.1582 18677.643 0
4536.7661 2905.564 19027.375 0
4588.7275 2867.3684 18777.248 0
4696.3345 2864.9329 18761.299 0
4678.4512 2787.8323 18256.396 0
4807.397 2799.7373 18334.357 256
4912.9434 2797.7888 18321.6 256
5042.2051 2809.1377 18395.918 256
5155.7705 2811.4453 18411.029 0
5331.6748 2846.9443 18643.498 0
5305.0322 2775.0459 18172.664 0
5470.1582 2804.3291 18364.428 0
5488.4399 2758.6575 18065.344 460806
5807.7075 2863.1208 18749.432 0
6018.813 2911.3325 19065.15 264456
0 0 0 0
6177.5186 2879.6731 18857.826 0
6446.7402 2951.6206 19328.982 0
6580.8052 2960.2512 19385.5 0
6736.3032 2978.0601 19502.123 0
6963.4819 3026.4199 19818.812 2
0 0 0 0
0 0 0 0
6733.0156 2784.9314 18237.4 10862784
0 0 0 0
0 0 0 0
0 0 0 0
0 0 0 0
0 0 0 0
0 0 0 0
0 0 0 0
7412.8955 2716.3176 17788.076 516
7198.7627 2600.7612 17031.344 3
7505.9043 2674.1238 17511.766 1513757
7533.9209 2647.3958 17336.734 3488061
7198.8438 2495.5208 16342.165 197894
7435.646 2543.2952 16655.021 132614
7490.3179 2528.3369 16557.066 198150
7827.0288 2607.7334 17077.002 2
7951.8574 2615.4082 17127.262 2
8085.4458 2625.7336 17194.879 2
8225.2588 2637.7974 17273.879 2
8310.1035 2632.1533 17236.918 256
8406.0488 2630.1196 17223.6 256
8505.2559 2629.1431 17217.205 256
8626.8926 2635.041 17255.828 256
8721.6514 2632.687 17240.412 256
8799.3975 2625.3118 17192.115 256
8889.1084 2621.6348 17168.035 0
9009.6631 2627.0344 17203.396 256
9127.5859 2631.5542 17232.994 256
9213.1689 2626.7534 17201.557 256
9226.3604 2601.645 17037.131 256
9163.5518 2555.884 16737.461 256
9256.2764 2554.0212 16725.262 256
9281.5742 2533.7908 16592.781 256
9362.8887 2529.1169 16562.174 256
9457.7549 2528.1631 16555.928 0
9458.5322 2502.3367 16386.801 256
9637.2568 2523.6348 16526.273 256
9732.8711 2522.9587 16521.846 256
9902.0029 2541.1636 16641.062 256
10082.106 2561.7959 16776.176 256
9949.2754 2503.2881 16393.031 256
9645.1113 2403.2249 15737.758 2
9941.1982 2453.2092 16065.085 2
9912.0977 2422.7585 15865.675 1
9865.6387 2388.679 15642.502 257
10267.226 2462.7043 16127.265 259
10088.501 2397.4539 15699.966 260
9752.6328 2296.3977 15038.188 517
10053.976 2345.8547 15362.063 519
10106.944 2336.991 15304.019 2307384
8801.5449 2016.9967 13208.503 7507600
9920.167 2253.2473 14755.614 8823462
10077.121 2268.8401 14857.726 8362654
8803.3506 1964.8361 12866.925 8822433
9036.1299 1999.4222 13093.415 6715515
8941.8955 1961.677 12846.237 3554882
9022.3779 1962.5759 12852.124 856853
9132.832 1969.9247 12900.248 516
9180.4873 1963.7183 12859.604 4
9147.0273 1940.4069 12706.947 4
8467.1465 1781.4718 11666.145 261
9549.4102 1992.8588 13050.434 257
9570.9082 1981.2528 12974.432 1514781
9778.4512 2008.0375 13149.833 771
9748.6562 1986.0454 13005.815 66564
10010.535 2023.3533 13250.13 1120023
10245.99 2054.7795 13455.929 258
10330.388 2055.6599 13461.694 2
10376.302 2048.9277 13417.608 0
10597.562 2076.6587 13599.205 0
10738.198 2088.2903 13675.377 0
10759.788 2076.7698 13599.934 0
10780.226 2065.2004 13524.171 0
10770.68 2048.1008 13412.192 0
10815.774 2041.5663 13369.399 0
10861.58 2035.2603 13328.104 0
10876.5 2023.3002 13249.782 0
10674.275 1971.4077 12909.96 0
10741.527 1969.6702 12898.581 256
10843.108 1974.2074 12928.294 256
9743.4219 1761.5048 11535.389 256
9703.4434 1742.0194 11407.788 256
9764.4053 1740.8003 11399.804 256
9618.4541 1702.9635 11152.026 256
9797.5049 1722.7931 11281.882 0
9734.3398 1700.0513 11132.955 0
11283.04 1957.22 12817.05 0
11340.946 1954.072 12796.436 256
11385.698 1948.7147 12761.352 256
11472.85 1950.637 12773.94 256
11443.752 1932.8989 12657.781 258
11599.417 1946.3962 12746.169 258
11685.171 1948.0631 12757.086 258
11663.423 1931.9022 12651.254 0
12747.405 2097.9258 13738.476 515
12575.088 2056.3943 13466.503 1027
12457.201 2024.2329 13255.891 133127
13410.211 2165.3975 14180.32 1120793
13369.344 2145.3159 14048.814 6714996
0 0 0 0
0 0 0 0
0 0 0 0
0 0 0 0
0 0 0 0
-8163.8447 1416.1498 8926.3779 0
-8146.791 1422.4352 8965.9971 0
-8227.5605 1445.9958 9114.5059 0
-8117.8721 1436.174 9052.5957 0
-8067.625 1436.8071 9056.5869 0
-8033.542 1440.3469 9078.8994 0
-7986.7852 1441.647 9087.0938 0
-7943.1328 1443.5289 9098.9561 0
-7903.6382 1446.1975 9115.7764 0
-7866.0518 1449.2543 9135.0449 0
-7824.4878 1451.6157 9149.9297 0
-7785.6133 1454.5127 9168.1904 0
-7741.2144 1456.4111 9180.1562 0
-7702.8467 1459.4794 9199.4961 0
-7661.3096 1461.9866 9215.2998 0
-7615.6489 1463.7374 9226.3359 0
-7572.4448 1465.9891 9240.5283 0
-7560.5771 1474.3846 9293.4482 0
-7534.1553 1480.0447 9329.125 0
-7505.8315 1485.4122 9362.958 0
-7463.1079 1487.989 9379.2002 65536
-7428.7183 1492.2786 9406.2383 65536
-7392.8643 1496.3369 9431.8193 65536
-7350.0181 1499.0311 9448.8018 65536
-7307.1099 1501.7542 9465.9658 65536
-7255.1509 1502.6449 9471.5801 65536
-7203.4849 1503.6106 9477.667 65536
-7162.4341 1506.8248 9497.9277 65536
-7124.667 1510.7864 9522.8984 65536
-7090.2612 1515.5299 9552.7979 65536
-7056.9287 1520.5812 9584.6377 65536
-7017.2256 1524.3309 9608.2734 65536
-6968.0601 1526.0699 9619.2344 65536
-6918.333 1527.7135 9629.5947 65536
-6878.8926 1531.6752 9654.5654 65536
-6840.6011 1535.9612 9681.582 65536
-6813.29 1542.8064 9724.7295 65536
-6780.1885 1548.4465 9760.2803 65536
-6750.8213 1555.0441 9801.8662 65536
-6716.2017 1560.5359 9836.4834 65536
-6671.6646 1563.7999 9857.0566 65536
-6629.3799 1567.6539 9881.3506 65536
-6593.8486 1573.1886 9916.2363 65536
-6554.7515 1577.9644 9946.3398 65536
-6509.6675 1581.3729 9967.8242 65536
-6464.5264 1584.8298 9989.6143 65536
-6429.4766 1590.8475 10027.546 65536
-6388.5884 1595.5203 10056.999 65536
-6338.7974 1598.0365 10072.859 65536
-6284.5039 1599.455 10081.801 65536
-6232.3242 1601.4437 10094.337 0
-6176.7866 1602.6001 10101.625 0
-6126.9795 1605.2804 10118.52 0
-6075.7769 1607.6445 10133.422 0
-6031.7134 1611.9642 10160.649 0
-5989.4097 1616.8459 10191.421 0
-5941.0562 1620.178 10212.423 0
-5891.7637 1623.3199 10232.228 0
-5846.0005 1627.51 10258.639 0
-5799.9087 1631.6958 10285.022 65536
-5752.3999 1635.568 10309.431 65536
-5705.8462 1639.7979 10336.093 65536
-5668.3667 1646.7562 10379.953 65536
-5625.3936 1652.254 10414.607 65536
-5578.6826 1656.7643 10443.036 65536
-5536.4058 1662.7074 10480.498 65536
-5500.0903 1670.5968 10530.227 65536
-5456.3726 1676.3934 10566.765 65536
-5411.9819 1682.116 10602.835 65536
-5362.0562 1686.2327 10628.783 65536
-5314.7866 1691.2925 10660.678 65536
-5269.5659 1697.1348 10697.503 65536
-5222.0312 1702.3651 10730.471 65536
-5167.8794 1705.5409 10750.489 65536
-5125.8218 1712.8376 10796.482 65536
-5082.7769 1719.9852 10841.536 65536
-5029.353 1723.7593 10865.324 65536
-4989.5059 1732.3452 10919.443 0
-4935.5996 1736.2119 10943.816 0
-4883.2222 1740.7268 10972.275 65536
-4829.479 1744.8704 10998.394 0
-4974.7905 1822.0321 11484.765 0
-5188.8247 1926.8608 12145.528 0
-5143.3389 1936.9153 12208.905 0
-4767.6978 1821.1464 11479.182 0
-4682.1992 1814.4525 11436.988 0
-4490.4351 1765.7744 11130.157 0
-4425.6953 1766.3372 11133.705 0
-4379.9434 1774.6107 11185.854 0
-4501.2695 1851.877 11672.885 0
-4442.4009 1856.2672 11700.559 0
-4402.1211 1868.6885 11778.853 0
-4375.228 1887.2854 11896.074 0
-4283.4648 1878.0516 11837.871 65536
-4304.6494 1918.8574 12095.081 65536
-4293.1045 1946.2118 12267.503 65536
-4247.2021 1958.6665 12346.009 65536
-4201.1929 1971.5093 12426.96 0
-4153.7769 1984.1398 12506.574 0
-4127.6118 2007.5664 12654.238 0
-4077.8796 2020.1877 12733.793 0
-4050.4705 2044.554 12887.38 0
-3997.1528 2056.5295 12962.866 65536
-3945.0483 2069.6123 13045.331 0
-3907.2505 2090.8757 13179.359 0
-3852.0134 2103.4858 13258.845 0
-3833.9084 2137.323 13472.13 0
-3775.1426 2149.4526 13548.586 0
-3694.9307 2149.6345 13549.731 0
-3624.6541 2155.7329 13588.172 0
-3552.0049 2160.666 13619.267 0
-3486.9548 2170.5598 13681.63 0
-3429.1829 2185.5647 13776.21 0
-3362.3445 2195.3838 13838.102 0
-3309.0747 2214.7766 13960.341 0
-3239.594 2224.0381 14018.718 0
-3170.1082 2233.7849 14080.154 0
-3092.3074 2238.0422 14106.989 0
-3025.551 2250.7532 14187.109 0
-2951.4426 2258.5664 14236.359 0
-2884.5164 2272.4995 14324.184 0
-2819.1108 2288.5144 14425.13 0
-2743.7461 2297.1956 14479.85 0
-2669.6792 2307.5608 14545.185 0
-2596.3953 2319.3193 14619.302 0
-2522.3906 2331.2258 14694.352 0
-2451.4692 2346.9382 14793.391 0
-2411.677 2394.73 15094.635 0
-2388.4497 2463.2986 15526.843 0
-2236.4905 2399.2773 15123.298 0
-2162.0664 2416.5559 15232.21 0
-2082.6577 2429.5295 15313.987 0
-2004.9281 2445.7375 15416.15 0
-1931.2937 2468.7327 15561.095 0
-1855.6488 2491.3416 15703.604 0
-1777.7715 2513.1895 15841.317 0
-1704.6914 2544.6416 16039.569 0
-1629.1295 2575.896 16236.574 256
-1545.8667 2598.1431 16376.804 256
-1472.8724 2641.7981 16651.973 256
-1400.6821 2693.2878 16976.527 256
-1303.0366 2700.0261 17019 256
-1207.4814 2712.5942 17098.221 256
-1206.2361 2958.8076 18650.17 256
-1060.2197 2863.803 18051.33 0
-1002.6902 3013.3313 18993.848 0
-876.83606 2969.4177 18717.049 0
-767.27148 2975.9233 18758.055 0
-656.47974 2979.072 18777.902 0
-555.26935 3035.8958 19136.078 0
-448.16211 3081.448 19423.207 0
-338.63535 3136.2014 19768.332 0
0 0 0 0
0 0 0 0
0 0 0 0
0 0 0 0
0 0 0 0
0 0 0 0
0 0 0 0
0 0 0 0
0 0 0 0
0 0 0 0
0 0 0 0
0 0 0 0
0 0 0 0
0 0 0 0
0 0 0 0
0 0 0 0
0 0 0 0
0 0 0 0
0 0 0 0
0 0 0 0
0 0 0 0
0 0 0 0
0 0 0 0
0 0 0 0
0 0 0 0
2710.8535 3130.1377 19730.109 3027508
0 0 0 0
2890.6926 3072.0208 19363.783 2
3030.0225 3096.7991 19519.969 256
3174.2063 3124.5283 19694.754 256
3239.9316 3075.801 19387.611 263429
3454.3596 3166.7419 19960.838 263172
3545.0801 3142.0024 19804.896 256
3634.3962 3117.6477 19651.383 257
3721.0706 3092.614 19493.59 0
3812.8318 3073.1926 19371.17 0
3897.4404 3049.3135 19220.654 0
3992.2053 3034.5142 19127.369 0
4067.74 3006.322 18949.666 0
4155.0991 2988.1521 18835.137 0
4290.2212 3004.3838 18937.449 0
4415.0054 3012.7307 18990.062 0
4498.9209 2993.469 18868.65 0
4545.7617 2951.0752 18601.432 0
4621.1772 2928.8047 18461.055 0
4732.6392 2929.8828 18467.85 0
4799.8623 2904.1458 18305.621 0
4904.478 2901.6719 18290.029 0
5057.0708 2927.0752 18450.152 0
5156.7114 2921.4016 18414.391 0
5256.3672 2915.9719 18380.166 0
5310.7725 2886.1719 18192.328 0
5414.0493 2883.5908 18176.059 0
5555.5273 2901.0588 18286.164 0
5753.4146 2946.7478 18574.154 0
5998.4736 3014.4221 19000.723 0
6054.7158 2986.4622 18824.484 0
6368.8735 3084.4243 19441.967 0
6434.5908 3060.7205 19292.555 0
6568.7666 3069.8398 19350.037 0
6731.2959 3091.6677 19487.625 256
6940.2251 3133.7085 19752.619 514
0 0 0 0
0 0 0 0
0 0 0 0
0 0 0 0
0 0 0 0
0 0 0 0
0 0 0 0
0 0 0 0
7645.3115 2995.9729 18884.434 2500650
7841.3423 3028.3342 19088.416 4147273
7687.5137 2926.5835 18447.053 8886681
7459.1094 2799.7031 17647.291 592909
7284.6367 2696.3032 16995.533 259
7329.2573 2675.7168 16865.771 3
7314.2939 2634.2271 16604.25 2
7406.5376 2631.938 16589.822 2
7529.3887 2640.4426 16643.43 2
7812.9897 2704.3684 17046.371 2
7926.02 2708.3728 17071.611 2
8031.9263 2709.8718 17081.061 1
7783.9907 2593.4419 16347.171 1
7785.8188 2562.0723 16149.439 132099
8396.04 2729.2319 17203.092 256
8489.9268 2726.5479 17186.174 256
8608.4912 2731.7588 17219.02 256
8686.9248 2724.2625 17171.768 256
8757.0254 2714.3569 17109.33 256
8848.7236 2711.2961 17090.039 0
8987.1641 2722.4648 17160.438 256
9108.1104 2728.1423 17196.225 256
9226.541 2732.9492 17226.523 256
9211.8779 2698.6599 17010.389 256
9183.8916 2661.2544 16774.611 256
9277.5996 2659.5378 16763.791 256
9299.1055 2637.3794 16624.121 256
9396.918 2637.1016 16622.369 256
9433.0781 2619.7075 16512.73 0
9479.0674 2605.3735 16422.379 256
9587.2041 2608.2393 16440.441 256
9743.7939 2624.0955 16540.389 256
9665.9922 2577.1418 16244.428 256
10131.748 2674.6067 16858.775 256
9814.8906 2565.5896 16171.611 66049
10286.259 2662.7292 16783.908 2
9899.3574 2537.9626 15997.47 2
9886.3057 2510.5042 15824.392 2
9722.2598 2445.5815 15415.167 258
9827.6699 2449.0186 15436.832 260
9586.7285 2366.8811 14919.096 260
9599.8115 2348.3901 14802.543 772
10098.867 2448.0388 15430.656 67594
10039.845 2411.8293 15202.417 528402
7770.8252 1850.1023 11661.699 7705491
9956.1699 2349.4409 14809.166 8889764
10421.408 2437.6772 15365.344 8626848
10621.856 2462.9814 15524.843 9678256
10667.182 2452.1895 15456.819 9743790
10535.198 2401.1704 15135.231 12175818
9400.7637 2124.4717 13391.124 4146504
8988.1562 2014.1746 12695.891 259
9236.5254 2052.6006 12938.1 65796
9395.8848 2070.7749 13052.658 2
8990.7686 1965.2643 12387.597 2
9484.6152 2056.3735 12961.883 2
9606.1709 2065.948 13022.233 3
9655.5215 2059.9648 12984.52 3
9779.2578 2069.8203 13046.642 3
9920.5889 2083.2158 13131.076 3
10091.4 2102.5442 13252.909 2
10338.025 2137.2463 13471.646 2
10382.641 2129.9739 13425.806 2
10586.725 2155.2771 13585.299 0
10740.972 2170.1282 13678.909 0
10811.053 2167.8787 13664.73 0
10807.988 2151.105 13559 0
10824.36 2138.4189 13479.038 0
10805.63 2119.0359 13356.86 256
10899.195 2121.7964 13374.261 256
10889.336 2104.5288 13265.418 0
11224.797 2153.7681 13575.787 2632233
11437.37 2178.8933 13734.159 256
10623.54 2009.512 12666.501 256
10495.046 1971.2375 12425.248 256
10607.882 1978.5096 12471.085 256
10719.236 1985.4061 12514.556 256
9612.7842 1768.201 11145.453 256
9641.8037 1761.4012 11102.592 0
9789.335 1776.1969 11195.853 256
11367.74 2048.6606 12913.266 256
11387.688 2038.4928 12849.176 256
11410.668 2028.9999 12789.339 256
11426.694 2018.4042 12722.551 256
11450.187 2009.2579 12664.899 2
11616.879 2025.1953 12765.357 257
11696.26 2025.8035 12769.191 2
11725.094 2017.7056 12718.148 258
12885.629 2203.2122 13887.446 514
12543.373 2131.0422 13432.54 132357
13013 2196.8467 13847.324 5662051
0 0 0 0
15006.75 2501.7861 15769.438 5006432
0 0 0 0
0 0 0 0
0 0 0 0
0 0 0 0
0 0 0 0
-8179.854 1472.0835 8943.8828 0
-8252.2441 1494.8253 9082.0547 0
-8214.9443 1497.8661 9100.5293 0
-8066.0825 1480.4711 8994.8428 0
-8031.5215 1483.9628 9016.0576 0
-7986.9663 1485.6426 9026.2637 0
-7942.7354 1487.4058 9036.9756 0
-7909.3047 1491.2292 9060.2061 0
-7928.4653 1505.0886 9144.4111 0
-7894.8198 1509.0459 9168.4541 0
-7859.3516 1512.7073 9190.6992 0
-7822.3081 1516.1147 9211.4014 0
-7778.1318 1518.1777 9223.9365 0
-7739.689 1521.3973 9243.4971 0
-7710.9536 1526.5846 9275.0137 0
-7668.2627 1529.064 9290.0771 0
-7625.2559 1531.5159 9304.9736 0
-7610.2661 1539.6716 9354.5254 0
-7647.0322 1558.4956 9468.8945 0
-7536.6494 1547.387 9401.4014 0
-7498.8081 1551.1173 9424.0654 65536
-7462.0068 1555.1207 9448.3887 65536
-7424.2852 1558.9913 9471.9062 65536
-7382.4316 1562.047 9490.4707 65536
-7341.0503 1565.2505 9509.9336 65536
-7290.7427 1566.5854 9518.0449 65536
-7236.3345 1567.0533 9520.8877 65536
-7196.7661 1570.7676 9543.4541 65536
-7155.2339 1574.1086 9563.7539 0
-7115.9741 1578.0074 9587.4414 0
-7077.3618 1582.114 9612.3906 0
-7037.9888 1586.1155 9636.7031 0
-6990.5996 1588.3616 9650.3496 65536
-6940.373 1589.9946 9660.2715 65536
-6892.4858 1592.1956 9673.6436 65536
-6847.168 1595.0319 9690.876 65536
-6807.4702 1599.2367 9716.4229 65536
-6769.9258 1604.0237 9745.5068 65536
-6738.2949 1610.3062 9783.6777 65536
-6701.876 1615.5443 9815.5029 65536
-6659.1108 1619.3311 9838.5088 65536
-6612.9941 1622.3624 9856.9277 65536
-6575.6968 1627.6312 9888.9385 65536
-6537.3096 1632.7227 9919.8721 65536
-6491.8979 1636.1366 9940.6143 65536
-6459.1694 1642.839 9981.3359 0
-6426.498 1649.6803 10022.901 0
-6384.4917 1654.2311 10050.55 0
-6336.4199 1657.2812 10069.082 0
-6283.6904 1659.1598 10080.495 0
-6225.9155 1659.7294 10083.956 0
-6170.6338 1660.9812 10091.562 0
-6124.3711 1664.7092 10114.212 0
-6072.626 1667.0061 10128.167 0
-6030.731 1672.0801 10158.994 0
-5983.6938 1675.8164 10181.695 0
-5932.2021 1678.3689 10197.203 0
-5882.8462 1681.5844 10216.74 0
-5836.041 1685.6039 10241.161 0
-5786.0176 1688.7688 10260.39 65536
-5743.8989 1694.3326 10294.194 65536
-5701.938 1700.0635 10329.013 65536
-5665.7334 1707.6542 10375.131 65536
-5626.1221 1714.3737 10415.956 65536
-5586.6694 1721.2916 10457.987 65536
-5545.8247 1727.9315 10498.329 65536
-5500.7495 1733.3894 10531.489 65536
-5460.4414 1740.4924 10574.645 65536
-5417.5767 1746.9363 10613.796 65536
-5371.502 1752.4847 10647.507 65536
-5316.9175 1755.3562 10664.952 65536
-5270.0659 1760.8806 10698.518 65536
-5229.2871 1768.5939 10745.38 65536
-5178.9248 1773.2167 10773.467 65536
-5135.1616 1780.2426 10816.154 65536
-5093.3228 1788.1227 10864.031 65536
-5053.2939 1796.8485 10917.046 65536
-5014.1138 1806.1071 10973.298 0
-4973.478 1815.0784 11027.805 65536
-4929.2051 1822.9445 11075.596 0
-4881.0454 1829.5664 11115.828 0
-4841.5166 1839.6495 11177.09 0
-4829.0908 1860.455 11303.497 0
-4793.9141 1872.9584 11379.464 0
-4756.3027 1884.8555 11451.746 0
-4732.9814 1902.8429 11561.031 0
-4712.9551 1922.7043 11681.703 0
-4652.3384 1926.3529 11703.87 0
-4609.4468 1937.5627 11771.979 0
-4569.6328 1950.432 11850.167 65536
-4523.1865 1960.8291 11913.336 65536
-4483.5181 1974.5413 11996.647 0
-4450.1323 1991.5088 12099.736 0
-4396.6768 1999.9045 12150.745 65536
-4334.3594 2004.4822 12178.558 65536
-4318.6367 2031.1298 12340.46 65536
-4267.165 2041.5944 12404.039 65536
-4217.5835 2053.3472 12475.444 0
-4166.0303 2064.543 12543.468 0
-4124.6753 2081.293 12645.235 0
-4063.043 2088.2434 12687.463 0
-4037.7168 2114.4692 12846.802 65536
-3984.2556 2126.6882 12921.04 65536
-3942.0999 2145.5405 13035.581 65536
-3875.1917 2151.407 13071.223 0
-3844.0972 2177.803 13231.597 0
-3795.5024 2195.1799 13337.174 0
-3749.5295 2214.8472 13456.665 0
-3681.3779 2221.9851 13500.032 0
-3615.3076 2230.7253 13553.135 0
-3551.512 2241.2991 13617.378 0
-3489.7393 2253.6729 13692.556 0
-3425.8777 2265.2559 13762.931 0
-3365.0833 2279.4836 13849.373 0
-3302.0623 2292.8787 13930.757 0
-3229.7507 2300.3452 13976.122 0
-3162.686 2312.042 14047.188 0
-3086.8518 2317.7886 14082.102 0
-3016.2412 2327.8865 14143.454 0
-2940.7722 2334.7068 14184.891 0
-2878.168 2352.4443 14292.658 0
-3005.7942 2531.4722 15380.371 0
-2746.6328 2385.7615 14495.083 0
-2666.1077 2390.8049 14525.726 0
-2595.9309 2405.7766 14616.687 0
-2520.5947 2416.8372 14683.889 0
-2469.7473 2453.0146 14903.689 0
-2384.1516 2456.0867 14922.354 0
-2395.0598 2562.6528 15569.814 0
-2237.9094 2490.7395 15132.894 0
-2157.6631 2501.98 15201.187 0
-2080.0881 2517.436 15295.092 0
-2004.47 2536.7812 15412.627 0
-1940.2024 2573.032 15632.875 0
-1859.3268 2589.7966 15734.73 0
-1783.1801 2615.2725 15889.513 0
-1710.7192 2649.3057 16096.287 0
-1630.4283 2674.5261 16249.52 0
-1548.7229 2700.4565 16407.062 0
-1468.4343 2732.5076 16601.795 0
-1384.5262 2761.9563 16780.715 256
-1314.0139 2824.7742 17162.375 256
-1235.5986 2879.7461 17496.367 256
-1144.4877 2912.5132 17695.447 256
-1097.5245 3075.6287 18686.482 0
-981.82544 3061.1655 18598.609 0
-862.68298 3030.9346 18414.936 0
-769.74408 3097.3582 18818.504 0
-674.43634 3175.2141 19291.531 0
-563.50049 3196.3171 19419.746 0
-459.9238 3280.7869 19932.955 0
0 0 0 0
0 0 0 0
0 0 0 0
0 0 0 0
0 0 0 0
0 0 0 0
0 0 0 0
0 0 0 0
0 0 0 0
0 0 0 0
0 0 0 0
0 0 0 0
0 0 0 0
0 0 0 0
0 0 0 0
0 0 0 0
0 0 0 0
0 0 0 0
0 0 0 0
0 0 0 0
0 0 0 0
0 0 0 0
0 0 0 0
0 0 0 0
0 0 0 0
2538.1787 3178.0203 19308.578 1514267
2703.928 3239.1045 19679.705 2699312
2760.6462 3169.9275 19259.41 257
2920.0884 3219.5164 19560.695 460810
2981.2664 3161.1157 19205.873 197635
3176.3579 3243.7781 19708.102 256
3285.1431 3235.5574 19658.154 256
3418.0715 3250.8633 19751.148 0
3549.8989 3264.1404 19831.816 256
3644.0664 3243.0486 19703.67 0
3695.1265 3186.1008 19357.676 197379
3844.7524 3215.0146 19533.344 0
3928.8062 3189.0081 19375.336 0
4016.728 3167.5327 19244.861 0
4084.907 3132.1089 19029.639 0
4161.6099 3104.9534 18864.65 0
4320.9634 3139.27 19073.146 0
4397.8281 3113.4348 18916.18 0
4470.0039 3085.6504 18747.371 0
4492.749 3025.9253 18384.502 0
4572.8848 3006.7717 18268.131 0
4678.041 3004.5767 18254.795 0
4752.229 2983.0422 18123.959 0
4841.5161 2971.7297 18055.229 0
5008.2158 3007.394 18271.912 0
5103.5566 2999.603 18224.576 0
5192.7363 2988.5898 18157.664 0
5267.3311 2969.8022 18043.518 0
5359.8662 2961.6775 17994.154 0
5501.7168 2980.5874 18109.045 0
5657.9297 3006.4036 18265.895 0
5839.9644 3044.71 18498.631 256
6002.9795 3071.8677 18663.633 131842
6154.1592 3092.0935 18786.518 197636
6305.9712 3111.9106 18906.92 256
6487.5928 3145.4866 19110.916 0
6645.0688 3166.4021 19237.992 256
6907.6758 3235.8579 19659.98 770
7118.1562 3278.9905 19922.041 771
0 0 0 0
6730.0693 3000.4001 18229.42 9940398
0 0 0 0
0 0 0 0
0 0 0 0
0 0 0 0
0 0 0 0
7098.9438 2886.083 17534.867 260
7170.4653 2872.9836 17455.279 330765
7894.1797 3117.8442 18942.971 10333608
0 0 0 0
7162.165 2750.2842 16709.799 259
7274.2583 2755.1248 16739.209 3
7341.8096 2743.1924 16666.713 2
7373.4409 2718.3352 16515.688 1
7514.2451 2733.8506 16609.955 2
7656.541 2749.4995 16705.031 1
7784.2783 2759.5864 16766.316 2
7535.0293 2637.4629 16024.336 256
8193.0254 2831.9849 17206.186 256
7893.54 2694.8293 16372.875 256
8346.6035 2814.8037 17101.799 257
8449.1426 2815.1028 17103.615 257
8543.3369 2812.6475 17088.697 526858
8444.9336 2747.5874 16693.414 256
8704.7256 2799.2249 17007.146 0
8797.7549 2796.666 16991.6 0
8931.207 2806.8691 17053.59 0
9067.709 2817.791 17119.947 0
9145.0547 2810.2913 17074.383 256
9182.8389 2790.9329 16956.768 256
9183.1123 2760.7178 16773.189 256
9403.3379 2796.5654 16990.988 256
9282.6543 2731.3416 16594.711 256
9388.0566 2733.3142 16606.695 256
9434.4111 2718.2327 16515.064 0
9498.3105 2708.4644 16455.717 256
9649.5156 2723.5371 16547.293 256
9873.8232 2758.7305 16761.117 256
10022.425 2772.28 16843.439 256
10190.146 2790.7979 16955.947 256
9928.8057 2692.5957 16359.305 0
9881.9531 2653.9014 16124.209 256
9850.5508 2620.0593 15918.598 256
9833.6699 2590.6873 15740.142 2
9668.124 2523.0715 15329.332 258
9824.0068 2539.8181 15431.078 258
9844.6572 2521.6162 15320.49 131844
9805.001 2488.4429 15118.939 260
9974.4521 2508.4597 15240.555 261
9978.6162 2486.9226 15109.703 518
9623.1699 2376.9451 14441.518 527888
9437.8799 2310.5698 14038.243 4676705
10143.391 2461.5312 14955.434 7967894
10584.298 2546.2156 15469.947 9744049
10559.67 2518.4141 15301.034 9349033
10528.009 2489.4243 15124.903 5791588
9593.4775 2249.2424 13665.64 4607313
8958.6182 2082.7634 12654.169 259
9182.8799 2117.1279 12862.955 4
9206 2104.9343 12788.871 2
8487.3555 1924.7264 11693.988 2
8022.2588 1804.4772 10963.395 2
9530.334 2126.4229 12919.428 258
9644.3164 2134.656 12969.45 257
9791.1055 2149.9624 13062.447 257
10043.072 2187.9419 13293.197 66050
10063.777 2175.3398 13216.632 257
10244.212 2197.1921 13349.397 256
10339.14 2200.5095 13369.554 0
10606.7 2240.2383 13610.933 0
10731.209 2249.3804 13666.477 0
10779.097 2242.4451 13624.34 0
11354.354 2344.5073 14244.436 0
11481.175 2353.1484 14296.937 0
10831.106 2203.6035 13388.352 0
10901.778 2201.8062 13377.432 0
10885.52 2182.6047 13260.77 0
11067.601 2203.1616 13385.667 0
11314.096 2236.156 13586.13 256
10615.652 2083.2456 12657.098 257
11588.546 2258.1667 13719.86 856078
10701.828 2070.8081 12581.532 256
10787.325 2072.8682 12594.048 256
10733.807 2048.3711 12445.212 256
10697.3 2027.4332 12318.001 0
10677.129 2009.8553 12211.204 256
11377.022 2127.144 12923.81 256
11416.061 2120.1294 12881.19 256
11462.89 2114.645 12847.87 256
11402.246 2089.5383 12695.33 256
