# .PCD v0.7 - Point Cloud Data file format
VERSION 0.7
FIELDS x y z rgb
SIZE 4 4 4 4
TYPE F F F U
COUNT 1 1 1 1
WIDTH 1653
HEIGHT 1
VIEWPOINT 0 0 0 1 0 0 0
POINTS 1653
DATA ascii
10472.771 2336.7004 14197.005 0
10513.876 2327.123 14138.814 0
10656.677 2340.0276 14217.219 0
10777.199 2347.8755 14264.9 0
11005.436 2378.8843 14453.299 0
11344.399 2433.1619 14783.07 0
11211.848 2386.2505 14498.054 0
11399.24 2407.6304 14627.95 256
11742.615 2461.3823 14954.529 256
11918.063 2479.3916 15063.947 256
12168.139 2512.5417 15265.357 256
12289.851 2518.8923 15303.94 256
13154.081 2676.2158 16259.785 256
13819.198 2791.0305 16957.359 256
14066.294 2820.3667 17135.598 0
14472.449 2880.9443 17503.646 0
16127.555 3187.5044 19366.201 0
0 0 0 0
16805.707 3274.7927 19896.537 0
0 0 0 0
0 0 0 0
0 0 0 0
0 0 0 0
0 0 0 0
0 0 0 0
0 0 0 0
0 0 0 0
0 0 0 0
0 0 0 0
0 0 0 0
0 0 0 0
0 0 0 0
0 0 0 0
0 0 0 0
0 0 0 0
0 0 0 0
18147.633 3138.7444 19069.951 1380624
17075.668 2935.011 17832.137 65536
17689.061 3021.6877 18358.756 0
17395.475 2953.3198 17943.375 526342
0 0 0 0
0 0 0 0
-8609.0059 1605.2611 9413.1191 65536
-8567.9717 1608.0596 9429.5303 65536
-8528.7314 1611.2339 9448.1436 65536
-8489.6436 1614.4791 9467.1738 65536
-8449.75 1617.6138 9485.5547 65536
-8399.3076 1618.7573 9492.2598 65536
-8355.7861 1621.2593 9506.9316 65536
-8307.1777 1622.8011 9515.9736 65536
-8271.208 1626.8506 9539.7188 65536
-8225.5146 1629.0302 9552.499 0
-8191.2949 1633.5278 9578.873 0
-8146.4224 1635.9491 9593.0723 0
-8111.0918 1640.3344 9618.7871 0
-8066.709 1642.9385 9634.0566 0
-8023.812 1645.8844 9651.3311 0
-7982.248 1649.1481 9670.4688 0
-7941.8643 1652.7047 9691.3252 0
-7896.2886 1655.2251 9706.1045 0
-7852.5874 1658.1783 9723.4219 0
-7820.0405 1663.5482 9754.9102 0
-7778.7515 1667.1248 9775.8828 0
-7733.4565 1669.8899 9792.0977 0
-7691.8745 1673.5051 9813.2969 0
-7644.9995 1676.0149 9828.0146 0
-7602.9111 1679.621 9849.1602 0
-7569.0645 1685.1177 9881.3926 0
-7518.5996 1686.972 9892.2656 0
-7469.1724 1689.0901 9904.6855 0
-7420.0312 1691.307 9917.6855 0
-7371.1362 1693.6157 9931.2246 0
-7331.7231 1698.1581 9957.8604 0
-7289.2939 1702.0703 9980.8008 0
-7243.7612 1705.3159 9999.833 0
-7209.397 1711.2664 10034.726 0
-7169.252 1715.9323 10062.086 0
-7121.7065 1718.8906 10079.434 0
-7073.3633 1721.7051 10095.938 0
-7031.4746 1726.1519 10122.014 0
-6985.9375 1729.7725 10143.244 0
-6960.4243 1738.457 10194.17 0
-6931.8652 1746.5267 10241.49 0
-6893.936 1752.3578 10275.683 0
-6850.7256 1756.9386 10302.544 0
-6814.7617 1763.4772 10340.886 0
-6776.5601 1769.5505 10376.499 0
-6732.8174 1774.2749 10404.203 0
-6693.3193 1780.2161 10439.041 0
-6651.791 1785.7233 10471.335 0
-6612.4126 1791.9172 10507.656 0
-6570.4131 1797.5123 10540.465 65536
-6528.4673 1803.2296 10573.991 0
-6484.5405 1808.506 10604.931 0
-6443.0703 1814.5773 10640.533 0
-6396.0444 1819.1892 10667.576 0
-6353.5239 1825.1876 10702.751 0
-6310.8159 1831.2531 10738.318 0
-6272.3452 1838.6844 10781.895 0
-6226.1055 1843.9683 10812.879 0
-6177.8994 1848.7738 10841.059 0
-6134.3979 1855.1035 10878.175 65536
-6096.3379 1863.231 10925.834 65536
-6051.519 1869.4457 10962.276 65536
-6012.5244 1877.6143 11010.177 65536
-5969.0122 1884.5366 11050.769 0
-5929.3105 1892.8292 11099.396 0
-5875.2217 1896.6639 11121.883 0
-5825.5054 1902.0135 11153.252 0
-5775.6812 1907.4506 11185.135 0
-5729.2495 1914.1481 11224.407 0
-5683.8296 1921.3448 11266.609 0
-5645.6719 1931.1976 11324.385 0
-5610.8818 1942.4541 11390.392 0
-5578.0952 1954.6874 11462.127 0
-5543.7388 1966.6664 11532.371 0
-5499.4414 1975.3745 11583.435 0
-5447.9487 1981.6862 11620.445 0
-5401.6426 1990.0709 11669.613 65536
-5360.2051 2000.4905 11730.713 65536
-5323.3188 2012.9058 11803.515 65536
-5288.8267 2026.5699 11883.641 65536
-5255.0059 2040.8651 11967.466 65536
-5228.6235 2058.4807 12070.762 65536
-5195.2407 2073.7917 12160.546 65536
-5154.6528 2086.6187 12235.762 65536
-5111.9937 2098.9622 12308.142 65536
-5062.2573 2108.7161 12365.338 65536
-5023.5845 2123.4333 12451.64 65536
-4984.8262 2138.5544 12540.309 65536
-4950.3442 2155.9971 12642.59 65536
-4910.3672 2171.5471 12733.774 65536
-4885.54 2194.3889 12867.716 65536
-4837.4004 2207.3191 12943.539 65536
-4784.2056 2218.3237 13008.069 65536
-4739.6997 2233.7849 13098.731 0
-4696.6006 2250.436 13196.373 65536
-4650.7329 2266.3042 13289.422 65536
-4608.3652 2284.4553 13395.859 65536
-4565.0703 2302.7771 13503.296 0
-4515.751 2318.6609 13596.438 0
-4468.7734 2336.3486 13700.156 0
-4411.5928 2349.259 13775.862 0
-4343.5044 2356.7393 13819.727 0
-4294.8633 2375.2629 13928.348 0
-4265.8481 2405.5825 14106.139 0
-4207.1094 2420.02 14190.8 0
-4145.542 2433.3877 14269.186 0
-4066.7612 2436.9988 14290.361 0
-3988.4016 2441.0215 14313.95 0
-3929.5938 2457.4468 14410.267 0
-3876.8594 2478.4871 14533.645 0
-3828.9116 2503.6157 14680.997 0
-3774.4844 2525.5806 14809.798 0
-3722.4131 2550.209 14954.217 0
-3645.0415 2558.2847 15001.572 0
-3568.2866 2567.2092 15053.905 0
-3495.8635 2579.7896 15127.675 0
-3438.9817 2604.8057 15274.366 0
-3374.021 2624.8926 15392.155 0
-3306.8213 2644.3093 15506.014 0
-3256.9307 2679.0774 15709.89 0
-3182.0215 2694.7102 15801.56 0
-3105.7915 2710.1416 15892.048 0
-3113.0144 2801.6467 16428.627 0
-2979.8257 2768.6187 16234.953 0
-2907.7009 2792.0144 16372.144 0
-2822.9365 2804.4731 16445.201 0
-2761.51 2841.8425 16664.332 0
-2702.5662 2884.6421 16915.305 0
-2621.1235 2905.8062 17039.41 0
-2542.3616 2931.7632 17191.619 0
-2472.3591 2970.418 17418.287 0
-2391.7964 2999.209 17587.115 0
-2339.6658 3067.9128 17989.99 0
-2237.23 3074.0754 18026.127 0
-2166.3528 3126.4023 18332.967 0
-2010.1433 3054.6008 17911.93 0
-1939.6259 3112.2683 18250.086 65536
-1825.3225 3102.3479 18191.914 0
-1732.8821 3130.6765 18358.031 0
-1688.8209 3256.0886 19093.438 0
0 0 0 0
0 0 0 0
0 0 0 0
0 0 0 0
-1092.5471 3172.2366 18601.736 394757
0 0 0 0
-918.2843 3342.7834 19601.809 65536
0 0 0 0
0 0 0 0
0 0 0 0
0 0 0 0
0 0 0 0
0 0 0 0
0 0 0 0
0 0 0 0
0 0 0 0
0 0 0 0
0 0 0 0
0 0 0 0
0 0 0 0
0 0 0 0
0 0 0 0
0 0 0 0
0 0 0 0
0 0 0 0
0 0 0 0
0 0 0 0
0 0 0 0
0 0 0 0
0 0 0 0
0 0 0 0
0 0 0 0
0 0 0 0
0 0 0 0
0 0 0 0
0 0 0 0
0 0 0 0
0 0 0 0
0 0 0 0
0 0 0 0
3084.9456 3389.166 19873.793 65536
3167.9153 3351.9771 19655.719 65536
3254.8906 3321.5208 19477.127 65536
3321.8049 3273.3875 19194.877 65536
3393.3149 3232.8293 18957.047 65536
3497.0288 3224.573 18908.631 65536
3630.0225 3242.988 19016.615 65536
3734.2307 3235.3516 18971.836 65536
3806.4045 3201.2212 18771.699 65536
3867.092 3159.6497 18527.928 196608
3936.5625 3127.3579 18338.572 196608
3986.791 3081.9314 18072.193 262144
4016.1599 3023.1863 17727.717 262144
4014.146 2944.4246 17265.865 262144
4027.0085 2880.2297 16889.432 262144
4071.8201 2841.4524 16662.045 393216
4063.7659 2768.5007 16234.262 393216
4039.2417 2687.9729 15762.054 393216
4054.1484 2636.7407 15461.632 393216
3957.2515 2516.6763 14757.584 458752
3996.0867 2486.2681 14579.271 458752
4039.4944 2459.9348 14424.856 458752
4107.8511 2449.574 14364.101 458752
4208.8145 2458.6826 14417.514 524288
4235.1489 2424.7012 14218.25 589824
4286.5229 2406.105 14109.203 655360
4024.8091 2215.8521 12993.575 655360
4170.6392 2252.9111 13210.887 720896
4034.4624 2139.0803 12543.393 720896
4722.4785 2458.4402 14416.093 655360
4838.3848 2473.8955 14506.72 720896
4977.9614 2500.7 14663.9 851968
5036.3501 2486.4988 14580.626 655360
5143.0557 2496.2295 14637.685 458752
5434.5244 2593.8208 15209.953 393216
6336.7842 2974.9707 17444.984 196608
6104.6289 2819.8416 16535.32 65536
5688.3027 2585.9036 15163.527 0
5777.9912 2585.7095 15162.39 0
5880.2446 2591.0581 15193.752 256
5960.9331 2586.8862 15169.289 256
6078.3716 2598.5496 15237.683 256
6184.248 2605.0002 15275.508 256
6302.6396 2616.4595 15342.704 256
6416.0332 2625.5471 15395.993 0
6490.9575 2618.8579 15356.768 0
6590.3716 2622.0977 15375.767 0
6680.9395 2621.7776 15373.89 0
6754.4531 2614.864 15333.349 0
6782.1074 2590.6172 15191.168 0
6891.8955 2597.9685 15234.274 0
7019.4668 2611.7461 15315.065 0
7038.1182 2585.1631 15159.186 0
7119.6616 2582.0613 15140.996 0
7228.4951 2588.8108 15180.574 0
7380.2041 2610.5596 15308.108 0
7575.5347 2647.021 15521.914 0
7688.8364 2654.2876 15564.525 256
7546.2793 2574.1055 15094.345 0
7657.4009 2581.3235 15136.669 0
7808.8911 2601.8237 15256.881 0
7804.7568 2570.5962 15073.766 0
7723.9019 2515.0957 14748.315 256
7337.2866 2362.3945 13852.889 0
7928.4614 2524.4089 14802.928 256
7929.1523 2496.9216 14641.744 256
7900.5283 2460.9001 14430.517 0
8131.2363 2505.5627 14692.415 0
8095.4731 2468.0383 14472.374 0
8173.3315 2465.5776 14457.946 0
8083.2583 2413.0371 14149.853 0
8178.0903 2416.2085 14168.449 0
8507.6846 2487.969 14589.247 0
8225.459 2381.1672 13962.97 461064
8472.4141 2428.1599 14238.53 395271
8325.0889 2362.3413 13852.576 592650
8513.9531 2392.2754 14028.107 0
8819.1865 2454.0098 14390.112 256
8636.1631 2380.0015 13956.134 1645081
9270.3359 2530.4663 14838.447 2039584
8932.8311 2415.3621 14163.485 789772
8880.4141 2378.7727 13948.929 65536
9019.0332 2393.5593 14035.635 0
9187.8486 2416.0149 14167.313 0
9252.0479 2410.803 14136.751 0
9312.6465 2404.7549 14101.286 0
9381.2227 2400.8567 14078.427 0
9485.625 2406.1147 14109.26 0
9560.251 2403.7939 14095.651 0
9651.6553 2405.6953 14106.801 0
9645.0605 2383.3481 13975.759 0
9657.4775 2366.0405 13874.268 0
8282.0645 2011.8917 11797.568 0
8221.8525 1980.4977 11613.477 0
8224.8066 1964.7157 11520.932 0
9166.0898 2171.4883 12733.43 0
9712.1904 2282.0205 13381.581 0
10404.312 2424.7883 14218.76 0
10460.711 2418.2905 14180.658 0
10584.223 2427.2876 14233.415 0
10762.822 2448.6748 14358.829 0
10949.622 2471.5767 14493.123 0
11153.297 2497.9004 14647.483 0
11498.236 2555.209 14983.537 0
11363.79 2505.9236 14694.53 0
11635.496 2546.2708 14931.124 256
11884.727 2581.1257 15135.511 256
12059.519 2599.4121 15242.74 256
12293.076 2629.9985 15422.096 256
12513.429 2657.3274 15582.351 256
13477.505 2841.0305 16659.57 256
13896.28 2907.9441 17051.945 0
14339.857 2979.041 17468.854 0
14414.056 2972.9309 17433.023 0
0 0 0 0
16353.358 3325.1135 19498.193 0
16779.625 3387.7791 19865.658 0
0 0 0 0
0 0 0 0
0 0 0 0
0 0 0 0
0 0 0 0
0 0 0 0
0 0 0 0
0 0 0 0
0 0 0 0
0 0 0 0
0 0 0 0
0 0 0 0
0 0 0 0
0 0 0 0
0 0 0 0
0 0 0 0
0 0 0 0
0 0 0 0
14853.342 2645.2209 15511.359 65536
17279.881 3058.3794 17934.086 196608
15422.306 2712.8716 15908.057 196608
0 0 0 0
0 0 0 0
-8617.8877 1662.9204 9422.8311 65536
-8589.5664 1668.2968 9453.2959 65536
-8550.2803 1671.6003 9472.0156 65536
-8503.4863 1673.4701 9482.6104 65536
-8468.1328 1677.6315 9506.1904 65536
-8423.3955 1679.9773 9519.4824 65536
-8378.4199 1682.3069 9532.6836 65536
-8327.5938 1683.4854 9539.3613 65536
-8280.4854 1685.4368 9550.4189 65536
-8236.2773 1688.0095 9564.9971 0
-8194.7549 1691.1722 9582.9189 0
-8146.1826 1692.9144 9592.79 0
-8112.5913 1697.816 9620.5654 0
-8067.3428 1700.3306 9634.8135 0
-8024.5796 1703.4083 9652.2539 0
-7984.9976 1707.2108 9673.7998 0
-7940.874 1710.0903 9690.1172 0
-7898.0908 1713.3027 9708.3193 0
-7850.6606 1715.5469 9721.0361 0
-7811.6235 1719.6719 9744.4102 0
-7770.5215 1723.4006 9765.5391 0
-7722.6353 1725.6697 9778.3965 0
-7678.9541 1728.9198 9796.8125 0
-7636.7124 1732.5459 9817.3604 0
-7596.8735 1736.7775 9841.3379 0
-7547.5591 1738.8916 9853.3174 0
-7500.7822 1741.6282 9868.8232 0
-7458.9634 1745.5679 9891.1475 0
-7419.7119 1750.1758 9917.2578 0
-7377.7363 1754.2098 9940.1172 0
-7330.2715 1756.9932 9955.8887 0
-7301.6689 1764.38 9997.7451 0
-7263.0986 1769.4594 10026.527 0
-7228.4854 1775.5948 10061.294 0
-7187.5342 1780.2631 10087.746 0
-7148.7949 1785.5621 10117.772 0
-7087.5674 1785.2863 10116.21 0
-7042.9336 1789.2217 10138.51 0
-7002.3828 1794.271 10167.121 0
-6977.5083 1803.4601 10219.19 0
-6948.7979 1811.8103 10266.507 0
-6909.7983 1817.6021 10299.325 0
-6870.2852 1823.3612 10331.959 0
-6827.623 1828.3807 10360.401 0
-6777.498 1831.475 10377.935 0
-6735.2109 1836.7637 10407.902 0
-6695.8296 1842.9497 10442.956 0
-6658.2505 1849.7528 10481.505 0
-6616.832 1855.6072 10514.679 0
-6576.5049 1861.8824 10550.237 65536
-6533.3052 1867.4575 10581.827 0
-6486.8535 1872.2021 10608.713 0
-6442.186 1877.5602 10639.074 0
-6400.895 1884.0181 10675.667 0
-6355.3984 1889.3552 10705.909 0
-6312.0664 1895.4501 10740.445 0
-6268.0698 1901.4681 10774.546 0
-6226.1172 1908.2366 10812.899 0
-6177.3706 1913.0424 10840.131 0
-6131.3906 1918.8151 10872.842 65536
-6089.8296 1926.1086 10914.171 65536
-6052.0708 1934.7745 10963.275 65536
-6005.3242 1940.7249 10996.992 65536
-5963.019 1948.2571 11039.673 0
-5919.6367 1955.601 11081.287 0
-5873.1709 1962.08 11118 0
-5820.313 1966.547 11143.312 0
-5773.6621 1973.2377 11181.225 0
-5721.0186 1978.0126 11208.281 0
-5680.7036 1987.2128 11260.413 0
-5636.1685 1995.1382 11305.322 0
-5600.2622 2006.3464 11368.833 0
-5566.6885 2018.6743 11438.688 0
-5539.4785 2033.6432 11523.509 0
-5498.2231 2043.7661 11580.868 0
-5448.5044 2050.96 11621.632 0
-5409.5898 2062.4573 11686.781 65536
-5362.5254 2071.1064 11735.791 65536
-5327.4878 2084.6895 11812.759 65536
-5291.979 2098.4487 11890.725 65536
-5258.9961 2113.5955 11976.553 65536
-5232.7603 2131.9065 12080.312 65536
-5197.0356 2146.8079 12164.748 65536
-5155.7866 2159.8152 12238.453 65536
-5115.998 2173.8154 12317.784 65536
-5066.2642 2183.9346 12375.124 65536
-5022.9355 2197.1541 12450.031 65536
-4993.2349 2216.8191 12561.462 65536
-4957.8442 2234.5166 12661.744 65536
-4916.9297 2250.2314 12750.792 65536
-4882.8833 2269.6311 12860.718 65536
-4835.4854 2283.3428 12938.415 65536
-4782.8345 2294.9773 13004.341 65536
-4739.3857 2311.4817 13097.862 0
-4695.9321 2328.5354 13194.495 0
-4651.8066 2345.8293 13292.49 65536
-4606.7954 2363.2661 13391.296 65536
-4562.9277 2381.9133 13496.958 0
-4511.978 2397.4648 13585.079 0
-4458.4561 2412.1909 13668.524 0
-4397.2241 2423.2153 13730.994 0
-4334.2803 2433.6951 13790.377 0
-4288.6753 2454.5027 13908.281 0
-4268.251 2490.8225 14114.085 0
-4226.1152 2515.6746 14254.907 0
-4151.0269 2521.5261 14288.065 0
-4063.0923 2519.656 14277.469 0
-3992.5972 2528.7515 14329.008 0
-3931.3625 2544.2366 14416.753 0
-3868.0872 2559.0618 14500.759 0
-3841.946 2599.6899 14730.975 0
-3806.0342 2635.4468 14933.59 0
-3736.1519 2648.8276 15009.41 0
-3653.0557 2653.2651 15034.556 0
-3567.2683 2655.9216 15049.609 0
-3504.8967 2676.5969 15166.764 0
-3446.2769 2701.3044 15306.768 0
-3381.5872 2722.4651 15426.673 0
-3326.2783 2752.5679 15597.249 0
-3278.7495 2791.0195 15815.132 0
-3198.6484 2803.1956 15884.127 0
-3132.8198 2829.0005 16030.35 0
-3079.645 2868.2095 16252.523 0
-3018.033 2901.8447 16443.117 0
-2921.8489 2903.3779 16451.805 0
-2848.5911 2928.5874 16594.652 0
-2780.4504 2961.0549 16778.627 0
-2688.3435 2969.4656 16826.285 0
-2596.8953 2979.2817 16881.908 0
-2551.4475 3044.7815 17253.059 0
-2481.0615 3084.7605 17479.596 0
-2368.0479 3072.9177 17412.49 0
-2296.032 3115.6243 17654.484 0
-2198.7539 3126.5002 17716.113 0
-2113.2483 3156.0518 17883.564 0
-2067.8684 3251.8335 18426.305 0
-1987.1014 3299.5676 18696.787 0
-1900.3262 3342.3889 18939.432 0
-1725.2274 3225.4736 18276.939 65792
-1629.4016 3251.0129 18421.656 460550
-1565.4349 3348.377 18973.361 0
0 0 0 0
0 0 0 0
0 0 0 0
0 0 0 0
0 0 0 0
0 0 0 0
0 0 0 0
0 0 0 0
0 0 0 0
0 0 0 0
0 0 0 0
0 0 0 0
0 0 0 0
0 0 0 0
0 0 0 0
0 0 0 0
0 0 0 0
0 0 0 0
0 0 0 0
0 0 0 0
0 0 0 0
0 0 0 0
0 0 0 0
0 0 0 0
0 0 0 0
0 0 0 0
0 0 0 0
0 0 0 0
0 0 0 0
0 0 0 0
0 0 0 0
0 0 0 0
0 0 0 0
0 0 0 0
0 0 0 0
0 0 0 0
0 0 0 0
2853.137 3512.7312 19904.664 65536
2931.8772 3465.9648 19639.666 65536
3034.946 3450.4387 19551.688 65536
3125.9409 3422.8367 19395.283 65536
3215.8652 3396.0679 19243.6 65536
3274.8933 3339.6306 18923.801 65536
3334.1228 3287.1396 18626.365 65536
3448.574 3290.7161 18646.631 65536
3606.0718 3333.8674 18891.145 65536
3595.3618 3223.5981 18266.311 65536
3677.8589 3200.9121 18137.762 65536
3755.1265 3175.0969 17991.48 196608
3790.8867 3116.5869 17659.938 196608
3819.2834 3055.3386 17312.879 262144
3879.9341 3022.4294 17126.402 262144
3932.6975 2985.2163 16915.535 262144
3978.032 2944.3594 16684.021 262144
4017.5151 2901.2642 16439.826 393216
4065.5796 2866.2654 16241.508 393216
4010.054 2761.552 15648.156 393216
4039.8186 2718.99 15406.981 393216
4104.2529 2701.1318 15305.79 393216
4016.2952 2585.9292 14653.001 393216
4097.4365 2582.1816 14631.766 393216
4188.6875 2584.8286 14646.765 458752
4258.6338 2574.4883 14588.171 524288
4685.2554 2775.8806 15729.349 655360
4708.8306 2735.2712 15499.238 655360
4869.77 2774.4819 15721.423 655360
4195.6035 2345.3833 13289.964 655360
4714.9805 2587.0168 14659.164 655360
4772.2197 2570.9167 14567.935 720896
4899.7998 2592.6101 14690.857 720896
4866.9976 2530.1667 14337.027 655360
5002.5103 2555.8674 14482.657 655360
5113.2583 2568.2598 14552.878 524288
5175.9932 2556.5254 14486.386 393216
5705.6821 2772.0388 15707.579 196608
5572.8823 2663.9329 15095.003 65536
5558.2041 2614.8218 14816.719 0
5552.0557 2571.1929 14569.499 0
5769.6016 2630.9072 14907.866 256
5799.8203 2604.6873 14759.293 256
5923.4062 2620.5549 14849.205 256
6020.1377 2624.2502 14870.145 256
6120.2788 2629.3035 14898.778 256
6210.9111 2630.1858 14903.778 0
6347.3975 2650.1885 15017.123 0
6433.4062 2648.8535 15009.558 0
6529.2578 2651.5518 15024.847 0
6587.7856 2639.2244 14954.995 0
6656.1245 2631.1035 14908.979 0
6698.4868 2613.063 14806.753 0
6799.4175 2618.0413 14834.962 0
6868.4199 2610.7556 14793.679 0
6941.4756 2605.175 14762.058 0
7023.9834 2603.2378 14751.079 0
7166.2861 2623.2358 14864.397 0
7444.3062 2691.8218 15253.034 0
7574.3208 2705.8831 15332.712 0
7369.042 2601.2522 14739.828 0
7421.6294 2589.0369 14670.61 0
7511.2773 2589.8835 14675.408 0
7758.1348 2644.2942 14983.723 0
7829.313 2638.2708 14949.592 0
7874.3726 2623.6799 14866.913 256
7937.7251 2615.4402 14820.224 256
7960.4863 2594.1538 14699.605 257
8003.6025 2579.8906 14618.784 1
8734.918 2785.3862 15783.212 2
8153.6528 2572.4075 14576.381 256
8149.8799 2544.1853 14416.462 256
8129.4639 2511.4089 14230.736 0
8226.667 2515.2688 14252.608 0
8288.0039 2508.196 14212.531 0
8226.751 2464.5408 13965.161 0
8315.957 2466.3816 13975.593 0
8371.1455 2458.1965 13929.212 0
8612.2559 2504.2334 14190.077 0
8680.248 2499.5269 14163.407 1
8687.624 2477.624 14039.296 1
8111.0625 2291.1882 12982.871 2
8735.5459 2444.3374 13850.68 0
8749.6309 2425.4224 13743.5 0
8911.0332 2447.3167 13867.562 0
9114.75 2480.3242 14054.598 0
9197.5732 2480.1335 14053.517 0
9260.6582 2474.6711 14022.564 0
9315.126 2467.0247 13979.236 0
9357.0664 2456.2244 13918.037 0
9418.6709 2450.7302 13886.905 0
9440.4229 2435.052 13798.066 0
9423.2422 2409.6882 13654.343 0
9477.6201 2402.8999 13615.878 0
7973.7773 2004.5092 11358.422 0
7933.9873 1977.7625 11206.863 65536
7948.7646 1964.9502 11134.264 65536
7903.9131 1937.7308 10980.027 0
7973.2808 1938.7301 10985.689 0
10274.754 2478.0491 14041.705 0
10460.371 2502.4895 14180.196 0
10548.103 2503.3093 14184.842 0
10823.081 2548.2017 14439.221 0
11060.497 2583.6135 14639.88 0
11304.532 2620.0066 14846.099 0
11498.916 2644.4175 14984.422 0
11616.612 2650.9531 15021.455 0
11779.365 2667.5928 15115.742 0
11908.868 2676.5071 15166.256 0
12018.525 2680.8611 15190.927 0
12138.35 2687.4011 15227.985 0
12312.669 2705.8201 15332.355 256
12583.715 2745.0686 15554.755 256
14648.529 3172.1919 17975.021 1054484
0 0 0 0
0 0 0 0
0 0 0 0
0 0 0 0
0 0 0 0
0 0 0 0
0 0 0 0
0 0 0 0
0 0 0 0
0 0 0 0
0 0 0 0
0 0 0 0
0 0 0 0
0 0 0 0
0 0 0 0
0 0 0 0
0 0 0 0
0 0 0 0
0 0 0 0
0 0 0 0
0 0 0 0
18069.719 3372.0332 19107.41 131072
15595.721 2892.1785 16388.342 131072
15161.757 2794.2498 15833.437 196608
17144.426 3140.1577 17793.502 262144
15188.235 2764.8093 15666.614 262144
0 0 0 0
0 0 0 0
-8621.4551 1719.635 9426.7314 0
-8587.8574 1724.1378 9451.415 0
-8550.3564 1727.9113 9472.1006 0
-8507.877 1730.7219 9487.5078 0
-8466.1475 1733.7235 9503.9619 0
-8431.0459 1738.1318 9528.1279 0
-8385.4463 1740.421 9540.6768 0
-8338.8135 1742.5256 9552.2139 0
-8290.6455 1744.3357 9562.1367 0
-8250.2705 1747.822 9581.248 0
-8204.5986 1750.2267 9594.4297 0
-8155.0093 1751.8236 9603.1836 0
-8100.9751 1752.4814 9606.79 0
-8057.4253 1755.4329 9622.9688 0
-8017.23 1759.1625 9643.4141 0
-7974.4219 1762.3684 9660.9883 0
-7927.8398 1764.7804 9674.2109 0
-7884.6895 1767.9977 9691.8467 0
-7843.875 1771.7897 9712.6338 0
-7798.2256 1774.5377 9727.6982 0
-7748.9927 1776.5051 9738.4834 0
-7707.3394 1780.2531 9759.0283 0
-7664.2046 1783.713 9777.9951 0
-7626.4922 1788.4972 9804.2217 0
-7585.5864 1792.6007 9826.7158 0
-7539.7397 1795.5911 9843.1094 0
-7492.9946 1798.4127 9858.5771 0
-7458.9736 1804.3568 9891.1611 0
-7426.7896 1810.8433 9926.7188 0
-7381.3408 1814.1733 9944.9736 0
-7341.0742 1818.8409 9970.5605 0
-7305.4253 1824.738 10002.888 0
-7267.0171 1830.0372 10031.937 0
-7231.0493 1836.0437 10064.863 0
-7194.4585 1841.9908 10097.464 0
-7139.7944 1843.3715 10105.033 0
-7084.9829 1844.7375 10112.521 0
-7042.5435 1849.376 10137.948 0
-7004.7207 1855.3169 10170.516 0
-6975.6201 1863.6918 10216.425 0
-6936.7676 1869.5856 10248.733 0
-6896.8965 1875.3066 10280.095 0
-6861.0679 1882.2389 10318.097 0
-6821.1426 1888.1625 10350.568 0
-6772.3057 1891.7041 10369.983 0
-6733.5303 1898.1475 10405.305 0
-6690.9771 1903.6351 10435.388 0
-6649.7002 1909.5927 10468.045 0
-6611.8271 1916.6487 10506.726 0
-6570.8359 1922.9271 10541.143 65536
-6531.9331 1929.9434 10579.604 0
-6482.2593 1933.8827 10601.199 0
-6438.9375 1939.8131 10633.708 0
-6401.2227 1947.5669 10676.213 0
-6354.3765 1952.6698 10704.187 0
-6306.9727 1957.7031 10731.778 0
-6259.9604 1962.9618 10760.605 0
-6220.5239 1970.7294 10803.186 0
-6175.0596 1976.729 10836.075 0
-6133.0938 1983.9872 10875.862 65536
-6086.4497 1989.8701 10908.112 65536
-6051.3052 1999.6802 10961.889 65536
-6006.0947 2006.3412 10998.403 65536
-5964.4609 2014.3566 11042.342 0
-5918.4414 2021.0526 11079.049 0
-5870.4351 2027.2135 11112.821 0
-5819.2192 2032.3933 11141.217 0
-5774.9639 2040.1516 11183.746 0
-5721.3027 2044.7289 11208.838 0
-5678.7437 2053.4285 11256.527 0
-5637.1562 2062.6914 11307.305 0
-5600.6548 2074.061 11369.631 0
-5568.2358 2087.2385 11441.868 0
-5533.2305 2099.7603 11510.511 0
-5491.2266 2109.9067 11566.132 0
-5442.2422 2117.5945 11608.274 0
-5412.3062 2132.9863 11692.649 65536
-5371.2896 2144.3552 11754.972 65536
-5329.4346 2155.6843 11817.075 65536
-5293.103 2169.5801 11893.25 65536
-5259.4771 2184.9761 11977.647 65536
-5229.8408 2202.4746 12073.572 65536
-5194.6709 2218.0974 12159.213 65536
-5153.0977 2231.3882 12232.07 65536
-5117.6704 2247.7585 12321.811 65536
-5076.8223 2262.189 12400.915 65536
-5038.2485 2278.0728 12487.987 65536
-4997.4971 2293.4321 12572.185 65536
-4963.6011 2312.4519 12676.447 65536
-4923.7983 2329.2632 12768.604 65536
-4887.772 2348.4155 12873.594 65536
-4839.2646 2362.085 12948.527 65536
-4785.7227 2373.699 13012.193 65536
-4740.8491 2390.0647 13101.907 65536
-4689.1968 2403.5027 13175.571 65536
-4643.9961 2420.7595 13270.171 65536
-4605.6958 2442.2722 13388.099 65536
-4566.5532 2464.0867 13507.683 65536
-4513.2114 2478.8828 13588.792 65536
-4461.1855 2494.9546 13676.895 65536
-4404.4365 2508.9316 13753.515 65536
-4342.5942 2520.4817 13816.83 0
-4295.376 2541.1287 13930.012 0
-4290.2729 2587.9915 14186.906 0
-4239.6426 2608.72 14300.536 0
-4151.0659 2606.4695 14288.199 0
-4066.2539 2606.5386 14288.578 0
-4002.8853 2620.6494 14365.931 0
-3941.7349 2636.8591 14454.79 0
-3888.9185 2659.4907 14578.852 0
-3856.345 2697.3123 14786.183 0
-3817.7815 2732.6106 14979.682 0
-3742.0554 2742.3601 15033.127 0
-3654.7273 2743.8757 15041.436 0
-3576.3213 2752.334 15087.802 0
-3524.2192 2781.9912 15250.378 0
-3462.5317 2805.448 15378.964 0
-3392.209 2822.9907 15475.13 0
-3339.1641 2856.29 15657.671 0
-3273.0051 2879.96 15787.425 0
-3188.7283 2888.6138 15834.864 0
-3119.8416 2912.1602 15963.941 0
-3055.7092 2941.7605 16126.205 0
-2972.2578 2954.0769 16193.721 0
-2931.4521 3011.0208 16505.877 0
-2855.4663 3034.5217 16634.705 0
-2757.7261 3035.7607 16641.498 0
-2682.5776 3062.8867 16790.197 0
-2673.4395 3170.3889 17379.506 0
-2585.4363 3189.249 17482.893 0
-2474.4436 3180.1423 17432.971 0
-2413.4954 3237.3674 17746.67 0
-2310.4131 3240.7231 17765.064 0
-2228.1086 3274.9395 17952.633 0
-2122.6851 3276.9084 17963.426 0
-2050.0151 3332.3264 18267.219 0
-2075.1375 3561.7954 19525.125 0
-1935.1245 3518.2188 19286.246 0
-1788.7869 3456.9321 18950.283 0
-1611.9789 3324.5667 18224.68 460549
-1511.0909 3340.989 18314.703 65792
-1403.3026 3343.52 18328.578 0
0 0 0 0
0 0 0 0
0 0 0 0
0 0 0 0
0 0 0 0
0 0 0 0
0 0 0 0
0 0 0 0
0 0 0 0
0 0 0 0
0 0 0 0
0 0 0 0
0 0 0 0
0 0 0 0
0 0 0 0
0 0 0 0
0 0 0 0
0 0 0 0
0 0 0 0
0 0 0 0
0 0 0 0
0 0 0 0
0 0 0 0
0 0 0 0
0 0 0 0
0 0 0 0
0 0 0 0
0 0 0 0
0 0 0 0
0 0 0 0
0 0 0 0
0 0 0 0
0 0 0 0
0 0 0 0
0 0 0 0
2726.1882 3619.5491 19841.721 65536
2819.3513 3588.0342 19668.961 65536
2920.9397 3569.3245 19566.398 65536
3023.3743 3553.042 19477.141 65536
3108.7207 3518.6189 19288.439 65536
3179.8369 3471.1106 19028.008 65536
3260.0554 3436.4602 18838.061 65536
3351.2749 3415.3228 18722.188 65536
3444.5618 3397.5823 18624.938 65536
3506.8997 3351.3701 18371.611 65536
3592.5881 3329.5903 18252.219 65536
3689.988 3319.623 18197.58 131072
3741.1394 3269.8015 17924.467 196608
3809.2402 3237.1428 17745.438 196608
3835.0681 3171.2876 17384.432 262144
3871.9834 3117.8157 17091.307 262144
3946.8787 3096.8779 16976.531 262144
3967.9629 3035.8145 16641.791 327680
4007.1108 2991.2053 16397.252 393216
4041.2554 2945.0681 16144.336 393216
4074.7761 2900.6267 15900.717 393216
4106.4985 2856.949 15661.283 393216
4153.8931 2825.8694 15490.91 393216
4184.4819 2784.9521 15266.61 393216
4190.062 2729.481 14962.526 458752
4265.5972 2720.9385 14915.698 458752
3821.0261 2387.7329 13089.124 524288
4286.9468 2625.4314 14392.146 458752
4410.3281 2648.1548 14516.711 458752
4323.374 2546.1345 13957.454 458752
3794.8384 2192.7939 12020.504 524288
3870.7739 2195.3425 12034.475 524288
4796.6338 2671.0947 14642.463 524288
4880.3774 2669.3 14632.625 524288
4187.0059 2249.9697 12333.932 524288
4051.7737 2139.8364 11730.2 458752
4830.959 2508.1853 13749.423 458752
5161.7031 2635.3267 14446.39 393216
5202.4873 2612.6899 14322.299 262144
5293.7725 2615.7351 14338.991 196608
5332.5269 2593.1387 14215.122 65536
5481.6724 2624.0916 14384.801 0
5928.0068 2794.1746 15317.164 0
5695.0596 2643.7744 14492.698 0
5929.1792 2711.4487 14863.677 0
5910.0371 2663.0181 14598.188 0
6005.6064 2666.9292 14619.629 0
6113.936 2676.3142 14671.076 0
6240.2476 2693.1963 14763.62 0
6318.4263 2689.1248 14741.301 0
6429.7148 2699.0635 14795.783 0
6510.0166 2695.9019 14778.451 0
6547.4946 2675.3264 14665.661 0
6617.3901 2668.3635 14627.491 0
6731.3545 2679.1208 14686.461 0
6771.5576 2660.6211 14585.05 0
6813.0771 2643.0999 14489 0
6898.187 2642.7158 14486.895 0
7018.2871 2655.5803 14557.416 0
7281.8999 2721.7727 14920.271 0
7470.5645 2758.6963 15122.679 0
7414.8354 2705.5654 14831.426 0
7345.5396 2648.7915 14520.201 0
7424.4497 2646.158 14505.765 0
7541.356 2656.9722 14565.046 0
7652.7388 2665.6165 14612.434 0
7829.0947 2696.4446 14781.428 0
7038.1631 2397.1389 13140.687 0
7894.1431 2659.1707 14577.098 256
7106.5928 2367.8943 12980.372 256
8717.4277 2873.4263 15751.609 256
8163.3643 2662.207 14593.743 256
8143.3906 2627.7734 14404.983 256
7986.0576 2550.1929 13979.701 0
8082.1831 2554.314 14002.292 0
8087.0825 2529.8135 13867.985 0
8316.4521 2575.3181 14117.433 0
8343.2217 2557.8018 14021.412 0
8340.5518 2531.696 13878.305 0
8505.6289 2556.5212 14014.393 131842
8505.4893 2531.6873 13878.257 66049
8240.2168 2429.1709 13316.28 3224370
8090.3389 2362.2988 12949.7 2237731
8454.2354 2445.2905 13404.646 987151
8450.6338 2421.4307 13273.85 1381653
8410.6514 2387.6841 13088.856 65793
9052.5029 2546.3464 13958.615 0
9111.8291 2539.7585 13922.502 0
9161.1973 2530.5388 13871.961 0
9216.1484 2523.012 13830.7 0
9274.4717 2516.533 13795.184 0
9441.9443 2539.5244 13921.219 0
9447.917 2519.0571 13809.02 0
9410.0088 2487.3428 13635.168 0
9428.0947 2470.8447 13544.729 0
7904.9609 2054.1338 11260.395 0
7892.4321 2033.661 11148.166 0
9081.0703 2320.4597 12720.346 0
7885.2354 1998.2559 10954.081 0
7915.043 1989.3843 10905.448 0
10414.443 2596.3284 14232.607 0
10586.438 2617.9429 14351.094 0
10714.605 2628.4607 14408.751 0
10954.041 2665.8906 14613.936 0
11133.573 2688.2681 14736.604 0
11395.99 2730.1528 14966.21 0
11709.742 2783.592 15259.153 0
11849.762 2795.228 15322.94 0
11906.562 2787.2063 15278.966 0
12013.304 2790.908 15299.258 0
12158.235 2803.3594 15367.515 0
12223.381 2797.366 15334.66 0
12410.95 2819.271 15454.739 0
12896.977 2908.1538 15941.979 256
14949.196 3346.3269 18343.965 256
0 0 0 0
0 0 0 0
0 0 0 0
0 0 0 0
0 0 0 0
0 0 0 0
0 0 0 0
0 0 0 0
0 0 0 0
0 0 0 0
0 0 0 0
0 0 0 0
0 0 0 0
0 0 0 0
0 0 0 0
0 0 0 0
0 0 0 0
0 0 0 0
0 0 0 0
0 0 0 0
0 0 0 0
0 0 0 0
16852.127 3230.4233 17708.604 131072
15267.134 2908.428 15943.482 327680
16262.566 3078.9507 16878.256 262144
14104.965 2654.0859 14549.225 262144
0 0 0 0
0 0 0 0
-8608.3672 1772.9657 9412.4209 65536
-8555.333 1773.5684 9415.6201 65536
-8535.9688 1781.2048 9456.1611 65536
-8495.7148 1784.5547 9473.9453 65536
-8444.2207 1785.5723 9479.3477 65536
-8401.2578 1788.4197 9494.4639 65536
-8347.1924 1788.9264 9497.1533 65536
-8302.1904 1791.3953 9510.2607 65536
-8254.3398 1793.2795 9520.2637 65536
-8214.2627 1796.8901 9539.4316 0
-8170.3706 1799.7104 9554.4043 0
-8123.7812 1801.9718 9566.4102 0
-8090.7803 1807.3007 9594.7002 0
-8047.6797 1810.4331 9611.3301 0
-8007.1084 1814.1833 9631.2393 0
-7965.1455 1817.6699 9649.749 0
-7919.7773 1820.4247 9664.373 0
-7881.0107 1824.7477 9687.3242 0
-7836.3057 1827.7496 9703.2607 0
-7800.6387 1832.9198 9730.708 0
-7753.8965 1835.5453 9744.6465 0
-7710.0132 1838.8921 9762.4141 0
-7671.5239 1843.5858 9787.333 0
-7633.7212 1848.5177 9813.5156 0
-7589.2822 1851.9061 9831.5039 0
-7544.7852 1855.3329 9849.6963 0
-7498.1968 1858.2949 9865.4209 0
-7456.0405 1862.4106 9887.2715 0
-7413.1826 1866.4152 9908.5303 0
-7376.6738 1872.0953 9938.6855 0
-7351.9912 1880.8925 9985.3887 0
-7321.1899 1888.2548 10024.474 0
-7276.3594 1892.0897 10044.833 0
-7240.9443 1898.4568 10078.636 0
-7196.3652 1902.5074 10100.14 0
-7140.1367 1903.5208 10105.519 0
-7090.0591 1906.2046 10119.767 0
-7046.7114 1910.7594 10143.947 0
-7017.7559 1919.329 10189.442 0
-6980.2104 1925.678 10223.148 0
-6940.9512 1931.6616 10254.914 0
-6902.603 1938.0068 10288.601 0
-6868.2959 1945.6105 10328.967 0
-6828.9478 1951.9104 10362.412 0
-6779.147 1955.3099 10380.46 0
-6735.4102 1960.537 10408.21 0
-6692.124 1965.9933 10437.177 0
-6648.2681 1971.3829 10465.79 0
-6607.979 1977.942 10500.61 0
-6568.6123 1984.905 10537.576 65536
-6525.4341 1990.8389 10569.078 0
-6480.7324 1996.4192 10598.703 0
-6431.7905 2000.7897 10621.906 0
-6392.6187 2008.3163 10661.863 0
-6353.5708 2016.033 10702.83 0
-6301.9907 2019.889 10723.302 0
-6257.0664 2025.9789 10755.632 0
-6216.2588 2033.5411 10795.778 0
-6169.5 2039.2938 10826.319 65536
-6128.6875 2047.1543 10868.049 65536
-6087.8379 2055.1694 10910.601 65536
-6049.125 2064.0864 10957.939 65536
-6006.7808 2071.9448 10999.659 65536
-5966.2949 2080.6245 11045.737 0
-5921.0356 2087.814 11083.905 0
-5865.2612 2091.416 11103.027 0
-5820.709 2099.1467 11144.069 0
-5773.3643 2106.0366 11180.647 0
-5724.9238 2112.6833 11215.933 0
-5678.9473 2120.406 11256.932 0
-5639.1265 2130.6389 11311.256 0
-5600.0293 2141.3953 11368.361 0
-5569.7056 2155.8103 11444.889 0
-5536.4429 2169.4302 11517.194 0
-5488.2183 2177.4548 11559.796 0
-5440.7256 2185.9771 11605.039 0
-5406.3574 2200.0588 11679.798 65536
-5362.6504 2210.6577 11736.064 65536
-5328.627 2225.5801 11815.285 65536
-5291.894 2239.7539 11890.533 65536
-5260.9097 2256.7778 11980.91 65536
-5230.6157 2274.5691 12075.36 65536
-5185.5522 2286.3433 12137.869 65536
-5155.6943 2305.2485 12238.234 65536
-5121.6284 2322.7864 12331.34 65536
-5093.8408 2343.7219 12442.484 65536
-5051.4663 2358.4644 12520.749 65536
-5013.6016 2375.7844 12612.698 65536
-4975.481 2393.5071 12706.786 65536
-4940.0146 2413.0728 12810.657 65536
-4889.5132 2425.7917 12878.181 65536
-4841.2417 2440.0388 12953.816 65536
-4789.2417 2452.8374 13021.762 65536
-4740.3857 2467.6926 13100.626 65536
-4697.792 2486.3584 13199.721 65536
-4653.561 2504.7771 13297.503 65536
-4606.7827 2522.4375 13391.259 65536
-4554.8735 2537.8596 13473.134 65536
-4513.3354 2559.7163 13589.166 65536
-4460.002 2575.5571 13673.265 65536
-4399.7715 2587.9297 13738.948 65536
-4342.1538 2602.3359 13815.429 0
-4300.2529 2626.8984 13945.827 0
-4286.3257 2669.8503 14173.854 0
-4249.3276 2699.8662 14333.203 0
-4158.9824 2696.522 14315.448 0
-4070.4446 2694.2346 14303.305 0
-4003.6169 2706.5256 14368.557 0
-3945.8857 2725.6362 14470.012 0
-3909.3428 2760.5603 14655.418 0
-3886.3328 2806.8499 14901.163 0
-3829.7681 2830.4988 15026.713 0
-3745.7976 2834.5388 15048.16 0
-3656.1995 2834.4133 15047.494 0
-3585.376 2849.2014 15126.002 0
-3538.2849 2884.0947 15311.245 0
-3468.0239 2901.4456 15403.358 0
-3408.157 2928.6689 15547.883 0
-3358.0444 2966.0254 15746.203 0
-3293.6152 2992.5161 15886.839 0
-3207.3743 3000.1677 15927.46 0
-3158.2664 3044.075 16160.558 0
-3083.9871 3065.7141 16275.438 0
-3030.3186 3109.9075 16510.053 0
-2971.7825 3151.8955 16732.961 0
-2878.6218 3158.7969 16769.6 0
-2867.8022 3259.7888 17305.752 0
-2825.3621 3331.0149 17683.881 0
-2743.6396 3359.6428 17835.863 0
-2661.928 3390.5857 18000.135 0
-2558.7085 3395.5774 18026.635 0
-2490.9917 3450.179 18316.506 0
-2386.1611 3456.0171 18347.5 0
-2298.5959 3488.6182 18520.574 0
-2252.7607 3591.0188 19064.203 0
-2106.092 3535.0188 18766.908 0
-2025.7972 3590.3926 19060.879 0
-1960.9857 3681.3933 19543.988 0
-1861.0659 3713.7944 19716.002 0
-1753.9445 3735.2129 19829.709 0
-1523.5734 3478.3369 18465.992 0
-1392.7346 3426.4531 18190.549 592136
-1300.4204 3468.5923 18414.258 65792
-1191.3002 3469.5298 18419.236 921101
-1102.0443 3534.3645 18763.436 0
0 0 0 0
0 0 0 0
0 0 0 0
0 0 0 0
0 0 0 0
0 0 0 0
-313.74817 3449.9907 18315.506 65536
0 0 0 0
0 0 0 0
0 0 0 0
0 0 0 0
0 0 0 0
0 0 0 0
0 0 0 0
0 0 0 0
0 0 0 0
0 0 0 0
0 0 0 0
0 0 0 0
0 0 0 0
0 0 0 0
0 0 0 0
0 0 0 0
0 0 0 0
0 0 0 0
0 0 0 0
0 0 0 0
0 0 0 0
0 0 0 0
0 0 0 0
0 0 0 0
0 0 0 0
2729.208 3741.6152 19863.699 131072
2834.0295 3724.2224 19771.363 196608
2931.1172 3698.4563 19634.574 196608
3011.7705 3654.7202 19402.387 0
3113.0522 3638.3193 19315.314 65536
3168.2363 3571.125 18958.59 65536
3227.2073 3512.6677 18648.25 65536
3278.4221 3449.9312 18315.189 65536
3354.0713 3416.1125 18135.65 65536
3440.5486 3395.0845 18024.018 65536
3526.3923 3374.7207 17915.908 65536
3602.7795 3346.7659 17767.5 196608
3677.1736 3318.604 17617.994 196608
3736.5212 3278.7988 17406.674 196608
3782.4507 3229.6812 17145.914 262144
3825.9536 3181.1233 16888.127 262144
3909.0649 3167.1387 16813.885 262144
3896.2786 3078.0913 16341.145 262144
3942.468 3038.8333 16132.73 327680
3961.4963 2981.0012 15825.708 327680
4008.4829 2946.4021 15642.026 327680
4042.9365 2904.3679 15418.873 327680
4075.6245 2862.9568 15199.027 327680
4117.0474 2829.3442 15020.583 393216
4171.5835 2805.9788 14896.54 458752
4241.5601 2793.7551 14831.646 458752
3827.3354 2469.5972 13110.737 458752
4306.1938 2723.1406 14456.763 458752
4409.4858 2733.9102 14513.938 458752
4511.2549 2743.3411 14564.004 458752
4585.6929 2736.1086 14525.608 458752
4673.6021 2737.0332 14530.517 524288
4748.1055 2730.2156 14494.323 524288
4825.1953 2725.1016 14467.174 524288
4187.9478 2323.7969 12336.705 524288
4059.4722 2213.7512 11752.488 458752
4174.1445 2237.7812 11880.06 458752
5087.9629 2682.3118 14240.009 393216
5096.3066 2642.7507 14029.985 262144
5170.0918 2637.8528 14003.982 196608
5242.5713 2632.4546 13975.324 65536
5338.1914 2638.6628 14008.283 0
5476.7241 2665.5667 14151.111 0
5593.3076 2681.135 14233.762 0
5698.3711 2690.7998 14285.07 0
5787.6138 2692.8198 14295.794 0
5913.3291 2711.5056 14394.995 0
6005.7793 2714.6226 14411.542 0
6098.2227 2717.6487 14427.607 0
6202.022 2725.5815 14469.722 0
6269.2222 2717.4333 14426.465 0
6503.1899 2780.8162 14762.954 0
6435.6978 2715.3206 14415.248 0
6523.8418 2716.3489 14420.707 0
6618.7222 2720.1184 14440.72 0
6655.3042 2700.1396 14334.654 0
6698.2686 2683.2227 14244.844 0
6778.3765 2681.4211 14235.28 0
6881.6787 2688.7261 14274.061 0
7024.3125 2711.0332 14392.486 0
7200.0874 2745.4404 14575.15 0
7115.1577 2680.8032 14232 0
7180.0078 2673.4548 14192.988 0
7311.3066 2690.7314 14284.708 0
7352.9189 2674.9841 14201.107 0
7431.6553 2672.946 14190.287 256
7310.3789 2599.8225 13802.086 256
6918.187 2433.0444 12916.684 256
6944.2607 2415.4111 12823.072 256
6969.2036 2397.772 12729.428 256
7451.2456 2536.0889 13463.732 131842
7398.9229 2491.5237 13227.143 1184531
7978.3877 2658.408 14113.106 256
7239.1099 2386.9846 12672.159 0
7811.5522 2549.2168 13533.427 0
8211.5342 2652.4351 14081.397 263172
8229.3682 2631.3772 13969.604 0
8279.6436 2621.0095 13914.563 0
8121.6147 2545.5581 13514.004 986894
7646.3267 2373.1199 12598.553 723721
7801.1753 2397.699 12729.04 1710615
8159.6177 2483.78 13186.031 2237216
8735.2676 2633.7117 13981.997 1842458
8938.5859 2669.6162 14172.61 6316381
8560.8975 2532.9458 13447.046 1973532
8504.4268 2492.9644 13234.791 394499
8993.3457 2612.1248 13867.396 65536
9075.1494 2611.9482 13866.458 0
9136.3105 2605.8862 13834.277 0
9203.127 2601.5315 13811.158 0
9289.6357 2602.7712 13817.739 0
9373.9531 2603.3806 13820.975 0
9453.7227 2602.7271 13817.505 0
9493.0146 2591.0369 13755.443 0
8550.3281 2313.8123 12283.698 0
7828.1357 2100.4446 11150.959 0
7916.4551 2106.3101 11182.099 0
9226.4092 2434.4094 12923.93 0
7898.2471 2066.7644 10972.156 0
9886.8623 2565.9475 13622.247 0
10420.05 2682.3606 14240.269 0
10569.213 2698.8379 14327.744 1052687
10514.809 2663.4863 14140.067 855308
10961.524 2754.627 14623.92 65793
11222.59 2798.0466 14854.428 0
11436.702 2829.1733 15019.676 0
11739.717 2881.6401 15298.214 0
11912.455 2901.5684 15404.01 0
12099.778 2924.718 15526.908 0
12213.128 2929.7717 15553.738 0
12491.639 2974.072 15788.923 0
12668.649 2993.7268 15893.266 0
12690.961 2976.8037 15803.424 0
15455.291 3598.5747 19104.316 0
15753.606 3641.2825 19331.047 0
13423.476 3080.2327 16352.514 65536
0 0 0 0
0 0 0 0
0 0 0 0
0 0 0 0
0 0 0 0
0 0 0 0
0 0 0 0
0 0 0 0
0 0 0 0
0 0 0 0
0 0 0 0
0 0 0 0
0 0 0 0
0 0 0 0
0 0 0 0
0 0 0 0
0 0 0 0
0 0 0 0
0 0 0 0
0 0 0 0
0 0 0 0
17949.393 3552.8621 18861.637 1512210
15295.916 3008.8474 15973.54 131072
15348.182 3000.5054 15929.254 131072
14406.42 2799.1289 14860.175 1512724
0 0 0 0
0 0 0 0
-8617.1797 1830.7791 9422.0557 65536
-8579.0537 1834.6013 9441.7266 65536
-8545.4053 1839.4374 9466.6152 65536
-8503.1738 1842.4778 9482.2627 65536
-8460.7529 1845.5176 9497.9072 65536
-8417.417 1848.397 9512.7256 65536
-8375.0303 1851.5254 9528.8262 65536
-8332.7207 1854.7135 9545.2334 65536
-8287.0371 1857.1895 9557.9756 65536
-8242.4229 1859.9404 9572.1338 0
-8190.4067 1861.0483 9577.835 0
-8143.9492 1863.4431 9590.1602 0
-8102.5747 1867.0431 9608.6875 0
-8060.0967 1870.4381 9626.1592 0
-8023.2437 1875.1963 9650.6475 0
-7986.5898 1880.0699 9675.7295 0
-7937.6484 1882.1006 9686.1807 0
-7890.8574 1884.6746 9699.4277 0
-7850.2656 1888.7783 9720.5469 0
-7803.6064 1891.4719 9734.4102 0
-7756.8564 1894.1837 9748.3662 0
-7701.8486 1894.9045 9752.0762 0
-7664.834 1900.0968 9778.7979 0
-7630.0913 1905.9362 9808.8496 0
-7583.3833 1908.8533 9823.8623 0
-7537.0625 1911.9141 9839.6143 0
-7495.1836 1916.1582 9861.457 0
-7450.4092 1919.723 9879.8037 0
-7409.7329 1924.4091 9903.9199 0
-7371.8047 1929.8895 9932.125 0
-7344.6445 1938.3003 9975.4102 0
-7316.106 1946.4811 10017.513 0
-7284.9873 1954.104 10056.744 0
-7241.6514 1958.5491 10079.62 0
-7189.6533 1960.7058 10090.72 0
-7131.0161 1961.073 10092.609 0
-7077.3379 1962.822 10101.61 0
-7036.2095 1968.1106 10128.829 0
-7010.8945 1977.9524 10179.479 0
-6972.5049 1984.245 10211.863 0
-6933.3828 1990.4374 10243.732 0
-6896.0786 1997.2661 10278.876 0
-6862.1021 2005.1891 10319.652 0
-6821.8491 2011.4048 10351.641 0
-6775.1094 2015.8032 10374.277 0
-6733.1777 2021.7263 10404.76 0
-6688.8047 2027.0192 10432 0
-6644.6958 2032.4923 10460.167 0
-6604.3628 2039.2345 10494.865 0
-6564.9272 2046.3846 10531.664 65536
-6525.1963 2053.5798 10568.693 0
-6479.2168 2058.9294 10596.225 0
-6433.3574 2064.4221 10624.493 0
-6391.002 2071.1594 10659.167 0
-6348.2822 2077.9124 10693.921 0
-6302.0073 2083.6267 10723.329 0
-6253.9722 2088.8696 10750.312 0
-6208.5728 2095.1104 10782.43 0
-6164.8335 2102.0474 10818.131 65536
-6121.1299 2109.1426 10854.646 65536
-6086.187 2119.4402 10907.642 65536
-6044.6274 2127.6304 10949.793 65536
-6002.8594 2135.9246 10992.479 65536
-5962.3022 2144.8369 11038.346 0
-5914.2603 2151.2251 11071.223 0
-5863.9365 2156.9177 11100.52 0
-5816.3955 2163.7749 11135.811 0
-5769.8159 2171.1521 11173.776 0
-5721.3662 2177.9888 11208.962 0
-5677.8604 2186.8914 11254.777 0
-5634.917 2196.2249 11302.812 0
-5601.8999 2209.6992 11372.158 0
-5568.1392 2223.2056 11441.669 0
-5533.5791 2236.7231 11511.236 0
-5482.9922 2244.0198 11548.788 0
-5437.5718 2253.6428 11598.312 0
-5402.6284 2267.9109 11671.742 65536
-5359.3022 2278.9854 11728.736 65536
-5325.5605 2294.481 11808.485 65536
-5290.5991 2309.8584 11887.624 65536
-5255.8643 2325.752 11969.42 65536
-5211.7085 2337.8557 12031.712 65536
-5174.5386 2353.4736 12112.089 65536
-5160.2573 2380.0889 12249.064 65536
-5137.7886 2403.636 12370.248 65536
-5095.8384 2418.6204 12447.364 65536
-5061.8267 2437.8691 12546.429 65536
-5024.9785 2456.3071 12641.319 65536
-4985.7114 2474.1045 12732.913 65536
-4947.9482 2493.2087 12831.231 65536
-4896.6533 2505.9851 12896.985 65536
-4844.0454 2518.4858 12961.32 65536
-4796.709 2534.1753 13042.065 65536
-4742.7637 2546.8313 13107.198 65536
-4695.8521 2563.7498 13194.271 65536
-4656.7788 2585.5955 13306.698 65536
-4612.3398 2605.165 13407.413 65536
-4562.8784 2622.5364 13496.813 65536
-4509.8682 2638.4526 13578.727 65536
-4449.729 2650.7029 13641.771 65536
-4393.9116 2666.0295 13720.649 65536
-4336.2246 2680.7803 13796.563 65536
-4293.5171 2705.5388 13923.983 65536
-4289.4697 2756.1106 14184.25 65536
-4250.7852 2786.0088 14338.12 0
-4164.2656 2785.1372 14333.634 0
-4068.9893 2778.2502 14298.19 0
-4004.3145 2792.4094 14371.061 0
-3943.0049 2809.5837 14459.447 0
-3911.0234 2848.8867 14661.719 0
-3890.9106 2898.8235 14918.717 0
-3836.6777 2925.0757 15053.824 0
-3744.8433 2923.2302 15044.325 0
-3653.8254 2921.9473 15037.724 0
-3593.9263 2946.1094 15162.073 0
-3550.2463 2985.1521 15363.006 0
-3472.4409 2996.8049 15422.977 0
-3422.4209 3033.7192 15612.955 0
-3371.7576 3072.105 15810.506 0
-3303.1541 3095.877 15932.848 0
-3208.7124 3096.1211 15934.104 0
-3183.0315 3164.7456 16287.278 0
-3111.4871 3190.6445 16420.566 0
-3067.9714 3247.8931 16715.195 0
-3022.9719 3307.3503 17021.189 0
-2953.8301 3343.5967 17207.73 0
-2907.6997 3409.4248 17546.514 0
-2839.9622 3453.8728 17775.264 0
-2761.0957 3487.6975 17949.342 0
-2670.2781 3508.5386 18056.6 0
-2576.635 3527.2566 18152.932 0
-2498.9851 3570.4612 18375.283 0
-2407.3052 3596.6533 18510.08 0
-2318.1426 3629.2947 18678.068 0
-2223.3572 3655.9739 18815.373 0
-2138.7568 3703.114 19057.977 0
-2073.0769 3790.1174 19505.738 0
-1965.9241 3807.1133 19593.207 65536
0 0 0 0
0 0 0 0
0 0 0 0
0 0 0 0
0 0 0 0
-1171.9742 3520.9412 18120.43 0
0 0 0 0
0 0 0 0
0 0 0 0
0 0 0 0
0 0 0 0
0 0 0 0
0 0 0 0
0 0 0 0
0 0 0 0
0 0 0 0
0 0 0 0
0 0 0 0
0 0 0 0
0 0 0 0
0 0 0 0
0 0 0 0
0 0 0 0
0 0 0 0
0 0 0 0
0 0 0 0
0 0 0 0
0 0 0 0
0 0 0 0
0 0 0 0
0 0 0 0
0 0 0 0
0 0 0 0
0 0 0 0
0 0 0 0
0 0 0 0
0 0 0 0
0 0 0 0
0 0 0 0
2687.4377 3800.5996 19559.686 262144
2798.0793 3792.9973 19520.561 327680
2866.2922 3730.7751 19200.334 262144
2948.9915 3691.4504 18997.951 196608
3014.4026 3634.1838 18703.23 196608
3102.8906 3607.8228 18567.564 196608
3162.9346 3551.3354 18276.854 196608
3228.3967 3504.4807 18035.717 131072
3316.4692 3484.3926 17932.334 65536
3398.8772 3459.7893 17805.713 65536
3475.9026 3431.3586 17659.395 196608
3560.9851 3412.3147 17561.387 196608
3629.9836 3379.3821 17391.9 196608
3687.9517 3338.2883 17180.412 196608
3764.9172 3316.1421 17066.436 262144
3806.7737 3265.0444 16803.465 262144
3815.4268 3188.8096 16411.123 262144
3868.8691 3152.875 16226.188 262144
3890.8708 3093.6902 15921.593 262144
3932.8179 3052.7974 15711.141 196608
3974.1755 3013.3547 15508.149 196608
4023.2136 2981.3918 15343.653 196608
4013.3818 2908.1873 14966.908 196608
4078.5439 2891.3213 14880.107 196608
4155.7153 2883.5042 14839.876 262144
4204.52 2856.738 14702.126 393216
4281.1104 2849.5569 14665.168 393216
4307.7583 2810.0825 14462.015 393216
3989.1248 2551.3215 13130.309 393216
4542.5713 2849.5444 14665.104 393216
4478.1733 2756.2622 14185.03 393216
4115.8174 2486.4268 12796.329 393216
4768.1416 2828.2449 14555.486 393216
4848.791 2824.8315 14537.92 458752
4602.5049 2634.4048 13557.894 458752
4915.3276 2765.0503 14230.257 393216
4944.8965 2734.6304 14073.702 393216
4593.5015 2498.0464 12856.129 327680
5061.189 2707.3508 13933.309 262144
5120.7153 2695.0962 13870.24 196608
5189.8081 2688.1848 13834.672 196608
5281.9414 2693.2373 13860.674 65536
5390.8584 2706.5613 13929.246 0
5499.5317 2719.3618 13995.123 0
5601.9712 2728.7441 14043.409 0
5689.0986 2730.5022 14052.456 0
5824.6846 2755.1304 14179.205 0
5911.52 2756.3257 14185.355 0
6001.7529 2759.0491 14199.372 0
6084.0068 2758.0801 14194.385 0
6173.3027 2760.2861 14205.738 0
6412.5171 2828.5615 14557.116 0
6379.7441 2776.6428 14289.917 0
6418.1191 2756.647 14187.011 0
6528.7319 2767.7944 14244.38 0
6689.0171 2799.4448 14407.269 0
6617.7354 2734.6064 14073.578 0
6660.2876 2717.8381 13987.281 0
6747.4141 2719.4485 13995.568 0
6909.0205 2750.6716 14156.258 0
7034.0425 2766.7539 14239.025 0
7085.5049 2753.864 14172.688 0
7033.3081 2701.4619 13903.002 0
7264.6001 2757.8992 14193.454 0
7217.0894 2708.4121 13938.771 0
7351.7495 2727.6377 14037.714 256
7438.4907 2728.8518 14043.963 256
6888.3345 2498.9824 12860.946 256
6872.6934 2465.9446 12690.918 256
6891.0508 2445.6904 12586.68 256
8572.7969 3009.8816 15490.275 256
7464.4502 2592.8994 13344.287 256
7701.9077 2647.2571 13624.037 256
7102.7891 2415.9319 12433.528 0
7861.9482 2646.6157 13620.737 0
7494.5874 2497.2354 12851.955 0
7845.3394 2587.7341 13317.704 0
7946.9839 2595.0791 13355.505 0
7499.1753 2424.6296 12478.292 0
7538.7246 2413.5481 12421.261 460549
7506.998 2380.0837 12249.037 920844
7775.4775 2441.5278 12565.257 0
7923.9878 2464.49 12683.432 0
8387.4082 2584.0391 13298.688 197121
8398.8369 2563.4041 13192.49 0
8688.3213 2627.2305 13520.972 0
8834.2852 2646.8867 13622.132 0
8922.1592 2648.9392 13632.694 0
9004.9375 2649.4556 13635.352 0
9100.1328 2653.5833 13656.595 0
9168.7666 2649.9609 13637.954 0
9256.3965 2651.8447 13647.647 0
9333.54 2650.7175 13641.847 0
9448.3408 2660.2122 13690.711 0
9530.6758 2660.4822 13692.1 0
7907.52 2188.6909 11264.04 0
7924.0068 2174.8418 11192.766 0
7969.146 2169.0217 11162.812 0
9317.2168 2514.9985 12943.373 0
9810.7822 2626.541 13517.424 0
9392.6533 2494.1753 12836.206 2302753
0 0 0 0
0 0 0 0
11150.62 2890.561 14876.195 131328
11237.533 2890.1748 14874.208 197378
11745.442 2997.2256 15425.141 65536
12132.462 3072.0081 15810.007 0
11540.404 2899.6384 14922.911 1447703
11471.153 2860.2563 14720.232 197379
12111.289 2997.0122 15424.044 0
12322.897 3026.469 15575.642 0
12567.58 3063.5486 15766.471 0
13189.174 3191.2771 16423.822 0
15456.094 3712.3105 19105.307 0
15827.953 3773.9004 19422.277 0
16347.574 3869.574 19914.66 0
0 0 0 0
0 0 0 0
0 0 0 0
0 0 0 0
0 0 0 0
0 0 0 0
0 0 0 0
0 0 0 0
0 0 0 0
0 0 0 0
0 0 0 0
0 0 0 0
0 0 0 0
0 0 0 0
0 0 0 0
0 0 0 0
0 0 0 0
0 0 0 0
0 0 0 0
0 0 0 0
0 0 0 0
18382.336 3753.363 19316.582 854538
16856.527 3420.4563 17603.287 328707
15296.068 3084.6694 15875.168 196608
14863.725 2979.1047 15331.883 525829
0 0 0 0
0 0 0 0
-8633.3291 1890.314 9439.7148 65536
-8598.9805 1895.1082 9463.6562 65536
-8563.3213 1899.6753 9486.4629 65536
-8520.2822 1902.6547 9501.3418 65536
-8475.2178 1905.2185 9514.1445 65536
-8436.2783 1909.203 9534.042 65536
-8392.2627 1912.0847 9548.4326 65536
-8347.501 1914.8347 9562.165 65536
-8301.7988 1917.4052 9575.001 65536
-8258.5098 1920.5723 9590.8164 0
-8211.751 1922.9707 9602.7939 0
