# .PCD v0.7 - Point Cloud Data file format
VERSION 0.7
FIELDS x y z rgb
SIZE 4 4 4 4
TYPE F F F U
COUNT 1 1 1 1
WIDTH 1301
HEIGHT 1
VIEWPOINT 0 0 0 1 0 0 0
POINTS 1301
DATA ascii
-658.83826 1845.2554 3709.6643 3955308
-639.05225 1851.8094 3722.8406 3955051
-618.05908 1855.2103 3729.6775 3955051
-596.52173 1857.1697 3733.6169 4020844
-574.9259 1859.0917 3737.4805 4021101
-553.13574 1860.5144 3740.3408 4284016
-531.27515 1861.8092 3742.9441 4284016
-509.72556 1864.3551 3748.062 4284016
-487.73453 1865.4451 3750.2534 4349809
-465.80051 1866.8679 3753.114 4284273
-443.99786 1868.9872 3757.3743 4349809
-419.91653 1861.2307 3741.781 4218223
-398.12537 1863.3252 3745.9915 4152173
-375.4953 1861.5092 3742.3406 3823207
-354.27783 1866.9081 3753.1946 4020330
-333.55902 1875.8368 3771.1448 4283502
-310.23172 1870.326 3760.0659 4152430
-289.85815 1883.1494 3785.8459 3955051
-268.5061 1891.2394 3802.1096 3823466
-246.04118 1892.2568 3804.1553 3889259
-223.58917 1893.59 3806.8352 3955052
-201.58969 1899.4871 3818.6907 4152687
-179.8644 1909.7919 3839.4072 4218223
-157.41399 1914.2732 3848.4165 4152687
-134.68364 1916.2953 3852.4817 4284016
-112.48291 1928.2246 3876.4644 4218480
-89.24292 1923.8951 3867.7603 4218224
-66.449966 1929.5424 3879.1135 4218224
-43.417068 1930.5214 3881.0813 4218223
-20.328934 1928.4789 3876.9753 4349809
2.718637 1932.2957 3884.6484 4349809
25.780785 1930.3746 3880.7864 4284273
48.835407 1929.9703 3879.9736 4218223
71.810005 1927.6771 3875.3635 4152687
94.816109 1927.1382 3874.28 3889259
117.6663 1924.2599 3868.4937 4086637
140.23581 1918.4832 3856.8799 4217710
163.18866 1918.8368 3857.5911 4349296
185.76184 1915.1891 3850.2578 4283503
208.15828 1910.7189 3841.271 4086124
231.01547 1910.944 3841.7236 4283760
252.31273 1899.3853 3818.4863 3889002
276.57385 1910.2052 3840.238 4086637
299.26569 1909.3627 3838.5444 4218223
322.89734 1914.2109 3848.2915 4086637
346.56586 1918.6222 3857.1597 4086637
370.34955 1923.084 3866.1296 4086637
388.82443 1901.0684 3821.8696 4020844
418.32971 1932.4368 3884.9324 4151917
442.07379 1935.3024 3890.6934 4020588
464.01993 1930.4034 3880.8445 4086124
486.54022 1928.244 3876.5032 4086124
509.78311 1929.0142 3878.0513 4151917
533.24188 1930.4989 3881.0364 4217710
556.89343 1932.5299 3885.1191 4283504
580.13373 1933.0283 3886.1216 4283504
602.81964 1931.7126 3883.4763 4283504
626.51593 1933.6121 3887.2952 4217711
647.92059 1928.5554 3877.1292 4283503
671.24518 1929.3643 3878.7554 4217710
696.22296 1934.7139 3889.5098 4217710
720.02655 1936.5613 3893.2239 4283503
741.88599 1933.2274 3886.5217 4217967
765.72345 1935.0936 3890.2737 4217710
789.12036 1935.7701 3891.6333 4086124
813.00946 1937.5808 3895.2737 4086381
836.6308 1938.6708 3897.4651 4086124
858.01843 1934.6654 3889.4124 4020331
884.78827 1942.6876 3905.5403 3888745
905.59528 1937.5421 3895.196 3625573
930.08118 1940.3282 3900.7969 3691106
957.10858 1948.1516 3916.5249 3558750
984.17529 1955.6818 3931.6636 3230039
1000.2058 1941.4409 3903.0339 2636873
1010.5274 1917.0155 3853.9297 2373183
1026.2985 1903.7817 3827.3245 397331
1053.5955 1912.0388 3843.9246 2
1072.7725 1905.522 3830.8232 1
1095.0724 1904.7081 3829.187 257
1118.5753 1905.9771 3831.738 0
1139.4443 1902.797 3825.345 0
1161.2123 1901.2133 3822.1609 0
1180.2473 1895.3013 3810.2756 0
1200.9176 1892.1887 3804.0183 0
1221.0331 1888.3331 3796.2671 0
1243.8853 1888.7729 3797.1511 0
1262.6923 1883.1643 3785.8757 0
1285.2216 1883.2058 3785.9592 0
1303.8079 1877.568 3774.6252 0
1322.6787 1872.5238 3764.4844 0
1345.4723 1873.1085 3765.6597 0
1365.2211 1869.5046 3758.4146 0
1388.2429 1870.4265 3760.2681 1
1411.0356 1871.0155 3761.4521 2
1431.5228 1868.5767 3756.5491 2
1450.8392 1864.7078 3748.7712 4
1471.5132 1862.6748 3744.6838 4
1494.1207 1863.113 3745.5652 3
1509.2527 1854.3538 3727.9553 4
1537.042 1861.1742 3741.6675 5
1561.7283 1864.0967 3747.5425 5
1590.2795 1871.4852 3762.3962 7
1619.3978 1879.3267 3778.1609 7
1642.8224 1880.4368 3780.3923 7
1671.3035 1887.2266 3794.0422 7
1701.7975 1896.078 3811.8374 8
1744.3372 1917.9418 3855.7917 7
1794.9253 1947.973 3916.166 8
1825.2727 1955.5503 3931.3989 264
1857.6588 1965.0922 3950.582 267
1878.136 1961.9557 3944.2764 270
1901.5271 1961.9032 3944.1707 2043968
1927.8994 1964.89 3950.1755 3558236
1969.0902 1982.7262 3986.033 3822437
2003.798 1993.688 4008.0703 4085611
2040.1427 2006.0017 4032.8257 4151406
2073.6194 2015.2423 4051.4026 4217456
2107.2959 2024.4628 4069.9395 4282992
2142.2888 2034.7242 4090.5686 4348786
2177.2544 2044.7295 4110.6831 4414578
2212.3398 2054.6243 4130.5752 4480371
2248.6016 2065.3821 4152.2031 4480116
2276.6584 2068.4521 4158.3745 4480372
2320.7346 2085.8542 4193.3594 4545908
2355.9978 2095.0493 4211.8452 4546165
2395.2634 2107.573 4237.0225 4480628
2428.1147 2114.251 4250.4478 4546164
2464.3689 2123.7236 4269.4917 4677750
2504.8813 2136.6357 4295.4497 4677751
2538.344 2143.3345 4308.9165 4677750
2570.811 2149.0671 4320.4414 4546164
2604.4272 2155.6375 4333.6504 4546164
2633.6184 2158.4526 4339.3101 4742774
2667.3821 2164.9243 4352.3203 4611444
2701.2751 2171.3757 4365.29 4545908
2728.8054 2172.6384 4367.8286 4676981
2761.8271 2178.208 4379.0259 4546421
2793.6987 2182.7751 4388.2075 4546421
2821.4885 2184.0984 4390.8677 4546164
2855.9885 2190.5439 4403.8257 4480371
2884.895 2192.6211 4408.0015 4480371
2915.4961 2195.9375 4414.6685 4414578
2940.2495 2194.8291 4412.4404 4414578
2969.7659 2197.2646 4417.3369 4283249
2992.4509 2194.6475 4412.0752 4282992
3015.7495 2192.5217 4407.8018 4348015
3051.4165 2199.3472 4421.5234 4216429
3075.6384 2197.8774 4418.5688 4216430
3100.4556 2196.8542 4416.5117 4150636
3121.0981 2192.9153 4408.5928 4019307
3142.5601 2189.6128 4401.9536 3821669
3162.2703 2185.1541 4392.9902 3624290
3228.946 2212.9568 4448.8838 3689828
3206.7537 2179.8962 4382.4199 3886951
3235.9148 2181.9968 4386.6426 3821668
3266.2305 2184.8357 4392.3501 3821671
3290.2639 2183.4609 4389.5864 3953001
3322.3457 2187.4067 4397.5186 3690341
3345.9775 2185.771 4394.23 3690084
3372.9612 2186.333 4395.3599 3690083
3399.2749 2186.4556 4395.6064 3690083
3414.6111 2179.5693 4381.7622 3952998
3475.1697 2201.4346 4425.7197 3887462
3514.1951 2209.4331 4441.7998 3755619
3541.8083 2210.1904 4443.3228 3426397
3601.8848 2231.0449 4485.248 3624033
3620.2131 2225.9238 4474.9526 3624034
3656.9587 2232.1187 4487.4067 3624289
3686.4744 2233.843 4490.873 3755620
3722.2583 2239.3132 4501.8706 3689826
3752.998 2241.6929 4506.6543 3689826
3797.7388 2252.3423 4528.0635 3755619
3827.7444 2254.1641 4531.7261 3557986
3827.4531 2238.2434 4499.7197 3426400
3932.0999 2283.4839 4590.6704 2834263
3977.8613 2294.1406 4612.0942 3360607
3971.9363 2275.0461 4573.707 3689316
4009.6101 2281.0142 4585.7051 3557472
4042.917 2284.4341 4592.5806 3360092
4074.647 2286.9231 4597.5845 3228248
4117.9917 2295.8542 4615.5396 2965077
4144.7148 2295.4619 4614.7505 2767184
4171.6255 2295.178 4614.1797 2701391
4184.1436 2287.0305 4597.8003 2568776
4231.3672 2297.8357 4619.5229 1911103
4319.79 2330.7305 4685.6538 2436419
4363.5264 2339.248 4702.7773 2897483
4383.6567 2335.0825 4694.4028 2239294
4368.291 2312.1812 4648.3623 272
4354.0122 2290.1396 4604.0508 132372
4387.9673 2293.585 4610.9771 781
4443.9233 2308.4163 4640.7935 273
4465.2974 2305.2114 4634.3506 534
4425.2129 2270.5122 4564.5923 397604
0 0 0 0
0 0 0 0
0 0 0 0
0 0 0 0
0 0 0 0
0 0 0 0
0 0 0 0
-2977.4937 1693.7806 3364.9373 3954538
-2992.7068 1713.947 3405.0005 4020331
-2983.825 1720.4945 3418.0081 3888746
-2983.9141 1732.34 3441.5408 3954538
-2994.6624 1750.5801 3477.7773 3822952
-2976.0715 1751.8037 3480.2083 3757159
-2961.0378 1755.153 3486.8621 3757416
-2945.7102 1758.374 3493.261 3888745
-2933.6841 1763.6256 3503.6938 4020331
-2913.9724 1764.2987 3505.0312 3954025
-2902.832 1770.2086 3516.7722 3822439
-2889.1812 1774.6622 3525.6199 3823209
-2872.0564 1777.0314 3530.3267 3954538
-2858.8672 1781.8885 3539.9761 3954282
-2844.3796 1786.0023 3548.1487 3954025
-2827.7791 1788.8412 3553.7883 3757159
-2807.1123 1789.1309 3554.364 3757160
-2788.2478 1790.5824 3557.2476 3691366
-2769.6475 1792.2272 3560.5151 3954538
-2745.3655 1790.1921 3556.4724 3888745
-2725.5879 1791.0857 3558.2476 3823209
-2699.832 1788.0339 3552.1848 3823209
-2677.4146 1787.1625 3550.4534 3822953
-2650.0688 1782.9615 3542.1077 3822953
-2626.541 1781.2823 3538.7717 3757159
-2606.0649 1781.6625 3539.5271 3757159
-2583.9883 1780.9456 3538.1028 3888745
-2562.5266 1780.6443 3537.5044 3823210
-2534.4207 1775.6831 3527.6482 3954538
-2514.1799 1776.1956 3528.666 3888746
-2484.949 1770.3119 3516.9771 3889002
-2462.4871 1769.1913 3514.7512 3757416
-2439.9343 1767.9863 3512.3572 3823209
-2417.9021 1767.1405 3510.6768 3757159
-2382.5862 1756.4871 3489.5125 3757159
-2368.0366 1761.0906 3498.6577 3757159
-2336.6951 1753.1766 3482.9358 3822952
-2306.2834 1745.8252 3468.3311 3822952
-2297.4119 1754.7939 3486.1487 3888746
-2284.2498 1760.6188 3497.7207 3822952
-2259.3833 1757.4463 3491.4182 3823209
-2241.4392 1759.6497 3495.7954 3822952
-2216.9143 1756.6798 3489.8953 3888745
-2203.563 1762.5912 3501.6392 3888746
-2181.0234 1761.1958 3498.8669 3888745
-2163.3506 1763.7411 3503.9236 3888489
-2141.7402 1763.0947 3502.6394 3823209
-2124.2646 1765.8726 3508.158 3889258
-2097.3594 1760.7893 3498.0593 3889258
-2060.5208 1747.1813 3471.0249 3954539
-2015.2039 1726.0364 3429.0176 2769752
-1985.3542 1717.8425 3412.7395 1914185
0 0 0 0
-1934.478 1708.7356 3394.6472 1913158
-1815.0608 1620.151 3218.6614 3493218
-1922.5604 1734.3864 3445.606 4151661
-1935.9155 1765.2368 3506.895 3954025
-1875.8998 1729.1285 3435.1609 3757159
-1869.38 1742.0789 3460.8884 3757159
-1855.2374 1748.1344 3472.9187 3691367
-1821.3529 1735.515 3447.8484 3230815
-1794.2676 1729.1605 3435.2244 2507349
-1758.3533 1714.0535 3405.2119 2572628
-1724.0431 1700.1765 3377.6433 2967130
-1738.434 1734.5652 3445.9614 596004
-1714.2352 1730.811 3438.5032 1715772
-1692.3684 1729.349 3435.5989 3757159
-1712.4006 1771.1891 3518.72 3691623
-1693.1825 1772.9636 3522.2454 3692136
-1674.4175 1775.2632 3526.8137 3626086
-1650.8213 1772.434 3521.1931 3626086
-1635.2966 1778.3096 3532.8657 3757929
-1619.4387 1783.9707 3544.1128 3757672
-1601.465 1787.4196 3550.9644 3823465
-1583.7415 1791.2438 3558.5615 3823465
-1564.1968 1793.0837 3562.2168 3823722
-1545.543 1796.0094 3568.0291 3823465
-1524.4319 1796.1212 3568.2512 3757675
-1502.5439 1795.3082 3566.636 3823211
-1483.2382 1797.6011 3571.1912 3889259
-1462.8203 1798.5933 3573.1624 4020844
-1442.0182 1799.1353 3574.239 3955051
-1421.6194 1800.2041 3576.3625 4086893
-1401.7344 1801.9661 3579.8628 4152686
-1381.4663 1803.282 3582.4773 4152430
-1360.9911 1804.3647 3584.6284 4152687
-1340.2782 1805.1621 3586.2122 4021101
-1318.2341 1804.1628 3584.2273 3955309
-1296.3521 1803.3563 3582.6248 3889772
-1275.5474 1804.0466 3583.9961 3955565
-1257.2299 1808.3379 3592.5215 4087151
-1233.7295 1805.1937 3586.2751 4152944
-1213.6016 1806.9606 3589.7852 4087408
-1193.25 1808.4514 3592.7471 3955822
-1172.5612 1809.4762 3594.783 3955565
-1151.7734 1810.3837 3596.5857 3889772
-1129.4032 1808.7909 3593.4214 3955564
-1108.9396 1810.2493 3596.3186 3889773
-1086.5454 1808.5515 3592.9458 3955565
-1064.8597 1807.9885 3591.8274 3955822
-1042.9417 1806.9998 3589.863 4087151
-1022.5329 1808.6395 3593.1208 4152945
-999.94904 1806.4199 3588.7112 4284016
-979.77319 1808.5486 3592.9399 4218223
-958.39117 1808.4957 3592.835 4021101
-935.72266 1805.9576 3587.7925 3955308
-914.06256 1805.2928 3586.4719 3823722
-895.33276 1810.5219 3596.8601 3823466
-876.30945 1815.3986 3606.5486 4021101
-855.74323 1817.2434 3610.2136 3955308
-834.96045 1818.7117 3613.1304 4086894
-815.09857 1822.3159 3620.2908 4152431
-794.99994 1825.5721 3626.7598 4284016
-773.48944 1825.6775 3626.9688 4284016
-753.47919 1829.4312 3634.4263 4284016
-732.89069 1831.9612 3639.4526 4218221
-712.29791 1834.634 3644.7625 4284014
-692.15845 1838.6787 3652.7979 4284015
-671.50146 1841.5662 3658.5342 4020842
-643.92993 1825.0494 3625.7214 4020844
-629.33856 1845.4515 3666.2529 4086637
-609.0033 1849.8696 3675.03 4020844
-587.0965 1849.6655 3674.6248 4020844
-566.02509 1852.179 3679.6182 4020844
-544.29095 1852.6389 3680.5317 4086637
-522.56274 1853.1583 3681.5637 4086637
-501.10104 1854.7096 3684.6455 4349809
-479.84546 1857.2002 3689.5935 4349809
-457.67783 1856.2305 3687.667 4415602
-436.04404 1857.4374 3690.0645 4350066
-414.03607 1857.0934 3689.3813 4350065
-392.59885 1859.4143 3693.9919 4218223
-368.97183 1851.0247 3677.325 4152174
-347.84186 1854.8942 3685.0122 4086124
-325.99918 1855.2279 3685.675 4086124
-305.63773 1864.6462 3704.386 3757673
-282.39981 1856.6157 3688.4321 3560550
-262.26285 1869.3363 3713.7034 3033435
-237.79608 1850.6973 3676.6743 3493987
-220.79234 1892.2457 3759.2163 3560036
-198.08597 1888.7744 3752.3201 3889258
-176.86172 1900.3475 3775.3118 4086893
-155.00038 1907.4437 3789.4094 4218223
-132.2708 1904.4517 3783.4651 4349553
-110.43388 1915.7191 3805.8494 4415602
-87.725739 1913.7845 3802.0063 4349809
-64.955833 1908.6931 3791.8914 4284017
-42.717224 1922.0977 3818.5215 4284016
-20.035994 1923.3995 3821.1079 4349809
2.6752775 1924.1971 3822.6921 4218223
25.417612 1925.9213 3826.1174 4218223
48.146297 1925.4712 3825.2236 4152431
70.552498 1916.5497 3807.4998 4021101
92.635895 1905.322 3785.1941 3823465
115.43942 1910.3994 3795.2812 3889258
137.90924 1909.1974 3792.8931 4086381
160.57422 1910.6548 3795.7886 4020331
182.95383 1908.776 3792.0562 4151918
205.39801 1907.9094 3790.3342 4218223
227.48636 1904.2352 3783.0352 4218223
249.32188 1899.2961 3773.2229 4349809
271.98718 1900.9718 3776.552 4284015
294.91452 1904.0835 3782.7339 4415345
317.57999 1905.1836 3784.9194 4349809
340.35666 1906.7612 3788.0535 4086894
363.07581 1907.8407 3790.198 3954280
385.36188 1906.6514 3787.8354 2241862
408.31647 1908.7184 3791.9417 1319988
429.38113 1902.1967 3778.9854 3954793
456.38666 1921.3337 3817.0037 4086637
478.84143 1920.4071 3815.1628 4217710
501.5733 1920.6255 3815.5969 4217710
523.7514 1918.7965 3811.9631 4217710
547.7713 1923.5867 3821.4795 4217711
570.54083 1923.7794 3821.8623 4217967
593.43542 1924.3628 3823.0215 4217711
616.27112 1924.7194 3823.7297 4349296
639.1048 1925.0444 3824.3755 4283503
660.19073 1920.2637 3814.8779 4283503
684.03137 1923.5466 3821.4001 4151917
707.54865 1925.7386 3825.7549 4086124
730.67926 1926.7744 3827.8127 4151917
754.44916 1929.3828 3832.9944 4151917
779.62744 1935.3344 3844.8181 4020331
803.61768 1938.0815 3850.2756 4086124
826.76837 1938.7081 3851.5205 4151917
849.18439 1937.6244 3849.3677 3888745
873.99396 1941.9159 3857.8931 3888746
897.52142 1943.2123 3860.4685 3888745
919.25659 1940.66 3855.3982 3757157
946.03571 1948.6215 3871.2146 3691364
969.65039 1949.8413 3873.6382 3559521
989.80426 1944.207 3862.4448 3230042
1009.2098 1937.3915 3848.9048 2900563
1023.2598 1920.8246 3815.9924 2373962
1035.7532 1902.1178 3778.8286 2636357
1059.085 1903.6868 3781.9458 1977137
1085.3134 1910.2891 3795.062 259
1107.6403 1909.895 3794.2793 2
1131.005 1911.2708 3797.0122 0
1152.9387 1910.2217 3794.928 0
1173.5342 1907.038 3788.6033 0
1192.5166 1901.4023 3777.4072 0
1213.6038 1899.2688 3773.1687 0
1231.6467 1892.535 3759.791 0
1251.9006 1889.3782 3753.5195 0
1272.5753 1886.9556 3748.7068 0
1290.677 1880.8669 3736.6106 0
1310.6392 1877.6494 3730.2188 0
1333.3781 1878.451 3731.811 0
1352.8026 1874.6333 3724.2268 0
1374.9928 1874.7095 3724.3782 2
1397.3971 1875.0706 3725.0952 2
1417.8638 1872.8607 3720.7053 3
1439.6064 1872.3788 3719.7476 3
1461.7041 1872.3656 3719.7217 4
1485.422 1874.3978 3723.7588 4
1503.3711 1869.1974 3713.4275 4
1524.5797 1868.1417 3711.3301 4
1550.9043 1873.2955 3721.5688 5
1574.3832 1874.9154 3724.7874 5
1599.3884 1878.2833 3731.4778 5
1626.0414 1883.4672 3741.7764 5
1651.6134 1887.2761 3749.3435 5
1684.3365 1899.0464 3772.7268 5
1723.9153 1918.1355 3810.6499 263945
1757.5364 1930.1863 3834.5908 66052
1775.8013 1925.2799 3824.8435 594456
1813.0088 1940.7753 3855.6272 1035
1852.7192 1958.5295 3890.8987 858920
1891.4647 1974.8386 3923.2991 3031632
1931.4836 1992.064 3957.5195 3492701
1960.8328 1998.0027 3969.3176 3493730
1989.073 2002.6836 3978.6169 3690853
2022.4657 2012.3815 3997.8831 4019820
2054.8032 2020.8164 4014.6401 4085613
2085.0171 2026.993 4026.9109 4282992
2118.989 2036.6416 4046.0793 4414578
2152.8564 2045.9742 4064.6199 4480372
2185.2427 2053.7075 4079.9834 4480628
2213.7478 2057.6638 4087.843 4546164
2250.9805 2069.5583 4111.4731 4546165
2289.7539 2082.5989 4137.3799 4611957
2321.8674 2089.3691 4150.8301 4546164
2355.3064 2097.177 4166.3418 4611957
2391.4219 2107.1812 4186.2163 4611958
2425.8984 2115.5498 4202.8418 4677750
2461.0464 2124.3276 4220.2803 4743543
2499.2629 2135.55 4242.5752 4743543
2532.0728 2141.9749 4255.3389 4677750
2562.1125 2145.9524 4263.2407 4611958
2591.7112 2149.4858 4270.2607 4611957
2625.99 2156.7954 4284.7817 4546164
2656.9343 2161.2515 4293.6348 4546164
2691.8179 2168.7969 4308.6245 4546164
2721.9424 2172.4019 4315.7866 4611957
2753.7776 2177.292 4325.5015 4546165
2781.0603 2178.5256 4327.9521 4546421
2812.3652 2182.8586 4336.5601 4677494
2841.2339 2185.2388 4341.2891 4611957
2870.5105 2187.8875 4346.5508 4480372
2898.6707 2189.6453 4350.043 4414579
2925.7002 2190.5256 4351.792 4282993
2949.6765 2189.1245 4349.0083 4348785
2976.4231 2189.7859 4350.3223 4282992
3001.177 2188.9824 4348.7261 4349042
3028.042 2189.7192 4350.1899 4282992
3049.769 2186.7598 4344.3105 4282992
3072.2236 2184.3669 4339.5571 4282736
3089.074 2178.0627 4327.0327 4348015
3106.6577 2172.3755 4315.7339 4282222
3123.5869 2166.3274 4303.7188 4085099
3146.334 2164.3796 4299.8491 3887463
3168.6572 2162.1741 4295.4673 3690084
3182.2249 2154.0769 4279.3813 3624547
3205.2263 2152.4434 4276.1362 3361118
3202.4036 2133.6299 4238.7607 3032153
3221.0352 2129.293 4230.1445 3558497
3276.5303 2149.2036 4269.6997 3821670
3320.4097 2161.2471 4293.626 3887463
3345.9868 2161.2849 4293.7012 3821928
3383.3101 2168.8518 4308.7339 3756134
3437.4814 2187.0244 4344.8364 3690083
3470.2095 2191.3853 4353.4995 3821412
3487.1855 2185.8076 4342.4189 3821669
3535.3076 2199.6914 4370.001 3755878
3574.73 2207.9988 4386.5049 3690086
3604.8076 2210.4561 4391.3867 3426144
3637.8914 2214.708 4399.8335 3426401
3662.3381 2213.6785 4397.7886 2900057
3673.6282 2204.7678 4380.0859 3360608
3709.2026 2210.4541 4391.3828 2900311
3771.7224 2232.0068 4434.2002 3163739
3799.3438 2232.7515 4435.6797 2966102
3884.156 2266.8635 4503.4482 3295068
3890.3459 2254.9375 4479.7554 3623777
3922.1934 2257.9441 4485.7285 3557985
4036.9241 2308.3027 4585.7729 3229021
3963.6851 2251.2258 4472.3818 3360351
4005.2615 2259.686 4489.189 3425887
4033.7458 2260.6968 4491.1973 3162458
4068.884 2265.3989 4500.5386 2635598
4120.8755 2279.3616 4528.2773 2831949
4166.1768 2289.4666 4548.3521 2503237
4248.9038 2319.8757 4608.7642 66320
4223.2939 2291.1223 4551.6416 15
4228.3179 2279.2483 4528.0522 10
4267.6279 2285.8892 4541.2451 9
4289.7446 2283.2952 4536.0918 11
4316.0464 2282.9475 4535.4009 9
4332.3335 2277.3394 4524.2598 266
4343.7407 2269.2515 4508.1919 524
4359.4185 2263.4797 4496.7256 268
0 0 0 0
0 0 0 0
0 0 0 0
0 0 0 0
0 0 0 0
0 0 0 0
0 0 0 0
-2940.4724 1692.4713 3323.0989 4020331
-2939.259 1703.2128 3344.1895 4020331
-2933.948 1711.7101 3360.8735 3954538
-2931.9673 1722.2802 3381.6274 3823209
-2906.7046 1719.2255 3375.6296 3888745
-2899.249 1726.7339 3390.3723 3954795
-2884.1316 1729.7522 3396.2986 4086381
-2865.6409 1730.7758 3398.3083 3888745
-2823.5806 1717.4773 3372.1975 3822695
-2836.2974 1737.5457 3411.6008 3822439
-2826.2637 1743.8656 3424.0098 3888232
-2802.6382 1741.8301 3420.0129 3954281
-2793.3894 1748.765 3433.6294 3954281
-2776.9314 1751.2556 3438.5195 3954538
-2755.9224 1750.8917 3437.8052 3889001
-2742.6963 1755.504 3446.8613 3757416
-2726.0261 1757.9645 3451.6924 3822953
-2709.2273 1760.3792 3456.4333 3822952
-2690.1079 1761.311 3458.2629 3757159
-2668.5503 1760.6486 3456.9624 3757159
-2646.3684 1759.5609 3454.8267 3757161
-2623.9324 1758.2859 3452.3232 3822954
-2606.8623 1760.6147 3456.8958 3757162
-2584.8289 1759.6017 3454.907 3757161
-2566.7607 1761.2937 3458.229 3757160
-2541.7595 1758.2169 3452.188 3757416
-2517.8315 1755.8386 3447.5183 3757159
-2491.2695 1751.5693 3439.1357 3888744
-2474.8425 1754.4143 3444.7217 3822952
-2437.78 1742.5559 3421.438 3822952
-2418.468 1743.2932 3422.8857 3888745
-2395.1704 1741.1456 3418.6692 3823209
-2373.8777 1740.4312 3417.2664 3888746
-2343.6799 1733.1193 3402.9099 3757160
-2321.2781 1731.4952 3399.7212 3757159
-2300.3054 1730.9182 3398.5881 3691366
-2275.197 1727.1912 3391.2703 3757159
-2219.2798 1699.8005 3337.4897 2901593
-2226.2585 1720.5237 3378.179 3757416
-2209.9216 1723.4409 3383.9067 3823211
-2186.1853 1720.5885 3378.3059 3888745
-2164.5684 1719.3662 3375.9062 3888745
-2139.4463 1715.3112 3367.9441 3823209
-2116.7227 1713.1205 3363.6428 4020588
-2091.0173 1708.4518 3354.4761 4020844
-2071.1123 1708.478 3354.5276 4020588
-2072.9602 1726.6233 3390.155 3954794
0 0 0 0
-1656.8671 1407.408 2763.3887 2178126
0 0 0 0
-1616.6628 1401.0323 2750.8706 2176585
-1599.8951 1400.6663 2750.1516 2307144
-1573.5908 1391.8573 2732.8555 1846850
-1552.4238 1387.4558 2724.2136 596783
-1528.4916 1380.4642 2710.4858 727856
-1472.9272 1344.4508 2639.7749 1979206
-1509.2749 1392.4601 2734.0391 1519171
0 0 0 0
-1805.7306 1702.6327 3343.0508 3822952
-1771.6348 1689.0688 3316.4185 3757672
-1733.053 1670.8749 3280.6953 3888745
-1715.9319 1673.1929 3285.2466 3889258
-1726.6779 1703.0499 3343.8696 3889515
-1717.8483 1714.0696 3365.5066 3889514
-1674.405 1690.4049 3319.0417 3757672
-1665.9016 1701.87 3341.5527 3691879
-1682.3011 1739.3595 3415.1619 3494500
-1669.1 1746.7859 3429.7437 3560293
-1650.2219 1748.3816 3432.8767 3560293
-1630.9929 1749.6409 3435.3491 3560550
-1615.2889 1754.7612 3445.4028 3691879
-1599.3539 1759.759 3455.2158 3823722
-1580.7651 1761.9287 3459.4761 3823465
-1563.4246 1765.5656 3466.6167 3823465
-1558.3695 1783.3586 3501.5525 3823465
-1540.2443 1786.4736 3507.6687 3889258
-1521.4858 1788.9296 3512.491 3955051
-1499.2847 1787.3497 3509.3889 3889005
-1478.4512 1787.3787 3509.446 3954797
-1458.4685 1788.452 3511.5532 3954798
-1438.99 1790.1833 3514.9529 4086383
-1416.6815 1788.3936 3511.4385 4152431
-1399.3789 1792.9637 3520.4121 4218223
-1379.8947 1794.8353 3524.0869 4152430
-1358.5778 1794.3441 3523.1221 4086894
-1338.5564 1795.5751 3525.5393 4152430
-1318.9895 1797.4647 3529.2495 3889772
-1297.7296 1797.071 3528.4763 3955565
-1273.6779 1792.7347 3519.9622 3955565
-1255.0071 1795.9539 3526.283 4087151
-1234.9103 1797.2069 3528.7434 4087408
-1214.7012 1798.3373 3530.9626 3955566
-1195.0898 1800.4078 3535.0281 3889773
-1173.2809 1799.1826 3532.6223 3889773
-1154.3796 1802.4526 3539.043 3823979
-1133.809 1803.1891 3540.489 3889773
-1113.5828 1804.5117 3543.0859 3955565
-1091.514 1802.8418 3539.8071 4087151
-1067.9736 1798.6278 3531.5332 4087151
-1046.2952 1797.4436 3529.208 4087151
-1026.342 1799.2357 3532.7266 4087151
-1005.6875 1799.847 3533.927 3823980
-987.30707 1804.6415 3543.3406 3889002
-964.12726 1800.681 3535.5645 3889258
-942.44696 1799.4069 3533.063 3889258
-921.62463 1799.7505 3533.7373 3955051
-900.87671 1800.2587 3534.7354 3955051
-882.57623 1805.7986 3545.6128 3955050
-862.51459 1807.9182 3549.7744 3955306
-841.91296 1808.9836 3551.8665 3955050
-821.41254 1810.327 3554.5042 4152430
-800.65137 1811.1515 3556.123 4218224
-781.83734 1816.5447 3566.7124 4218223
-761.29645 1818.1147 3569.7947 4218223
-739.34637 1816.3126 3566.2563 4152687
-720.81274 1823.0447 3579.4749 4086637
-700.40594 1825.3051 3583.9126 4021100
-680.8158 1829.9019 3592.9385 4020844
-660.7619 1833.5094 3600.022 4086636
-639.35107 1833.4675 3599.9395 4020844
-621.21356 1843.1345 3618.9202 4086637
-601.03693 1847.2278 3626.9573 4152431
-579.34253 1846.7876 3626.0928 4218223
-558.10419 1847.8231 3628.126 4218223
-534.54523 1840.9496 3614.6304 4152687
-516.04211 1851.6421 3635.6245 4152430
-494.13663 1850.527 3633.4351 4218223
-472.86395 1851.7885 3635.9116 4020844
-451.38373 1852.3188 3636.9531 3823211
-429.55545 1851.4025 3635.1541 4020590
-408.24619 1852.7444 3637.7888 4086639
-386.90161 1854.0675 3640.3865 3955053
-365.16653 1853.5649 3639.3999 3691881
-343.4902 1853.316 3638.9111 3889258
-321.80862 1853.0034 3638.2976 4020844
-300.48944 1854.8831 3641.9878 4086636
-275.147 1830.2911 3593.7029 3954535
-253.91193 1831.1823 3595.4524 68890
-233.27466 1836.9446 3606.7664 1056298
-212.16501 1839.7767 3612.3274 1319730
-191.87648 1851.1685 3634.6946 3756387
-173.28058 1883.8524 3698.8682 4283503
-152.18346 1894.8909 3720.5417 4415089
-130.71155 1904.2224 3738.864 4415089
-108.49139 1904.2437 3738.9055 4086894
-85.239677 1881.5061 3694.2612 4152430
-64.13829 1906.923 3744.1663 4218223
-41.872158 1906.3191 3742.9807 4218224
-19.59819 1903.5856 3737.6135 4218223
2.6119535 1900.8331 3732.209 4152431
24.888792 1908.119 3746.5146 4086894
47.274685 1912.9366 3755.9741 4086382
69.529465 1911.0603 3752.2898 4020846
91.661819 1907.5477 3745.3928 4086639
113.30717 1897.2532 3725.1799 4152432
135.51047 1898.1393 3726.9197 4217710
157.99292 1902.1372 3734.7695 4151917
180.36955 1904.0333 3738.4927 4217967
201.83838 1896.9814 3724.6465 3625571
221.55078 1876.4471 3684.3284 2571087
244.73845 1886.3936 3703.8577 2503495
267.19223 1889.5085 3709.9736 660256
290.75204 1899.3738 3729.3438 2175298
311.797 1892.5767 3715.9978 3230300
331.16885 1877.1949 3685.7964 4217966
358.41422 1905.5829 3741.5352 4217966
378.58545 1895.2402 3721.2278 3889258
406.97668 1924.9183 3779.4993 3757159
426.09415 1909.9229 3750.0564 4217967
450.3476 1918.2954 3766.4954 4152174
472.43927 1917.1028 3764.1538 4152174
493.42001 1911.7136 3753.5728 4020332
516.09106 1913.0565 3756.2092 4151917
539.638 1917.4004 3764.7383 4086125
562.44196 1918.8632 3767.6104 4020333
584.81476 1918.7998 3767.4858 4020589
607.28308 1919.0426 3767.9624 3954795
629.4126 1918.2356 3766.3782 4086124
652.3197 1919.7725 3769.3958 4020332
674.91797 1920.3285 3770.4875 4086124
697.84882 1921.7646 3773.3074 4086124
720.74774 1923.0262 3775.7844 4151917
744.92816 1927.5276 3784.6228 4151917
768.50043 1930.2378 3789.9438 4086124
791.85229 1932.2554 3793.9055 3954538
814.3634 1932.167 3793.7317 4020331
839.25018 1937.5676 3804.3357 3954538
864.14777 1942.7094 3814.4312 3889002
887.75732 1944.7665 3818.4705 3889002
910.60938 1945.1031 3819.1316 3888743
935.61639 1949.9143 3828.5781 3888486
959.08844 1951.3741 3831.4443 3756898
982.27484 1952.1986 3833.063 3821665
1004.26 1950.6525 3830.0271 3558750
1022.8732 1942.7703 3814.551 3427163
1035.6156 1924.3209 3778.3267 3031892
1036.0856 1884.3351 3699.8159 2637132
1071.7762 1908.7362 3747.7266 2964553
1099.3782 1918.0316 3765.9775 593682
1123.8888 1921.67 3773.1216 1
1142.4755 1915.2356 3760.488 1
1164.4154 1914.5616 3759.1646 0
1184.7852 1911.3799 3752.9172 0
1205.1451 1908.3002 3746.8704 0
1225.7899 1905.7749 3741.9124 0
1243.2955 1898.5464 3727.7192 0
1263.9249 1896.2572 3723.2246 0
1283.8673 1893.0339 3716.8958 0
1305.1449 1891.8552 3714.5815 0
1327.6425 1892.4546 3715.7583 0
1347.1549 1888.849 3708.679 0
1370.0048 1889.9636 3710.8672 2
1393.0934 1891.3669 3713.6226 2
1412.5325 1887.8491 3706.7153 1
1435.296 1888.8137 3708.6096 3
1454.4855 1885.1174 3701.3518 4
1479.6375 1889.1438 3709.2576 4
1498.1262 1884.6694 3700.4724 4
1518.8286 1883.0692 3697.3303 4
1540.722 1882.97 3697.1355 4
1564.9451 1885.6809 3702.4583 5
1585.275 1883.6904 3698.55 5
1609.0033 1885.7373 3702.5691 66311
1645.1119 1902.0427 3734.5842 198154
1665.506 1899.9873 3730.5483 858912
1684.3455 1896.2355 3723.1819 2833223
1732.4917 1925.147 3779.9482 2571083
1761.3685 1932.1802 3793.7576 2505548
1801.9048 1951.6637 3832.0129 2637135
1848.6677 1977.3212 3882.3904 2637136
1880.4189 1986.4873 3900.3877 3031895
1919.7959 2003.3881 3933.5715 3229532
1947.2738 2007.6144 3941.8699 3492961
1978.7732 2015.8372 3958.0149 3821668
2005.9602 2019.5251 3965.2561 3822442
2036.4833 2026.447 3978.8469 4020077
2067.6235 2033.8171 3993.3179 4217199
2096.5757 2038.8921 4003.2822 4282993
2129.5876 2047.7568 4020.6877 4414578
2160.6328 2054.5547 4034.0354 4414578
2192.0688 2061.571 4047.8113 4546421
2230.0298 2074.5046 4073.2063 4546165
2255.001 2075.2068 4074.5847 4611957
2291.7585 2086.625 4097.0039 4677750
2321.8721 2091.8174 4107.1992 4677750
2360.3315 2104.3428 4131.792 4546421
2393.5896 2112.0205 4146.8672 4677750
2427.4902 2120.103 4162.7368 4677750
2461.4529 2128.0762 4178.3916 4546165
2492.8643 2133.7063 4189.4463 4611957
2529.3452 2143.5212 4208.7173 4546164
2560.1816 2148.4075 4218.311 4611957
2591.7266 2153.7874 4228.8745 4677750
2623.5747 2159.3137 4239.7256 4677750
2657.4683 2166.4023 4253.6436 4612214
2684.8232 2168.0771 4256.9321 4611957
2717.5588 2174.0251 4268.6108 4611957
2746.4453 2176.8125 4274.0835 4611957
2777.9856 2181.6328 4283.5479 4546164
2808.3542 2185.4536 4291.0503 4546421
2834.8989 2186.2571 4292.6274 4612214
2861.8516 2187.3577 4294.7886 4480372
2883.9404 2184.7542 4289.6768 4480628
2907.7722 2183.5054 4287.2246 4349042
2933.2346 2183.4919 4287.1982 4414578
2958.0562 2183.0059 4286.2437 4348785
2984.582 2183.7749 4287.7539 4414578
3008.0645 2182.323 4284.9033 4348786
3031.4556 2180.8301 4281.9717 4414578
3050.4211 2176.2043 4272.8896 4414065
3063.3809 2167.406 4255.6143 4348016
3084.2832 2164.3254 4249.5654 4216428
3098.9138 2156.9292 4235.0435 4216428
3114.0715 2150.0164 4221.4702 4150636
3125.4658 2140.6365 4203.0532 3887463
3143.7119 2136.0605 4194.0688 3624291
3149.4858 2123.1492 4168.7178 3624293
3176.8708 2124.8945 4172.1445 3624292
3214.4734 2133.3936 4188.832 3887464
3254.2566 2143.1982 4208.083 4019305
3282.4199 2145.259 4212.1294 4019050
3308.6846 2146.0574 4213.6968 3887464
3336.9463 2148.1287 4217.7642 3887464
3363.3176 2148.9619 4219.3999 3887465
3415.1184 2165.9102 4252.6772 4019049
3441.0588 2166.3289 4253.4995 4084841
3484.1926 2177.4871 4275.4077 3887462
3502.7598 2173.241 4267.0713 3624547
3519.2632 2167.7854 4256.3594 3624033
3554.3435 2173.7686 4268.1069 3689826
3625.6335 2201.6553 4322.8613 3426654
3654.1716 2203.3713 4326.231 3163485
3652.6958 2187.092 4294.2671 2834264
3708.9534 2205.3674 4330.1499 2505298
3759.1582 2219.8171 4358.521 2899542
3803.4617 2230.6077 4379.708 3228507
3784.6682 2204.4985 4328.4438 2702163
3859.0925 2232.6733 4383.7637 2438989
3946.6243 2268.0024 4453.1313 2965590
3944.7781 2251.8406 4421.3979 3426142
3967.1353 2249.6169 4417.0322 3425886
4012.4739 2260.3694 4438.144 3030871
3977.1501 2225.8379 4370.3428 1977925
4059.4702 2257.1677 4431.8574 1715006
4192.5942 2316.1592 4547.6851 1648696
4141.0371 2273.0234 4462.9897 726307
4166.5142 2272.4521 4461.8677 1555
4242.0942 2299.0413 4514.0747 1295
4262.269 2295.4578 4507.0386 263
4271.6196 2286.1262 4488.7163 519
4257.8823 2264.6304 4446.5103 462097
4266.5601 2255.2485 4428.0894 264460
4274.7588 2245.7297 4409.3994 464417
0 0 0 0
0 0 0 0
0 0 0 0
0 0 0 0
0 0 0 0
0 0 0 0
0 0 0 0
-2920.9712 1700.8661 3301.0601 4020331
-2909.9775 1705.9227 3310.874 3954539
-2930.918 1729.8965 3357.4026 3888745
-2898.9924 1722.7821 3343.5952 3757159
-2881.8989 1724.4449 3346.8223 3691366
-2849.2773 1716.7745 3331.9353 3427938
-2849.3757 1728.8496 3355.3706 3427681
-2829.6758 1728.9976 3355.658 3230816
-2810.613 1729.5398 3356.7102 3690853
-2808.0017 1740.2856 3377.5659 3954282
-2791.7007 1742.6407 3382.137 3822439
-2772.9727 1743.5042 3383.8125 3888489
-2760.7615 1748.5076 3393.5232 3822952
-2746.4241 1752.2281 3400.7439 3757160
-2730.2793 1754.842 3405.8171 3822952
-2711.2087 1755.6006 3407.2893 3757159
-2685.6511 1752.1384 3400.5698 3823209
-2671.3406 1756.0168 3408.0972 3823209
-2650.397 1755.561 3407.2126 3888745
-2634.3171 1758.3448 3412.6155 4020331
-2613.6108 1758.0594 3412.0618 3954538
-2588.7363 1754.9442 3406.0154 3888745
-2567.3977 1754.1957 3404.5627 3757159
-2544.3188 1752.2368 3400.761 3822953
-2522.1724 1750.8938 3398.1545 3757160
-2501.3955 1750.4877 3397.3662 3691366
-2477.6543 1747.9834 3392.5059 3757159
-2452.9575 1744.7585 3386.2471 3888746
-2421.5576 1736.6729 3370.5544 3822952
-2398.7031 1734.6321 3366.5935 3822952
-2380.032 1735.6075 3368.4868 3888745
-2360.1143 1735.683 3368.6331 3888745
-2342.0374 1737.1249 3371.4316 3888745
-2319.1521 1734.9944 3367.2966 3822952
-2292.6936 1730.1304 3357.8567 3822953
-2267.8169 1726.3853 3350.5881 3691366
-2193.7737 1684.8138 3269.9058 3296610
-2186.3557 1694.1249 3287.9766 4020334
-2171.3525 1697.6732 3294.8633 3822955
-2170.6428 1712.5631 3323.7617 3757418
-2182.4207 1737.6694 3372.4885 3822955
-2154.4958 1731.3365 3360.1973 3691369
-2125.6272 1724.119 3346.1897 3757416
-2102.7488 1721.6704 3341.4373 3757416
-2049.1736 1693.8015 3287.3491 3757416
-1877.7296 1567.0305 3041.3105 3757160
0 0 0 0
0 0 0 0
-1659.5092 1426.1022 2767.7952 1979204
-1639.0558 1422.6274 2761.0515 1913919
-1608.3391 1410.0844 2736.7075 1847612
-1585.094 1403.9022 2724.7092 2505284
-1565.743 1401.077 2719.2261 1123373
-1542.9838 1395.1115 2707.6479 2043192
-1514.2354 1383.5479 2685.2053 2043452
-1516.3101 1400.2007 2717.5254 1846589
-1505.0043 1404.7233 2726.3027 1188149
-1477.1924 1393.7703 2705.0452 1518652
-1790.985 1708.4359 3315.7515 3823723
-1752.9502 1690.7577 3281.4419 3822952
-1743.1176 1700.1897 3299.7473 3889001
-1744.287 1720.6897 3339.5339 3822952
-1738.7482 1734.9677 3367.2449 4020844
-1722.4202 1738.6871 3374.4636 3823722
-1694.6713 1730.8296 3359.2139 3823722
-1684.5187 1740.9708 3378.896 3823466
-1668.7836 1745.5177 3387.7205 3757929
-1651.1429 1748.158 3392.8447 3691879
-1641.9978 1759.9695 3415.7686 3955051
-1625.8224 1764.4469 3424.4583 3955308
-1606.1694 1765.2159 3425.9512 3889258
-1587.8335 1767.4707 3430.3271 3889258
-1569.4592 1769.7411 3434.7334 3889258
-1550.7629 1771.7031 3438.5415 3823465
-1532.191 1773.8618 3442.7312 3823722
-1518.9121 1782.2897 3459.0881 3889515
-1497.0521 1780.7417 3456.0835 4020844
-1478.9303 1783.6589 3461.7454 4020847
-1458.7855 1784.1842 3462.7649 4152177
-1436.6068 1782.2015 3458.9167 4283762
-1417.8181 1784.4276 3463.2373 4283762
-1399.9587 1787.9064 3469.989 4284017
-1380.8364 1789.8521 3473.7651 4218223
-1361.0533 1790.9872 3475.9683 4284016
-1341.3624 1792.2806 3478.4785 4218223
-1322.0403 1794.1149 3482.0383 4086894
-1302.1722 1795.2549 3484.2512 3889772
-1281.0365 1794.656 3483.0884 3889772
-1257.2948 1790.3264 3474.6855 3823980
-1238.8982 1793.5905 3481.0205 4021359
-1216.9475 1791.7328 3477.415 3955566
-1197.9374 1794.2151 3482.2327 4021358
-1177.5438 1794.6761 3483.1279 3890029
-1160.119 1799.7593 3492.9932 3889772
-1140.7545 1801.9636 3497.2715 3824235
-1119.2061 1800.7362 3494.8892 3692650
-1098.8108 1801.3528 3496.0857 3692394
-1077.9218 1801.1678 3495.7268 3889772
-1055.074 1797.6385 3488.8774 3823980
-1034.4331 1797.8031 3489.1968 3955822
-1013.1273 1796.7952 3487.2405 3889772
-992.53357 1797.0345 3487.7051 3889772
-971.27533 1796.0553 3485.8042 3889258
-950.86591 1796.637 3486.9333 3889258
-929.47583 1795.3506 3484.4365 3757929
-909.23657 1796.2791 3486.2385 3626086
-888.42218 1796.0879 3485.8677 3889258
-868.64539 1798.0355 3489.6477 3955308
-848.36432 1799.0093 3491.5374 3955051
-828.56384 1801.0764 3495.5493 3757673
-808.74866 1803.2168 3499.7036 3955051
-789.81677 1807.4919 3508.0007 3955051
-769.64661 1809.088 3511.0986 4020844
-750.50519 1813.259 3519.1934 3955051
-730.40747 1815.292 3523.1392 3626086
-708.3418 1812.4098 3517.5454 3692134
-688.2511 1814.5593 3521.717 4020843
-669.85608 1821.4545 3535.0994 4086892
-650.54639 1826.2285 3544.365 4152428
-630.58508 1829.4316 3550.5815 4020844
-612.91949 1839.7476 3570.6028 3428708
-595.20294 1850.6447 3591.752 4151659
-571.84192 1844.1495 3579.1462 3625314
-550.3006 1843.2478 3577.3962 3889515
-528.72174 1842.1427 3575.2515 3692136
-507.91492 1843.7478 3578.3667 4020844
-486.94855 1844.8888 3580.5808 3955308
-466.02512 1846.3036 3583.3269 4020844
-444.48822 1845.3077 3581.394 4086383
-420.47211 1833.4008 3558.2852 4152176
-400.90518 1840.6606 3572.3748 4086383
-381.19421 1848.0339 3586.6851 4086383
-359.40475 1845.6072 3581.9753 4086640
-337.97003 1844.8113 3580.4307 4020591
-317.06494 1846.9938 3584.6665 4086637
-295.83426 1847.4574 3585.5662 4021101
-273.27216 1839.0327 3569.2156 4021101
-252.38223 1841.3907 3573.7917 4547188
-230.96922 1840.0144 3571.1208 3231329
-209.34404 1836.4985 3564.2971 1650750
-188.18494 1836.74 3564.7659 4086635
-170.96443 1880.3618 3649.4275 4217964
-149.5914 1884.3522 3657.1719 4283502
-128.72336 1897.1417 3681.9941 3428193
-105.83911 1879.3693 3647.501 2177867
-84.250542 1881.3741 3651.3923 3231329
-62.053265 1866.4614 3622.4495 4349810
-41.118523 1893.8538 3675.6125 4349809
-19.280277 1894.5601 3676.9836 4284272
2.5728571 1894.2306 3676.3442 4152430
24.384972 1891.3092 3670.6743 4152431
46.258972 1893.6801 3675.2756 4020844
68.240334 1897.5156 3682.7197 4152430
90.196274 1898.9528 3685.5088 4284016
111.76033 1893.1899 3674.3245 4415602
133.7153 1894.8507 3677.5476 4415090
155.69063 1896.2927 3680.3462 4283247
177.48856 1895.485 3678.7786 4151917
197.99092 1882.5359 3653.647 4283501
219.12999 1877.6021 3644.0713 200476
239.53069 1867.798 3625.0435 2071
261.72101 1872.4156 3634.0054 2704727
287.82993 1902.2266 3691.863 3823464
308.6012 1895.0376 3677.9102 3955308
331.75848 1902.4819 3692.3586 4152687
355.28885 1911.0095 3708.9089 4086637
377.3204 1910.95 3708.7932 4152686
400.17218 1914.8219 3716.3079 4283760
423.30048 1919.5424 3725.4695 4284016
446.29718 1923.2267 3732.6199 4218223
468.3176 1922.5542 3731.3147 4217967
488.64236 1915.296 3717.228 4152174
511.77512 1919.1959 3724.7971 4152174
534.32971 1920.6945 3727.7056 4020331
556.44269 1920.5492 3727.4236 3954539
578.70923 1920.9247 3728.1523 3888745
599.96118 1918.0292 3722.5327 4020331
622.36987 1918.906 3724.2346 3954795
643.99774 1917.3979 3721.3074 3822952
666.61237 1918.8303 3724.0874 3954539
689.09283 1919.797 3725.9636 3954539
711.97168 1921.7786 3729.8093 4020588
733.65021 1920.4983 3727.325 4086124
755.25085 1919.0955 3724.6021 4020588
774.68219 1912.417 3711.6406 3954538
807.7085 1938.7405 3762.7292 3822952
830.76392 1940.3573 3765.8672 3888746
855.9469 1946.7279 3778.2317 3888745
881.41168 1953.3978 3791.1765 3954538
903.59344 1952.6405 3789.7065 3888745
925.52832 1951.399 3787.2974 3757159
951.19855 1957.9055 3799.9253 3757157
972.67517 1955.6786 3795.6033 3888486
995.62085 1956.4392 3797.0793 3691107
1019.5044 1958.9683 3801.9878 3691364
1035.4624 1946.4889 3777.7678 3559778
1054.1554 1939.5717 3764.3425 3624543
1061.6719 1912.8052 3712.3938 3426907
1091.0946 1925.7932 3737.6013 2833996
1113.3887 1925.9321 3737.8708 2241082
1133.1429 1921.7583 3729.77 659475
1158.0916 1926.3846 3738.749 258
1179.3087 1924.7467 3735.5701 1
1200.8718 1923.7235 3733.5842 0
1221.4475 1921.1846 3728.6567 0
1238.2456 1912.9001 3712.5781 0
1260.6544 1913.4216 3713.5903 0
1280.262 1909.7468 3706.4583 0
1300.9204 1907.7374 3702.5581 0
1323.8372 1909.0514 3705.1084 0
1343.9391 1906.3296 3699.8259 0
1366.8029 1907.5499 3702.1946 0
1389.5564 1908.5802 3704.1941 0
1409.1204 1905.2657 3697.7612 2
1429.5928 1903.2626 3693.8735 2
1449.8865 1901.0857 3689.6484 3
1473.8757 1903.7469 3694.8135 4
1491.0669 1897.6781 3683.0352 4
1511.4186 1895.7493 3679.2917 4
1536.4288 1899.6353 3686.8335 5
1553.7336 1894.019 3675.9333 4
1575.3718 1893.7673 3675.4451 518
1607.2855 1905.7061 3698.616 2108725
1608.3103 1881.1931 3651.0408 2044219
1651.2791 1905.74 3698.6819 2176065
1669.174 1901.0846 3689.6462 2504519
1724.8947 1939.0721 3763.373 2702413
1757.4856 1950.4182 3785.3938 2768720
1793.0592 1964.7463 3813.2017 2901078
1829.9308 1980.1206 3843.0405 3098203
1872.0448 2000.719 3883.0178 3229789
1902.3241 2008.3214 3897.7729 3361889
1936.6311 2019.9418 3920.3259 3493476
1967.326 2027.5636 3935.1182 3559269
1994.2882 2031.2041 3942.1836 3756905
2020.2711 2033.7742 3947.1719 3822698
2052.8098 2042.8092 3964.7073 4019820
2080.7986 2047.1627 3973.1565 4151406
2116.0771 2058.5105 3995.1802 4151406
2141.8081 2060.4209 3998.8884 4282992
2177.8894 2072.1377 4021.6282 4283249
2212.4663 2082.1841 4041.1262 4414579
2238.9231 2084.4548 4045.5332 4546164
2270.9883 2091.843 4059.8728 4480628
2302.7578 2098.8066 4073.3875 4546421
2339.343 2109.969 4095.0518 4611958
2365.4536 2111.551 4098.1221 4611957
2404.5027 2124.5325 4123.3169 4677750
2436.6853 2131.2468 4136.3481 4677750
2471.3984 2140.0181 4153.3711 4611957
2498.7 2142.2615 4157.7251 4546165
2528.708 2146.7585 4166.4531 4611958
2559.9941 2152.2432 4177.0977 4546165
2595.782 2161.3704 4194.812 4546421
2627.6799 2167.116 4205.9629 4677750
2661.5002 2174.3237 4219.9521 4611957
2694.3025 2180.5732 4232.0811 4677750
2725.981 2185.8059 4242.2368 4677750
2756.8394 2190.2908 4250.9414 4546421
2784.8638 2192.4634 4255.1577 4677750
2809.8259 2192.2078 4254.6616 4611957
2836.2292 2193.071 4256.3369 4546165
2855.9248 2188.7781 4248.0054 4546165
2876.2346 2185.0273 4240.7256 4546164
2899.7493 2183.7551 4238.2563 4480372
2924.0046 2183.0576 4236.9028 4414835
2951.075 2184.4561 4239.6167 4414579
2971.7502 2181.1367 4233.1748 4414579
2993.8533 2178.9126 4228.8579 4348786
3016.7134 2177.2715 4225.6733 4348786
3029.0972 2168.1592 4207.9878 4348785
3044.3376 2161.2241 4194.5278 4348785
3060.0046 2154.7017 4181.8696 4348529
3081.6157 2152.4365 4177.4731 4348015
3098.3921 2146.8572 4166.645 4282220
3106.717 2135.5574 4144.7139 4085098
3114.3337 2123.9519 4122.1899 3953257
3129.1077 2117.3711 4109.4175 3887464
3150.5571 2115.3738 4105.5415 3755877
3206.5442 2136.4192 4146.3862 4019049
3238.7209 2141.3999 4156.0532 4019306
3261.551 2140.1724 4153.6704 3887463
3287.7957 2141.187 4155.6396 3953256
3317.0789 2144.1506 4161.3916 3887206
3351.7639 2150.5364 4173.7852 3887720
3383.0381 2154.6558 4181.7803 3887977
3426.0181 2166.1162 4204.0225 4085099
3440.0303 2159.2283 4190.6543 4216428
3447.5435 2148.3894 4169.6182 3886950
3480.1892 2153.2549 4179.0615 3623779
3462.5408 2127.1543 4128.4053 4019050
3542.593 2161.0198 4194.1313 3821670
3595.4766 2177.9541 4226.998 3492704
3677.2473 2212.0305 4293.1338 3558240
3664.6709 2189.2744 4248.9683 3426655
3719.5095 2206.8276 4283.0361 2768727
3812.1289 2246.406 4359.8501 2504784
3804.3997 2226.7158 4321.6353 2570578
3875.4062 2253.0647 4372.7734 2505041
3863.0762 2230.9351 4329.8242 2438479
3910.3792 2243.3093 4353.8398 2701650
3909.0742 2227.8184 4323.7749 2833234
3926.6643 2223.2278 4314.8657 3293786
3983.8928 2240.9941 4349.3467 2767698
3984.9436 2227.1345 4322.4478 3425112
4063.793 2256.6543 4379.7402 3621975
4125.3325 2276.2473 4417.7666 3424853
4166.5693 2284.4609 4433.7075 2833483
4182.7012 2278.8931 4422.9014 2767688
4184.5269 2265.6492 4397.1973 3162447
4092.5083 2202.074 4273.8101 3162447
4049.7388 2165.6196 4203.0591 2965583
4039.6606 2146.9868 4166.8965 2505035
0 0 0 0
0 0 0 0
0 0 0 0
0 0 0 0
0 0 0 0
0 0 0 0
0 0 0 0
-2887.1216 1700.5477 3262.8059 3757416
-3051.803 1809.7021 3472.2383 3822952
-2877.4771 1717.9447 3296.1853 3757416
-2872.821 1726.9222 3313.4102 3493987
-2847.8474 1723.7257 3307.2771 3757416
-2804.2437 1709.1302 3279.2732 3888745
-2772.9287 1701.8727 3265.3481 3888745
-2764.9465 1708.934 3278.8967 3822952
-2775.5146 1727.6427 3314.7925 3690597
-2760.7798 1730.7557 3320.7656 3822439
-2747.7451 1734.9874 3328.8848 3756903
-2725.6807 1733.5376 3326.103 3757159
-2710.3635 1736.389 3331.574 3757416
-2697.064 1740.5847 3339.624 3691366
-2678.8975 1741.6782 3341.7224 3757416
-2659.4971 1741.9799 3342.3013 3757416
-2639.9609 1742.1967 3342.717 3822952
-2622.5581 1743.8352 3345.8606 3822952
-2598.9368 1741.332 3341.0581 3954538
-2579.1733 1741.3953 3341.1794 3954538
-2551.1746 1735.8561 3330.5513 3822952
-2535.2366 1738.5006 3335.6255 3888745
-2516.4199 1739.1975 3336.9626 3822952
-2494.4868 1737.7343 3334.155 3888745
-2473.9546 1737.2313 3333.1902 3822952
-2456.9072 1739.1873 3336.9429 3823209
-2438.0005 1739.8479 3338.2104 3823209
-2413.6582 1736.6084 3331.9951 3889001
-2383.6885 1729.2333 3317.8445 3822952
-2358.4587 1725.2024 3310.1104 3822953
-2342.4685 1727.9191 3315.3228 3888746
-2317.635 1724.1033 3308.0015 3954795
-2295.8989 1722.5459 3305.0137 3888745
-2272.1123 1719.4103 3298.9973 3822952
-2242.8809 1712.0637 3284.9014 3822953
-2211.3088 1702.7856 3267.0999 3888488
-2158.792 1677.0723 3217.7642 3889258
-2127.5496 1667.5741 3199.5403 3823467
-2144.9565 1696.3798 3254.8091 3823210
-2126.6094 1697.1758 3256.3364 3888748
-2098.6555 1690.2493 3243.0464 3954539
-2069.7271 1682.4017 3227.9897 3822952
-2043.5394 1676.6564 3216.9663 3757159
-2014.6764 1668.5867 3201.4829 3822953
0 0 0 0
0 0 0 0
-1645.8876 1402.8988 2691.7131 1782338
-1677.9672 1444.2804 2771.1113 1847870
-1655.812 1439.3383 2761.6289 1978939
-1626.7555 1428.2382 2740.3313 2372155
-1581.3392 1402.4047 2690.7651 988701
-1579.2786 1414.886 2714.7126 8
-1541.5278 1395.3199 2677.1716 11
-1524.8456 1394.6147 2675.8188 10
-1507.0245 1392.8425 2672.4182 922395
-1504.4891 1405.3102 2696.3398 2107446
-1497.6188 1413.9536 2712.9238 1845304
-1485.0651 1417.3611 2719.4617 526
-1475.8931 1424.1064 2732.4038 4742767
-1742.3196 1699.8888 3261.5417 4086892
-1727.3165 1704.2118 3269.8362 4152942
-1718.593 1714.8989 3290.3413 4218223
-1712.7699 1728.7595 3316.9355 3889258
-1704.4651 1740.4092 3339.2874 3823465
-1682.6567 1738.3823 3335.3984 3955051
-1671.4163 1747.3551 3352.6145 4021358
-1655.3501 1751.4387 3360.4497 3889772
-1634.3794 1750.3695 3358.3982 3955565
-1617.5518 1753.7657 3364.9143 3955822
-1603.2535 1760.0239 3376.9216 4086637
-1589.6681 1767.2332 3390.7539 4020844
-1567.6588 1765.1422 3386.7422 3955051
-1549.1635 1767.0051 3390.3164 4086637
-1532.1494 1770.629 3397.2695 3955308
-1513.9832 1773.0002 3401.8193 3955307
-1494.7385 1774.1559 3404.0364 3955051
-1478.3795 1778.8151 3412.9761 4086636
-1458.6233 1779.4596 3414.2126 4020844
-1436.053 1776.6407 3408.8042 4086381
-1415.8146 1776.6675 3408.8555 4086638
-1398.011 1779.7948 3414.8557 4020846
-1377.5658 1779.6017 3414.4851 4086383
-1359.499 1782.5211 3420.0867 3955053
-1339.9938 1783.6145 3422.1846 4020589
-1319.2531 1783.0718 3421.1433 4086637
-1299.5018 1783.8705 3422.6758 4020844
-1283.5984 1790.0607 3434.5527 3824236
-1261.0461 1787.0288 3428.7354 2771291
-1243.3564 1790.9011 3436.165 3099742
-1222.7921 1790.6932 3435.7664 3362658
-1201.9924 1790.1277 3434.6812 3428707
-1179.1305 1786.4181 3427.5637 3823723
-1161.3678 1790.4397 3435.2798 3955565
-1142.9309 1793.547 3441.2417 3758186
-1124.8671 1797.3635 3448.5647 3889773
-1102.8403 1794.8723 3443.7847 3823979
-1082.5931 1795.2377 3444.4858 3626857
-1061.1971 1793.6757 3441.4888 3626600
-1038.3619 1789.5717 3433.6143 3692136
-1018.3097 1790.1957 3434.8118 3691879
-998.82379 1791.8611 3438.0071 3692393
-978.07019 1791.2744 3436.8813 3626601
-957.94257 1791.8336 3437.9543 3889002
-936.87585 1790.6223 3435.6301 3889258
-917.06116 1791.8033 3437.8962 3757929
-897.33209 1793.2091 3440.5938 4152430
-876.10474 1791.6167 3437.5383 4152430
-853.64746 1787.3732 3429.396 4021101
-836.10223 1793.4581 3441.0713 4086894
-816.70801 1795.7828 3445.5315 4086636
-796.94952 1797.4055 3448.645 3889514
-777.81946 1800.5688 3454.7144 3823465
-758.6438 1803.7949 3460.9043 3889258
-739.15851 1806.4443 3465.9878 3889258
-717.87878 1804.7344 3462.7068 4020845
-697.5766 1805.4535 3464.0867 4349807
-680.60071 1815.0873 3482.5708 4481392
-661.69067 1820.0056 3492.0073 4284784
-641.15173 1820.6168 3493.1802 4349807
-620.34918 1820.4954 3492.947 2965841
-604.56805 1835.6117 3521.9507 133654
-585.95795 1842.915 3535.9631 522
-565.16949 1843.6553 3537.3838 2306879
-542.93134 1839.5414 3529.4902 3757156
-521.12549 1836.6201 3523.8853 4020331
-498.32095 1829.7872 3510.7751 4152430
-479.50485 1837.6421 3525.8464 4086637
-457.9996 1835.4382 3521.6177 4218223
-436.68716 1833.8331 3518.5381 4152431
-415.26276 1831.5725 3514.2007 4152686
-395.20908 1835.4386 3521.6184 4152431
-374.66037 1837.3093 3525.2078 4152431
-353.27148 1835.0375 3520.8489 4020844
-332.33896 1834.9994 3520.7756 3955308
-312.39279 1840.7682 3531.8442 4218223
-291.54346 1841.6628 3533.5608 4218223
-271.16385 1845.8939 3541.6787 4021358
-249.29871 1839.874 3530.1284 4153199
-228.08072 1837.9623 3526.4604 4021356
-203.11397 1802.3979 3458.2239 4021869
