# .PCD v0.7 - Point Cloud Data file format
VERSION 0.7
FIELDS x y z rgb
SIZE 4 4 4 4
TYPE F F F U
COUNT 1 1 1 1
WIDTH 1452
HEIGHT 1
VIEWPOINT 0 0 0 1 0 0 0
POINTS 1452
DATA ascii
0 0 0 0
0 0 0 0
0 0 0 0
0 0 0 0
0 0 0 0
0 0 0 0
0 0 0 0
0 0 0 0
0 0 0 0
0 0 0 0
0 0 0 0
0 0 0 0
0 0 0 0
0 0 0 0
0 0 0 0
1548.5386 3977.4685 19862.398 131072
1624.4568 3876.9189 19360.281 196608
1725.7321 3846.1858 19206.809 262144
1802.9038 3768.8789 18820.76 196608
1574.0687 3098.283 15471.984 262145
0 0 0 0
0 0 0 0
0 0 0 0
1445.04 2305.5593 11513.339 4607309
1544.5972 2352.9807 11750.147 8030600
0 0 0 0
2413.8872 3372.2852 16840.277 5267037
2621.0779 3515.9546 17557.725 66050
2890.8455 3729.3506 18623.365 197636
2986.7837 3711.0276 18531.865 723721
3090.0547 3702.7949 18490.754 723721
3189.8828 3691.144 18432.572 591878
3258.9663 3645.8721 18206.496 65536
3111.0305 3368.5281 16821.516 65536
3217.2969 3375.1272 16854.469 196608
3230.938 3287.092 16414.846 196608
3209.6462 3169.72 15828.722 458752
3264.1355 3131.7393 15639.057 786432
3292.335 3071.3364 15337.421 1048576
3365.6697 3055.1599 15256.64 1376256
3380.6797 2988.2771 14922.645 1245184
3367.6982 2900.7041 14485.329 1245184
3428.5757 2879.5278 14379.581 1179648
3498.6499 2866.9177 14316.61 1179648
3578.6797 2862.8708 14296.4 917504
3682.3833 2877.511 14369.509 851968
3764.4299 2874.9478 14356.709 851968
3777.7271 2821.157 14088.093 720896
3836.9202 2803.2302 13998.571 655360
3909.6047 2795.7117 13961.026 524288
3992.3372 2795.5417 13960.178 524288
4041.8108 2772.5642 13845.434 524288
4123.084 2771.8818 13842.026 458752
4228.3721 2787.0552 13917.798 393216
4395.9756 2841.9321 14191.838 393216
4407.2578 2795.5859 13960.398 788745
4659.5737 2901.0188 14486.9 196608
4790.3525 2928.3303 14623.288 327680
4966.2373 2981.7507 14890.054 524288
4857.9072 2865.644 14310.248 655360
4987.8491 2891.6694 14440.213 720896
5129.6147 2923.553 14599.431 655360
5164.2104 2894.3118 14453.407 655360
5201.3916 2867.4526 14319.281 458752
5540.5962 3005.2795 15007.551 458752
5255.584 2805.5215 14010.013 589824
5481.4976 2880.4812 14384.342 589824
5516.395 2854.303 14253.615 655360
5485.6812 2795.4814 13959.876 655360
5795.8457 2909.5347 14529.428 655360
5514.0728 2727.4468 13620.13 524288
5491.1299 2676.802 13367.223 524288
5548.5693 2666.2271 13314.415 458752
5604.001 2654.9985 13258.343 458752
5605.9482 2619.0935 13079.043 393216
5630.5825 2594.625 12956.854 327680
5685.375 2584.5266 12906.425 196608
5715.4438 2563.6072 12801.959 0
5768.4321 2553.3831 12750.902 65536
5782.3945 2526.373 12616.021 0
5842.7578 2520.0679 12584.536 0
5840.1543 2487.1072 12419.938 0
5852.7451 2461.3591 12291.359 0
5889.3447 2446.2183 12215.75 0
5869.187 2408.1582 12025.688 0
5862.7241 2376.5654 11867.924 65536
5797.4917 2322.1838 11596.355 65536
5828.4341 2307.1501 11521.282 65536
5932.2461 2320.9758 11590.323 65536
5851.8647 2263.2461 11302.036 65536
5873.4136 2245.8013 11214.922 65536
5891.1294 2227.2986 11122.525 196608
5918.9658 2212.991 11051.076 196608
5980.083 2211.3035 11042.649 196608
6045.2476 2211.1331 11041.799 262144
6086.1704 2202.1948 10997.164 262144
6083.8774 2177.9756 10876.22 327680
6084.0493 2155.1389 10762.18 262144
5612.1821 1967.3075 9824.2002 262144
6110.7334 2120.0146 10586.777 262144
6134.1143 2106.4365 10518.973 262144
6275.7109 2133.3179 10653.211 327680
6317.729 2126.1504 10617.419 327680
6100.5908 2032.7716 10151.11 196608
6160.3262 2032.575 10150.128 262144
6114.0308 1997.7369 9976.1562 196608
6333.6636 2049.6248 10235.27 65536
6478.6079 2076.5852 10369.903 65536
6365.1216 2020.9838 10092.244 65536
5987.6812 1883.3948 9405.1621 0
5903.7759 1839.8269 9187.5967 0
5984.0176 1847.743 9227.1279 0
6420.8281 1964.6167 9810.7627 65536
6143.293 1862.7815 9302.2256 65536
6233.9282 1873.4043 9355.2734 196608
6202.4004 1847.452 9225.6738 196608
6217.2095 1835.6354 9166.665 196608
6900.2256 2019.5989 10085.329 196608
6936.1367 2012.6262 10050.51 196608
6465.9707 1860.1805 9289.2373 196608
7205.9355 2055.5088 10264.653 65536
7294.5903 2063.3293 10303.707 65536
7383.666 2071.1377 10342.7 65536
7458.0273 2074.7236 10360.607 65536
7521.707 2075.304 10363.506 65536
7603.4316 2080.8132 10391.017 65536
7714.5664 2094.2173 10457.953 0
7741.4102 2084.708 10410.467 0
7821.5488 2089.5881 10434.836 0
7965.0073 2111.1743 10542.632 0
8363.4121 2199.4712 10983.562 0
8463.1875 2208.4731 11028.517 0
8774.0225 2271.9895 11345.699 65536
9076.1738 2332.3054 11646.9 0
9196.1904 2345.2595 11711.59 0
9279.3496 2348.6899 11728.721 0
9026.8506 2267.7446 11324.501 0
8796.2979 2193.4697 10953.593 0
9251.1631 2289.9482 11435.381 65536
9573.5381 2352.4634 11747.564 65536
9737.8203 2375.5073 11862.639 65536
9879.3975 2392.7207 11948.599 65536
10112.556 2431.7104 12143.303 65536
10290.226 2456.8992 12269.089 0
10536.591 2498.0198 12474.434 0
10964.863 2581.3911 12890.768 0
11176.382 2612.9307 13048.267 0
11656.211 2706.3315 13514.686 0
11964.526 2758.9043 13777.22 0
12063.22 2762.7544 13796.446 0
12365.189 2812.793 14046.325 0
12277.177 2774.0437 13852.821 0
12535.192 2813.4751 14049.731 0
12921.402 2880.967 14386.768 0
13283.025 2942.1257 14692.178 0
12960.675 2851.978 14242.005 0
13246.114 2895.876 14461.219 0
13436.251 2918.5068 14574.231 0
13960.239 3012.8999 15045.605 0
14393.945 3086.7307 15414.295 0
14623.481 3116.1206 15561.061 0
14814.297 3136.9424 15665.039 0
15627.724 3288.5193 16421.973 0
15900.558 3325.1641 16604.967 65536
16584.547 3446.8086 17212.428 65536
15050.34 3108.7744 15524.376 65536
0 0 0 0
0 0 0 0
-10415.059 2348.115 11387.863 0
-11488.809 2607.1384 12644.072 0
-11400.53 2604.1392 12629.527 0
-10099.678 2322.2849 11262.594 0
-8734.3115 2021.7371 9804.999 0
-11244.936 2620.3555 12708.173 0
-11167.535 2619.9163 12706.043 0
-12500.018 2952.4834 14318.924 0
-12370.187 2941.8462 14267.335 0
-12246.873 2932.6228 14222.604 0
-9597.4727 2314.1731 11223.252 0
-9601.6855 2331.3923 11306.763 0
-9894.4463 2419.4106 11733.633 0
-9773.3184 2406.7554 11672.258 0
-9690.0547 2403.3101 11655.548 0
-9615.8408 2402.0759 11649.562 0
-9573.3604 2408.8081 11682.213 0
-9507.1455 2409.6235 11686.167 0
-9442.2285 2410.782 11691.786 0
-9359.2031 2407.3003 11674.899 65536
-8379.2803 2171.3503 10530.593 0
-9212.5762 2405.2502 11664.958 0
-7431.0293 1954.8291 9480.5098 0
-7575.0889 2007.951 9738.1406 0
-7523.1616 2009.5405 9745.8486 0
-7496.8252 2018.0432 9787.085 0
-7452.7212 2021.8585 9805.5889 0
-7409.6997 2026.0302 9825.8203 0
-7627.894 2102.2595 10195.517 0
-7595.7617 2110.1667 10233.865 0
-7562.0996 2117.7734 10270.755 0
-7510.7827 2120.519 10284.072 0
-7475.5747 2127.8955 10319.846 0
-7548.4463 2166.4128 10506.646 0
-7497.603 2169.7703 10522.929 0
-7470.8018 2180.2 10573.512 0
-7420.7344 2183.9597 10591.745 0
-7366.4097 2186.5203 10604.163 0
-7313.4629 2189.5371 10618.794 0
-7280.7661 2198.7219 10663.339 0
-7225.9707 2201.3359 10676.017 65536
-7172.2466 2204.3254 10690.515 65536
-7113.1987 2205.7175 10697.267 65536
-7053.5142 2206.9358 10703.174 65536
-6996.2227 2208.9314 10712.853 65536
-6955.7314 2216.3169 10748.671 0
-6893.4028 2216.8169 10751.096 0
-6828.8638 2216.6086 10750.086 0
-6778.8359 2221.1514 10772.116 0
-6715.6157 2221.4165 10773.403 0
-6648.6431 2220.4341 10768.638 0
-6598.2793 2225.0327 10790.94 0
-6544.9473 2228.7114 10808.781 0
-6492.2515 2232.6814 10828.035 0
-6445.9819 2238.9631 10858.5 0
-6399.3584 2245.2478 10888.979 0
-6341.4976 2247.6777 10900.765 0
-6284.4668 2250.4553 10914.235 0
-6229.7939 2254.144 10932.124 0
-6181.1646 2260.1199 10961.106 0
-6124.3638 2263.2039 10976.062 0
-6072.2817 2268.1165 10999.888 0
-6016.1064 2271.5908 11016.737 0
-5963.8374 2276.6323 11041.188 0
-5913.8145 2282.6533 11070.388 0
-5855.541 2285.5891 11084.626 0
-5807.127 2292.4841 11118.065 0
-5749.9204 2296.0269 11135.247 0
-5696.5459 2301.2 11160.336 0
-5637.0298 2303.9849 11173.842 0
-5576.7783 2306.5322 11186.195 0
-5518.0874 2309.7939 11202.015 0
-5458.1758 2312.6182 11215.711 0
-5407.4604 2319.4568 11248.878 0
-5352.2788 2324.5271 11273.468 0
-5298.4336 2330.3137 11301.531 0
-5242.1821 2335.177 11325.117 0
-5184.2793 2339.4214 11345.702 0
-5124.8765 2343.092 11363.504 0
-5080.3071 2353.7334 11415.112 0
-5027.2744 2360.6882 11448.842 0
-4972.0547 2366.793 11478.448 0
-4906.7319 2368.1917 11485.231 0
-4860.2964 2378.874 11537.039 0
-4820.1768 2392.9976 11605.535 0
-4772.5586 2403.7546 11657.704 0
-4708.8442 2406.6021 11671.514 0
-4655.0757 2414.6938 11710.757 0
-4612.3994 2428.8721 11779.519 0
-4570.4146 2443.8577 11852.195 65536
-4525.3604 2457.645 11919.062 65536
-4472.6172 2467.6289 11967.481 65536
-4422.4443 2479.3765 12024.454 65536
-4367.4326 2488.7527 12069.927 65536
-4345.8115 2517.7869 12210.736 65536
-4300.2534 2533.7036 12287.93 65536
-4288.9839 2570.7224 12467.463 0
-4261.1914 2598.9653 12604.435 0
-4178.9331 2594.4048 12582.317 0
-4122.2349 2605.8357 12637.755 0
-4053.1428 2609.7107 12656.548 0
-4080.1558 2676.782 12981.829 0
-3942.7336 2636.4819 12786.383 256
-4095.6184 2792.5398 13543.23 461322
-4282.21 2978.2979 14444.118 258
-4301.415 3052.8562 14805.711 2
-4398.3726 3186.8647 15455.623 260
-4277.8154 3165.6272 15352.626 395789
-4374.4521 3307.6924 16041.613 1251356
-4438.2383 3430.6956 16638.152 461583
-4436.3569 3507.3882 17010.094 396044
-4317.9062 3493.3477 16942.002 1
-4335.3003 3591.1648 17416.395 2
-3978.3613 3376.1025 16373.387 0
-3814.5405 3318.2476 16092.802 65536
-3700.5151 3301.8477 16013.266 0
-3678.5857 3368.9248 16338.576 131586
-3614.845 3400.3096 16490.785 256
-3532.3186 3415.2808 16563.393 328965
-3781.5256 3761.0471 18240.287 256
-3209.2725 3286.0981 15936.885 0
-3226.9346 3404.6685 16511.926 0
-2957.5315 3218.3005 15608.081 0
-2872.5525 3227.0464 15650.497 0
-2834.0264 3290.3096 15957.31 0
-2733.9927 3284.071 15927.053 0
-2703.5415 3363.9644 16314.521 0
-2613.8977 3373.4106 16360.331 0
-2534.1404 3396.8381 16473.951 256
-2498.5916 3483.7886 16895.643 256
-2352.8528 3417.95 16576.338 256
-2216.8853 3361.1719 16300.976 0
-2128.7156 3374.9854 16367.968 0
-2039.2321 3387.9387 16430.791 0
-1963.1907 3425.6511 16613.688 0
-1874.1809 3443.531 16700.4 0
-1792.4309 3477.4946 16865.117 0
-1695.8409 3484.9858 16901.447 0
-1619.5328 3537.7244 17157.219 0
-1543.3688 3597.8855 17448.988 0
-1464.0892 3658.9285 17745.033 0
-1324.2247 3566.2864 17295.738 66306
-1411.1891 4120.3374 19982.77 1185302
0 0 0 0
0 0 0 0
0 0 0 0
0 0 0 0
0 0 0 0
0 0 0 0
0 0 0 0
0 0 0 0
0 0 0 0
0 0 0 0
0 0 0 0
0 0 0 0
0 0 0 0
0 0 0 0
0 0 0 0
486.50931 4098.9927 19879.252 0
599.91638 4066.8452 19723.344 0
717.97852 4071.6057 19746.432 0
838.88965 4088.9158 19830.381 131072
925.29291 3954.4822 19178.406 196608
1048.5703 3989.8442 19349.906 196608
1158.0281 3970.8293 19257.688 131072
1300.8925 4059.4814 19687.631 0
0 0 0 0
1461.2773 3864.7317 18743.137 65536
1579.5623 3881.6587 18825.229 65536
1673.0897 3839.5312 18620.918 65536
1729.7617 3723.2993 18057.219 0
1774.635 3596.7356 17443.41 854796
0 0 0 0
1424.4314 2584.9426 12536.428 1315604
1303.2089 2247.4019 10899.426 131073
1367.6503 2246.8472 10896.736 196610
1417.0848 2222.8032 10780.128 197380
1756.1099 2635.4343 12781.303 394759
2275.4817 3273.2764 15874.702 461837
2556.3057 3530.8408 17123.836 198407
2708.2883 3597.5369 17447.297 592650
2947.884 3771.4023 18290.508 526857
3016.6182 3722.0813 18051.312 394756
3172.2737 3779.7144 18330.82 65536
3087.9993 3557.1387 17251.375 65536
2988.4717 3331.8625 16158.833 196608
3060.7786 3306.229 16034.516 196608
3099.427 3246.8838 15746.703 524288
3165.1636 3218.5623 15609.351 786432
3222.9739 3184.0234 15441.843 1442560
3229.5972 3102.2288 15045.157 1507840
3274.7961 3060.8972 14844.708 1376256
3292.8394 2997.0183 14534.909 1310720
3343.0935 2964.9734 14379.497 1114112
3416.0239 2954.136 14326.938 1114112
3486.9397 2942.1257 14268.69 851968
3554.9817 2928.3188 14201.73 655360
3656.4666 2942.061 14268.377 655360
3694.1326 2904.9941 14088.61 720896
3746.5757 2880.9336 13971.922 589824
3803.3054 2861.1406 13875.931 458752
3877.9226 2855.3591 13847.892 393216
3955.8142 2852.1785 13832.466 393216
4012.9094 2834.4385 13746.43 393216
4087.8357 2829.7498 13723.69 393216
4177.0718 2834.9561 13748.94 196608
4324.4072 2878.6382 13960.789 0
4329.4653 2827.748 13713.983 7175550
4546.4644 2914.6084 14135.237 6583926
4644.7832 2923.6145 14178.915 6977142
4707.5142 2910.2986 14114.336 789259
4827.5615 2932.2629 14220.858 458752
4941.0278 2949.5425 14304.661 458752
5079.4229 2980.8672 14456.579 458752
5271.0615 3041.876 14752.459 393216
5312.9795 3015.8999 14626.479 656900
5328.1001 2975.7937 14431.973 327937
5680.0464 3122.0981 15141.519 393216
5427.8379 2936.938 14243.531 327680
5675.6182 3023.8479 14665.026 393216
5940.1035 3116.8943 15116.282 327680
5994.5449 3098.5962 15027.54 393216
5828.4722 2968.5239 14396.717 524288
5761.8242 2892.1218 14026.183 524288
5670.6196 2805.7483 13607.289 458752
5783.981 2821.5972 13684.152 393216
5743.5386 2763.0166 13400.05 327680
5793.5815 2748.9729 13331.94 327680
5814.46 2721.6562 13199.461 131072
5836.9277 2695.8015 13074.07 0
5940.6421 2707.6567 13131.565 65536
5878.7134 2644.6858 12826.17 0
5914.6338 2626.7834 12739.348 0
5956.1904 2611.8054 12666.706 0
5938.999 2571.7615 12472.502 0
5972.6758 2554.4604 12388.596 0
5934.3311 2507.1533 12159.166 0
6009.6201 2508.415 12165.285 65536
5971.1943 2462.7466 11943.803 65536
5755.6104 2345.9426 11377.328 65536
5879.5591 2368.6355 11487.384 65536
5879.6685 2341.4902 11355.735 65536
5881.9229 2315.8057 11231.17 65536
5938.6777 2311.9141 11212.297 131072
6191.7671 2383.6934 11560.412 196608
6239.3584 2375.6536 11521.42 196608
6250.7549 2354.1562 11417.163 196608
6255.271 2330.5576 11302.714 262144
5927.1885 2184.8586 10596.104 327680
5351.5161 1951.9175 9466.3887 2432791
0 0 0 0
0 0 0 0
5639.5327 1994.0759 9670.8486 2368028
5591.8799 1957.2783 9492.3877 1776407
5623.2783 1948.6089 9450.3428 986892
6168.2466 2116.3157 10263.687 986893
6109.3481 2075.5815 10066.134 789258
6155.1836 2070.8743 10043.305 591879
6224.5645 2074.103 10058.964 394500
6275.3149 2071.1218 10044.505 131329
6304.9321 2061.2871 9996.8096 131585
6359.5464 2059.7324 9989.2695 0
6452.9531 2070.6548 10042.239 0
6427.4043 2043.5551 9910.8125 0
6398.1147 2015.7694 9776.0576 0
6201.6919 1936.3011 9390.6533 65536
6354.0396 1966.1729 9535.5254 0
6141.749 1883.6815 9135.459 131072
6228.7646 1893.629 9183.7021 131072
6857.8486 2066.7683 10023.392 196608
6910.1616 2064.5989 10012.871 65536
7103.3296 2104.1921 10204.89 65536
7178.2026 2108.3694 10225.148 65536
7179.9155 2091.1685 10141.728 65536
7265.2695 2098.4119 10176.855 65536
7338.0332 2101.929 10193.913 65536
7424.9062 2109.397 10230.132 65536
7510.8325 2116.4771 10264.468 65536
7634.2012 2133.9087 10349.009 65536
7617.5703 2112.2422 10243.93 65536
7694.0093 2116.5212 10264.683 0
7895.1973 2154.78 10450.23 0
8256.2002 2235.7183 10842.764 0
8339.0195 2240.656 10866.711 0
8623.3428 2299.2451 11150.854 65536
8949.3145 2367.9602 11484.109 0
9049.7939 2376.4226 11525.149 0
8773.752 2286.6282 11089.666 0
8898.8066 2301.9277 11163.865 0
8869.6045 2277.3931 11044.877 0
9151.9863 2332.6348 11312.788 0
9329.085 2360.4321 11447.6 0
9604.8184 2412.6028 11700.616 65536
9857.8379 2458.3589 11922.523 65536
10042.897 2486.635 12059.656 0
10171.255 2500.5703 12127.239 0
10312.508 2517.4573 12209.139 0
10890.8 2640.0518 12803.695 0
11115.363 2675.792 12977.028 0
11286.508 2698.2688 13086.036 0
11597.794 2753.7124 13354.926 0
12015.571 2833.5149 13741.951 0
12312.843 2884.0142 13986.861 0
12509.118 2910.3384 14114.529 0
12477.387 2883.6182 13984.941 0
12723.923 2921.1355 14166.893 0
12890.349 2939.8889 14257.843 0
12874.801 2917.1658 14147.641 0
13134.58 2956.7163 14339.452 0
13236.801 2960.5181 14357.89 0
13784.53 3063.2739 14856.234 0
14079.027 3108.8057 15077.054 0
14317.378 3141.4419 15235.332 0
14453.925 3151.4709 15283.972 0
14931.95 3235.3643 15690.836 0
15559.936 3350.5071 16249.256 0
16200.643 3466.9521 16813.988 65536
14645.976 3115.0371 15107.274 65536
0 0 0 0
0 0 0 0
-10316.553 2392.9482 11280.157 0
-11449.964 2673.2175 12601.322 0
-11362.821 2670.3389 12587.753 0
-10026.856 2371.9956 11181.388 0
-8700.251 2071.8999 9766.7627 0
-11148.308 2672.7188 12598.971 0
-11070.438 2671.9971 12595.569 0
-11036.883 2682.0344 12642.885 0
-12238.17 2994.3408 14115.071 0
-12117.86 2985.3689 14072.777 0
-9894.4609 2454.5515 11570.549 0
-9529.6123 2380.5879 11221.891 0
-9752.7754 2453.5076 11565.629 0
-9715.3389 2461.438 11603.012 0
-9617.9053 2454.1729 11568.764 0
-9309.0771 2392.4731 11277.918 0
-9263.9707 2398.1484 11304.67 0
-9402.7305 2451.8511 11557.82 0
-9331.2852 2451.1277 11554.41 0
-9253.6328 2448.7512 11543.208 0
-9219.7305 2458.0034 11586.821 0
-9101.1621 2444.6526 11523.886 0
-7674.5493 2077.0825 9791.1924 0
-7279.8818 1985.3217 9358.6387 0
-7344.105 2018.2563 9513.8906 0
-7428.8105 2057.3748 9698.292 0
-7390.793 2062.8516 9724.1094 0
-7338.0503 2064.2727 9730.8076 0
-7302.9844 2070.7285 9761.2393 0
-7520.8647 2149.5835 10132.955 0
-7483.3354 2156.1223 10163.778 0
-7438.5947 2160.6729 10185.229 0
-7383.8042 2162.355 10193.159 0
-7368.0098 2175.5793 10255.498 0
-7434.6304 2213.5625 10434.547 0
-7397.2944 2220.9722 10469.477 0
-7363.9092 2229.7041 10510.638 0
-7316.6528 2234.3496 10532.536 0
-7266.4673 2238.1731 10550.56 0
-7219.584 2243.0889 10573.732 65536
-7177.9546 2249.7378 10605.075 65536
-7151.0986 2261.176 10658.993 65536
-7093.1914 2262.9121 10667.178 65536
-7037.064 2265.2529 10678.212 65536
-6978.5693 2266.8674 10685.822 65536
-6927.9194 2271.0828 10705.693 0
-6867.7949 2272.2419 10711.157 0
-6797.2842 2269.9541 10700.373 0
-6753.0098 2276.4675 10731.076 0
-6694.5674 2278.2837 10739.637 0
-6617.6172 2273.7754 10718.386 0
-6542.2905 2269.7427 10699.376 0
-6484.1851 2271.6641 10708.434 0
-6434.4961 2276.6018 10731.709 0
-6383.5127 2281.1753 10753.269 0
-6337.2959 2287.562 10783.375 0
-6303.9224 2298.7629 10836.175 0
-6245.5991 2301.0027 10846.733 0
-6198.8135 2307.5845 10877.759 0
-6144.6577 2311.5322 10896.369 0
-6089.7939 2315.2952 10914.106 0
-6033.5874 2318.6228 10929.793 0
-5976.5215 2321.6892 10944.248 0
-5920.7754 2325.3418 10961.465 0
-5868.728 2330.5439 10985.988 0
-5813.8545 2334.7285 11005.714 0
-5753.9487 2336.9644 11016.253 0
-5701.1743 2342.1814 11040.846 0
-5643.208 2345.3621 11055.839 0
-5590.2417 2350.7202 11081.098 0
-5535.7612 2355.562 11103.921 0
-5482.1675 2360.9021 11129.095 0
-5424.6299 2364.6541 11146.779 0
-5379.5742 2374.0068 11190.868 0
-5346.5659 2388.9766 11261.435 0
-5294.0957 2395.5198 11292.278 0
-5241.667 2402.2498 11324.004 0
-5186.5005 2407.884 11350.563 0
-5139.3955 2417.4587 11395.697 0
-5085.6226 2424.1108 11427.055 0
-5027.4814 2428.8328 11449.313 0
-4968.8457 2433.4419 11471.04 0
-4899.4004 2432.8118 11468.07 0
-4865.584 2450.1052 11549.59 0
-4811.519 2457.5513 11584.689 0
-4765.4473 2469.3555 11640.334 0
-4721.5044 2482.6267 11702.894 0
-4675.2007 2495.0349 11761.385 0
-4624.9878 2505.7019 11811.668 0
-4571.4731 2514.8813 11854.939 65536
-4522.1768 2526.7051 11910.676 65536
-4475.7422 2540.5293 11975.842 65536
-4431.1216 2555.8467 12048.046 65536
-4380.0942 2567.9111 12104.917 65536
-4324.082 2577.4075 12149.682 65536
-4296.3599 2604.3748 12276.804 65536
-4233.7222 2610.7434 12306.825 0
-4149.3525 2603.6992 12273.619 0
-4087.1775 2610.5789 12306.05 0
-4040.3494 2627.6909 12386.714 0
-3985.6453 2640.2205 12445.777 0
-3936.5571 2657.0142 12524.941 256
-3905.4614 2686.834 12665.509 65793
-3998.5496 2804.939 13222.246 1580319
-4157.4536 2974.8745 14023.308 923161
-4222.8159 3083.4592 14535.168 1120284
-4281.228 3191.3987 15043.985 2501681
-4225.4619 3217.0144 15164.735 65795
-4287.6074 3335.4744 15723.145 3
-4249.8599 3379.7708 15931.955 1053460
-4256.3662 3462.082 16319.964 1317145
-4137.4409 3443.8284 16233.918 724493
-3889.0188 3314.342 15623.528 256
-3777.7568 3298.2722 15547.777 0
-3704.9253 3315.7903 15630.356 0
-3614.1775 3317.7627 15639.654 0
-3562.8481 3356.9802 15824.522 66306
-3595.3359 3479.4399 16401.787 258
-3707.1526 3687.636 17383.205 66052
-3431.5588 3511.3508 16552.213 1
-3339.5972 3518.1072 16584.062 258
-3284.8113 3565.6292 16808.076 256
-2930.3518 3280.6362 15464.643 0
-2835.2312 3276.9275 15447.16 0
-2748.5332 3283.031 15475.932 0
-2705.0457 3342.9573 15758.42 256
-2715.6345 3476.4084 16387.496 256
-2576.1287 3420.4968 16123.935 256
-2485.959 3428.3035 16160.733 0
-2466.8672 3538.6973 16681.121 0
-2314.9441 3459.8123 16309.264 0
-2187.7793 3412.6523 16086.956 0
-2117.8342 3454.5164 16284.301 0
-2031.4951 3472.3682 16368.451 0
-1948.8416 3498.6321 16492.258 0
-1854.3219 3505.2473 16523.441 0
-1761.9485 3516.8862 16578.307 0
-1660.9833 3511.7385 16554.041 256
-1582.1002 3555.5701 16760.658 256
-1504.6512 3608.7314 17011.256 256
-1419.3174 3649.2783 17202.391 256
-1440.3383 3990.8013 18812.301 460808
-1363.7424 4096.5752 19310.912 593166
-1252.4424 4107.9614 19364.586 395273
-1151.1157 4157.6743 19598.928 396046
-1055.2843 4240.6636 19990.131 329996
0 0 0 0
0 0 0 0
0 0 0 0
0 0 0 0
0 0 0 0
0 0 0 0
0 0 0 0
0 0 0 0
0 0 0 0
0 0 0 0
0 0 0 0
363.63388 4163.0342 19624.193 461064
469.90347 4073.1997 19200.721 526344
583.32953 4068.3845 19178.021 657930
692.12 4038.0972 19035.25 65536
796.24792 3992.939 18822.379 131072
862.3653 3791.7764 17874.115 65536
964.71948 3776.5957 17802.555 65536
1141.3746 4026.5344 18980.744 197378
1246.8202 4002.8938 18869.305 723721
1357.751 3999.312 18852.42 592648
1442.9674 3926.3079 18508.285 395013
1548.8591 3915.918 18459.309 855307
1642.1731 3877.2068 18276.826 394500
1683.6716 3728.5515 17576.078 65536
1708.8448 3563.2239 16796.738 328965
1393.5297 2745.3589 12941.392 723723
1231.7463 2299.7029 10840.605 1183761
1316.8254 2336.3396 11013.309 0
1393.5559 2355.3962 11103.14 723723
1468.7472 2370.2456 11173.138 1382165
1645.8706 2541.1914 11978.962 658700
1899.8977 2811.7754 13254.473 592650
1994.1759 2833.8049 13358.317 395271
2559.7246 3498.2004 16490.223 592649
2746.1428 3614.5701 17038.779 592905
2874.6201 3649.1113 17201.604 0
3080.1204 3775.6968 17798.316 0
2965.7097 3514.7412 16568.193 0
2885.3975 3309.6702 15601.506 196608
2966.981 3297.2876 15543.137 327680
3009.5679 3243.6243 15290.172 589824
3120.8887 3265.0144 15391.003 1114880
3162.147 3213.9756 15150.41 1245440
3154.0703 3117.0076 14693.312 1114112
3203.4607 3080.5266 14521.344 1310720
3275.6775 3067.3342 14459.155 1048576
3336.3555 3044.2874 14350.515 720896
3419.6541 3042.5154 14342.162 589824
3500.9893 3039.126 14326.184 458752
3545.707 3004.8647 14164.68 589824
3610.8821 2989.1277 14090.496 655360
3664.4744 2964.7329 13975.501 720896
3710.5906 2935.5051 13837.725 655360
3768.614 2916.7605 13749.364 458752
3841.7065 2910.2268 13718.564 393216
3930.1055 2915.3191 13742.569 327936
4002.4565 2908.5422 13710.623 459009
4086.4155 2910.3027 13718.923 196608
4170.5039 2912.085 13727.323 131072
4243.0239 2905.876 13698.055 2766904
4369.8853 2936.416 13842.018 5201762
4523.9365 2983.7607 14065.196 6254965
4540.105 2940.0972 13859.37 6713716
4572.7119 2908.4446 13710.163 855310
4724.9839 2952.6804 13918.688 458752
4909.9575 3015.4778 14214.709 524288
5074.4189 3063.7664 14442.337 458752
5181.8833 3076.6077 14502.87 393216
5304.2812 3097.7502 14602.534 196608
5427.7778 3118.8435 14701.966 131072
5475.8369 3096.6079 14597.149 196608
5493.6396 3058.2227 14416.204 196608
5721.6309 3136.2285 14783.917 328451
5771.7026 3115.8252 14687.738 723719
5884.3994 3129.3345 14751.419 460292
5957.7231 3121.8154 14715.976 393728
5980.4712 3088.3965 14558.44 262144
6282.8979 3198.3003 15076.52 262144
5849.3687 2935.7444 13838.852 327680
5904.2871 2922.2173 13775.087 262144
6447.2788 3147.3198 14836.2 196608
5852.2729 2818.3154 13285.302 196608
5866.9292 2787.7607 13141.27 65536
5864.2837 2749.896 12962.778 65536
5967.041 2761.7979 13018.883 0
5941.3271 2714.6946 12796.842 0
6792.7148 3064.4792 14445.697 0
5949.0049 2650.3474 12493.515 0
5904.5356 2598.1072 12247.259 0
5944.229 2583.7214 12179.446 0
5961.3291 2559.9797 12067.529 65536
5898.6235 2502.939 11798.644 65536
5772.6812 2420.7207 11411.073 65536
5904.2075 2447.125 11535.542 65536
5749.7119 2355.7361 11104.742 65536
5789.2808 2345.0303 11054.275 65536
5974.9692 2393.0879 11280.815 65536
5862.3135 2321.9128 10945.302 65536
6210.9917 2433.0173 11469.039 0
6279.2451 2433.0518 11469.201 196608
0 0 0 0
0 0 0 0
0 0 0 0
0 0 0 0
0 0 0 0
0 0 0 0
0 0 0 0
0 0 0 0
0 0 0 0
0 0 0 0
0 0 0 0
0 0 0 0
0 0 0 0
0 0 0 0
0 0 0 0
0 0 0 0
0 0 0 0
5237.4272 1697.649 8002.5752 1579285
5688.3901 1827.2297 8613.4072 1513491
5781.3901 1840.5396 8676.1484 1974042
5987.6504 1889.3522 8906.2471 2368544
5980.2935 1870.4949 8817.3555 2170909
6031.0664 1869.989 8814.9707 2104345
6088.4951 1871.5377 8822.2715 1578771
6225.8994 1897.4337 8944.3428 1249806
6503.3672 1965.2161 9263.8633 1052428
6742.1597 2020.2716 9523.3906 592134
7202.4761 2140.2371 10088.896 394242
7195.5654 2120.5298 9995.999 328450
7231.4321 2113.6482 9963.5605 196865
7365.4233 2135.3264 10065.749 131072
7444.4414 2140.8462 10091.769 131072
7444.4712 2123.7439 10011.15 131072
7671.0093 2171.0186 10233.998 131072
7892.6772 2216.1816 10446.895 65536
7718.0938 2150.2451 10136.075 131072
8188.1108 2263.5232 10670.059 131072
8281.2559 2271.6787 10708.502 0
8689.5137 2365.4905 11150.723 65536
8582.1172 2318.5715 10929.552 0
8603.1562 2306.7954 10874.04 0
8573.1797 2281.6177 10755.354 0
8642.001 2282.9119 10761.454 0
8744.1172 2292.9175 10808.62 0
8920.9912 2322.2375 10946.833 0
9044.2676 2337.282 11017.751 0
9359.2129 2401.2869 11319.464 0
9914.8818 2525.6992 11905.934 0
9912.543 2507.21 11818.776 0
10177.663 2556.1538 12049.494 0
10419.208 2598.5342 12249.271 0
10714.837 2653.7214 12509.419 0
11146.916 2741.7095 12924.188 0
11474.09 2802.8669 13212.479 0
11783.834 2858.9646 13476.919 0
12413.634 2991.4314 14101.355 0
12607.822 3017.8523 14225.901 0
12453.124 2960.9666 13957.747 0
12562.916 2967.3052 13987.627 0
12742.335 2989.8979 14094.127 0
12940.644 3016.5991 14219.994 0
13003.361 3011.5508 14196.197 0
13300.469 3060.502 14426.949 0
13531.733 3093.7727 14583.784 0
13678.494 3107.4221 14648.127 0
13999.207 3160.1672 14896.762 0
14161.211 3176.6472 14974.448 0
14811.929 3301.8655 15564.716 0
15208.022 3369.1206 15881.752 65536
15997.165 3522.0837 16602.807 65536
14444.997 3160.8469 14899.967 65536
0 0 0 0
0 0 0 0
-10223.768 2437.8655 11178.706 0
-11412.257 2739.0613 12559.823 0
-11324.896 2735.99 12545.74 0
-9953.667 2420.6516 11099.771 0
-8639.4668 2115.0664 9698.5273 0
-10985.007 2707.3521 12414.422 0
-10988.8 2726.6006 12502.685 0
-12172.7 3040.9192 13943.978 0
-12038.635 3028.0435 13884.936 0
-11912.546 3017.0098 13834.342 0
-9829.4414 2506.738 11494.517 0
-9451.1543 2427.1348 11129.5 0
-9680.3994 2503.5283 11479.799 0
-9655.0977 2514.7087 11531.066 0
-9558.8418 2507.4368 11497.721 0
-9496.8779 2509.1201 11505.439 0
-9430.2188 2509.5781 11507.54 0
-9185.3877 2462.2812 11290.662 0
-9065.3896 2447.998 11225.168 0
-9234.291 2512.095 11519.081 0
-8913.8223 2443.0269 11202.373 0
-8937.3311 2467.9036 11316.443 0
-8814.0166 2452.3066 11244.925 0
-7143.917 2002.8248 9183.8486 0
-6992.9268 1975.5885 9058.958 0
-7399.2793 2106.6074 9659.7393 0
-7351.2017 2109.2854 9672.0186 0
-7311.6553 2114.4729 9695.8057 0
-7303.7393 2128.9629 9762.248 0
-7260.1738 2133.21 9781.7236 0
-7445.4897 2205.3193 10112.377 0
-7410.3506 2212.7729 10146.556 0
-7363.2437 2216.7463 10164.775 0
-7463.3286 2265.4646 10388.171 0
-7403.0986 2265.9272 10390.292 0
-7370.0933 2274.8003 10430.979 0
-7316.4492 2277.3997 10442.897 0
-7267.2725 2281.446 10461.452 0
-7229.3564 2289.1277 10496.676 0
-7189.3916 2296.2888 10529.513 65536
-7132.3213 2298.0642 10537.654 65536
-7094.1704 2306.021 10574.14 0
-7050.3569 2312.2627 10602.761 0
-6997.7383 2315.7036 10618.538 0
-6945.3574 2319.2864 10634.967 0
-6898.3936 2324.7603 10660.067 0
-6842.7451 2327.3821 10672.09 0
-6775.0229 2325.9077 10665.329 0
-6723.3315 2329.9612 10683.916 0
-6660.7778 2330.2915 10685.431 0
-6603.5264 2332.5015 10695.563 0
-6515.7104 2323.8528 10655.906 0
-6454.6855 2324.6838 10659.717 0
-6400.9956 2328.199 10675.835 0
-6352.9067 2333.842 10701.711 0
-6304.731 2339.5674 10727.964 0
-6260.8354 2347.0139 10762.11 0
-6211.8643 2352.6917 10788.146 0
-6157.3486 2356.3665 10804.996 0
-6109.6782 2362.7659 10834.34 0
-6051.9287 2365.3618 10846.244 0
-6002.1812 2371.1755 10872.901 0
-5948.1362 2375.3992 10892.27 0
-5894.627 2379.9321 10913.055 0
-5844.0415 2385.7595 10939.776 0
-5788.7178 2389.762 10958.129 0
-5724.0063 2389.9358 10958.927 0
-5670.1714 2394.7073 10980.806 0
-5615.0942 2399.0591 11000.761 0
-5567.9194 2406.9292 11036.85 0
-5514.6255 2412.3105 11061.525 0
-5461.2271 2417.7756 11086.585 0
-5410.7598 2424.6875 11118.278 0
-5356.7842 2430.179 11143.459 0
-5309.8062 2439.022 11184.008 0
-5268.5786 2450.7639 11237.851 0
-5216.1826 2457.5459 11268.948 0
-5166.874 2465.9773 11307.611 0
-5110.1465 2471.0442 11330.844 0
-5053.6094 2476.3391 11355.124 0
-4998.7222 2482.5969 11383.818 0
-4940.3354 2487.2646 11405.223 0
-4875.1733 2488.6035 11411.362 0
-4835.9375 2503.4014 11479.217 0
-4783.4282 2511.6533 11517.056 0
-4736.3809 2523.0542 11569.334 0
-4685.022 2532.4607 11612.467 0
-4651.0342 2551.6787 11700.59 0
-4605.6157 2565.1135 11762.194 0
-4558.2275 2577.8486 11820.591 65536
-4522.4351 2597.6428 11911.355 65536
-4568.5923 2665.8867 12224.284 65536
-4509.373 2673.8523 12260.811 65536
-4512.7451 2719.8025 12471.514 65536
-4436.5352 2718.5239 12465.649 65536
-4381.7227 2730.5354 12520.728 65536
-4343.9141 2753.7412 12627.138 65536
-4307.1436 2778.4329 12740.359 0
-4213.8154 2766.8708 12687.343 0
-4181.1494 2795.446 12818.372 0
-4127.8354 2811.0203 12889.787 0
-4051.0154 2810.8735 12889.114 0
-3987.3127 2819.9983 12930.955 256
-3921.4573 2827.929 12967.321 0
-3900.0073 2868.8423 13154.928 2
-4122.0498 3094.207 14188.326 4
-3988.7419 3056.6709 14016.205 4
-4170.585 3264.1931 14967.788 3
-4002.8882 3201.2241 14679.046 3
-3883.5269 3174.9653 14558.639 65538
-3783.3186 3163.5254 14506.182 1
-3669.0408 3139.5129 14396.073 0
-3609.6284 3162.4224 14501.122 0
-3555.5828 3191.2683 14633.395 0
-3551.4531 3267.4866 14982.889 0
-3472.3135 3276.8372 15025.767 0
-3391.9946 3285.5398 15065.672 0
-3294.7539 3277.8787 15030.543 1
-3220.8765 3293.6826 15103.01 2
-3142.9319 3306.1133 15160.012 2
-3070.4714 3325.2183 15247.615 1
-2979.217 3324.5125 15244.379 0
-2835.291 3263.1423 14962.969 0
-2796.4729 3322.6838 15235.993 256
-2715.1931 3334.0701 15288.206 256
-2669.1772 3391.0459 15549.466 256
-2684.2588 3532.5139 16198.159 256
-2577.4973 3518.1953 16132.502 256
-2485.4871 3523.6829 16157.665 256
-2425.2708 3576.4978 16399.844 0
-2323.2683 3569.5332 16367.909 0
-2199.1392 3526.4792 16170.487 0
-2133.0703 3576.8486 16401.453 0
-2045.4122 3594.106 16480.586 0
-1965.3713 3627.1577 16632.143 0
-1861.4501 3617.304 16586.959 0
-1766.0504 3623.8337 16616.902 0
-1660.3562 3608.7627 16547.793 256
-1572.4033 3632.7812 16657.93 256
-1499.6327 3697.4614 16954.518 0
-1403.9091 3710.791 17015.639 0
-1302.0804 3708.8005 17006.512 256
-1202.9551 3714.8228 17034.127 2
-1113.5936 3754.8745 17217.781 2
-1028.7745 3819.8982 17515.943 260
-984.3548 4066.4558 18646.521 65796
-889.58624 4141.1909 18989.215 4
-780.31464 4160.3203 19076.932 4
-656.79016 4097.0435 18786.781 3
-544.61804 4093.1672 18769.006 2
-430.08365 4064.9663 18639.691 2
-320.7739 4083.7109 18725.645 65537
-211.13248 4115.9062 18873.275 131072
-98.55545 4098.9937 18795.723 196608
13.041051 4063.7908 18634.301 262144
121.63509 3993.0125 18309.752 262144
230.70406 3997.3062 18329.439 393216
333.04486 3919.6604 17973.398 393216
439.47949 3916.2078 17957.566 458752
544.74109 3905.6936 17909.355 458752
639.5719 3836.0547 17590.029 524288
737.56116 3802.2656 17435.092 524288
836.06567 3779.1304 17329.006 262144
896.17572 3606.5562 16537.676 131072
1070.1973 3881.2092 17797.084 131329
1182.2391 3901.8955 17891.939 460550
1234.4608 3738.0281 17140.533 460549
1252.0164 3502.1755 16059.043 526598
1367.3993 3553.9973 16296.67 526598
1387.0836 3366.6868 15437.768 592135
1454.2274 3310.6646 15180.88 197378
1519.9312 3258.1003 14939.851 723722
1586.9624 3214.0278 14737.758 592137
1434.5968 2753.4697 12625.893 789003
1358.05 2476.9863 11358.092 0
1442.5385 2506.4958 11493.406 65536
1452.0988 2409.0315 11046.488 789259
1553.7172 2466.1169 11308.251 723721
1801.2709 2740.498 12566.411 263683
1817.2872 2654.7896 12173.399 790027
2536.3103 3563.3125 16339.384 461062
2727.1843 3690.1851 16921.15 0
2760.0503 3601.8342 16516.023 0
2617.053 3297.9338 15122.505 65536
2676.7822 3261.2024 14954.075 196608
2770.8662 3267.342 14982.228 262144
2851.9417 3258.2378 14940.48 393216
3000.0781 3323.9846 15241.959 589824
3045.8994 3275.8379 15021.186 786432
3062.0078 3199.3877 14670.626 983040
3107.9219 3157.4514 14478.329 1048576
3174.5144 3138.2166 14390.129 851968
3243.3044 3122.1067 14316.258 524288
3344.5513 3137.2651 14385.767 327680
3412.8862 3121.5659 14313.778 196608
3488.0237 3112.7007 14273.127 262144
3515.5928 3062.8147 14044.377 393216
3589.5229 3054.6956 14007.147 458752
3654.4644 3039.4683 13937.324 458752
3692.1414 3002.7429 13768.922 458752
3756.1111 2988.5298 13703.748 393216
3832.7439 2984.7815 13686.561 196608
4163.8594 3175.2505 14559.947 591108
4231.2246 3160.9302 14494.281 591108
4268.0508 3124.822 14328.709 0
4131.5376 2965.7004 13599.065 257
3506.2581 2468.5703 11319.501 6583930
4672.2964 3227.5874 14799.934 5860725
4698.7168 3185.8608 14608.6 6188661
4690.8955 3122.8533 14319.681 6582644
4876.0244 3188.2542 14619.573 657932
4688.6377 3012.0549 13811.621 393216
4957.3838 3129.9041 14352.012 458752
5275.0342 3274.1204 15013.309 393216
5206.5444 3177.8552 14571.891 262144
5276.0947 3167.6157 14524.937 131072
5734.791 3387.5769 15533.558 196608
5401.9287 3140.3977 14400.13 196608
5556.9204 3180.1179 14582.265 196608
5593.0278 3151.6277 14451.624 196608
5746.1475 3188.9373 14622.707 65536
5788.7578 3164.7197 14511.658 65536
5804.1396 3126.5459 14336.614 65536
5684.896 3018.0068 13838.913 196608
5647.6904 2955.4949 13552.268 262144
5704.918 2943.4636 13497.1 262144
5743.2041 2922.1287 13399.27 196608
5768.4312 2894.824 13274.065 196608
5805.5869 2874.1614 13179.318 131072
5824.5132 2845.1445 13046.263 65536
5918.4336 2853.0417 13082.475 65536
5902.7529 2808.5847 12878.619 0
5909.0913 2775.6086 12727.409 0
5929.3364 2749.9163 12609.598 0
5857.1045 2682.511 12300.515 0
5789.8364 2619.0132 12009.349 0
5950.1738 2658.7646 12191.627 0
6015.4355 2655.5874 12177.058 65536
5943.4766 2592.6279 11888.36 65536
5841.7686 2518.3235 11547.641 65536
6018.8784 2564.5442 11759.584 65536
5944.9673 2503.9758 11481.851 65536
5960.041 2481.8362 11380.331 65536
5903.4429 2430.6836 11145.773 65536
6149.5762 2503.9297 11481.64 65536
6154.1484 2478.2908 11364.073 0
6308.8125 2512.9946 11523.206 196608
0 0 0 0
0 0 0 0
0 0 0 0
4084.4121 1559.241 7149.8188 393216
4131.5112 1560.9811 7157.7974 393216
4190.4531 1567.1144 7185.9214 393216
4236.0996 1568.2019 7190.9082 393216
4433.1953 1624.7744 7450.3184 393216
4542.4946 1648.3685 7558.5083 327680
4649.9604 1670.8416 7661.5576 327680
4791.418 1704.9746 7818.0728 393216
4858.1318 1712.1105 7850.7939 327680
4940.3477 1724.5219 7907.7056 327680
5050.6748 1746.4199 8008.1177 327680
5170.6187 1771.2031 8121.7598 327680
5109.0337 1733.92 7950.7998 262144
4981.3774 1675.1022 7681.0942 262144
5115.1235 1704.4572 7815.6992 262144
5272.3774 1741.0464 7983.478 262144
5445.5532 1782.1937 8172.1567 196608
5362.98 1739.6533 7977.0894 196608
5466.3535 1757.6475 8059.6016 196608
5532.5908 1763.4921 8086.4014 196608
5658.1362 1787.9777 8198.6787 131072
5710.7363 1789.1907 8204.2412 262144
5801.3975 1802.2074 8263.9277 262400
5878.2559 1810.7533 8303.1152 328193
6090.522 1860.5212 8531.3232 394241
6182.8477 1873.1306 8589.1426 394241
6317.4712 1898.2429 8704.2939 656899
6384.3945 1902.7703 8725.0537 919812
6660.6694 1969.1158 9029.2783 1248775
6813.6304 1998.2367 9162.8105 1314566
7001.4541 2037.0389 9340.7363 1380102
7005.6123 2022.2144 9272.7588 1840396
7192.1997 2059.8696 9445.4248 1643789
7451.3877 2117.5735 9710.0234 131072
8550.5986 2411.2778 11056.789 196608
8914.5908 2494.7512 11439.552 0
8478.3965 2354.7229 10797.46 65536
8485.2373 2338.9199 10724.995 0
8475.8213 2318.9043 10633.215 0
8548.2979 2321.4241 10644.77 0
8633.3945 2327.3096 10671.757 0
8782.7119 2350.2942 10777.152 0
8959.0762 2380.1318 10913.971 0
9122.8418 2406.2175 11033.586 0
9306.833 2437.2273 11175.779 0
9438.1406 2454.0991 11253.144 0
9783.2646 2525.9385 11582.56 0
9984.834 2559.9685 11738.603 0
10164.965 2588.0679 11867.451 0
10433.305 2638.0842 12096.798 0
10660.707 2677.1353 12275.864 0
11245.006 2804.6707 12860.672 0
11485.926 2845.4187 13047.52 0
12365.674 3042.8164 13952.676 0
12607.95 3081.7664 14131.279 0
12926.457 3138.7112 14392.396 0
13063.574 3151.1526 14449.446 0
13202.815 3163.9404 14508.085 0
13288.228 3163.7466 14507.195 0
13361.908 3160.78 14493.593 0
13395.955 3148.5364 14437.449 0
13984.802 3266.0164 14976.148 0
13692.724 3177.5801 14570.628 0
13889.429 3202.9714 14687.059 0
14639.756 3354.916 15383.793 0
15149.237 3450.124 15820.363 0
15735.696 3561.5798 16331.439 65536
15836.154 3562.3433 16334.94 65536
0 0 0 0
0 0 0 0
-10150.038 2486.2444 11098.089 0
-11380.767 2805.9448 12525.167 0
-11285.003 2800.6533 12501.547 0
-9889.0801 2470.4861 11027.748 0
-9770.5703 2457.1655 10968.287 0
-12329.261 3121.4673 13933.596 0
-12132.517 3092.4277 13803.968 0
-11907.944 3055.8511 13640.697 0
-11771.977 3041.6665 13577.381 0
-11648.643 3030.5735 13527.863 0
-9360.3262 2452.158 10945.935 0
-9702.5898 2559.6116 11425.586 0
-9282.5713 2466.0674 11008.022 0
-9594.125 2566.9285 11458.246 0
-9100.9199 2452.3777 10946.915 0
-9161.3262 2486.4302 11098.919 0
-9121.9404 2493.6963 11131.353 0
-9061.041 2495.144 11137.815 0
-8997.252 2495.8118 11140.796 0
-8933.5459 2496.5125 11143.924 0
-8848.7773 2491.2937 11120.629 0
-8788.1074 2492.8323 11127.496 0
-8755.4658 2502.4048 11170.227 0
-7425.061 2138.3755 9545.2725 0
-7377.728 2141.1028 9557.4473 0
-7394.8867 2162.7339 9654.0039 0
-7341.2109 2163.8247 9658.874 0
-7296.4507 2167.5818 9675.6436 0
-7266.5942 2175.8606 9712.5996 0
-7244.6582 2186.6631 9760.8193 0
-7212.728 2194.5989 9796.2432 0
-7379.2661 2263.5425 10103.994 0
-7325.8887 2265.6067 10113.208 0
-7354.0039 2293.116 10236.003 0
-7217.9502 2269.4661 10130.435 0
-7325.7603 2322.7388 10368.233 0
-7288.0845 2330.3955 10402.412 0
-7240.5273 2334.9968 10422.951 0
-7187.7905 2337.9929 10436.324 0
-7141.8315 2343.2646 10459.856 65536
-7112.3213 2354.0735 10508.105 0
-7074.0938 2362.1628 10544.214 0
-7014.9678 2363.356 10549.541 0
-6967.7363 2368.6145 10573.013 0
-6910.7803 2370.6323 10582.021 0
-6861.186 2375.2363 10602.571 0
-6800.8848 2376.1843 10606.803 0
-6743.4766 2378.1704 10615.669 0
-6689.1265 2381.2825 10629.561 0
-6629.6919 2382.6267 10635.562 0
-6557.4819 2379.3616 10620.986 0
-6495.1133 2379.6384 10622.222 0
-6428.8086 2378.4644 10616.981 0
-6378.1572 2383.1157 10637.743 0
-6336.8433 2391.384 10674.652 0
-6282.1841 2394.7322 10689.598 0
-6235.877 2401.3655 10719.207 0
-6187.1284 2407.1858 10745.188 0
-6133.8364 2411.3411 10763.736 0
-6081.1489 2415.8242 10783.748 0
-6030.624 2421.2712 10808.062 0
-5979.355 2426.5334 10831.552 0
-5922.4175 2429.585 10845.173 0
-5875.707 2436.9451 10878.027 0
-5828.4316 2444.2324 10910.556 0
-5774.6621 2448.9292 10931.521 0
-5711.8076 2449.8364 10935.571 0
-5662.3403 2456.5725 10965.64 0
-5594.4277 2455.3699 10960.272 0
-5526.748 2454.2424 10955.239 0
-5471.7651 2458.7935 10975.554 0
-5425.2036 2467.2842 11013.455 0
-5385.3892 2479.0884 11066.146 0
-5342.3506 2489.6816 11113.433 0
-5296.0361 2498.9946 11155.004 0
-5246.2817 2506.8999 11190.291 0
-5188.0508 2510.906 11208.173 0
-5131.5942 2515.8857 11230.402 0
-5074.707 2520.7827 11252.262 0
-5010.4961 2522.1245 11258.251 0
-4956.6694 2528.8003 11288.05 0
-4901.2773 2534.8496 11315.053 0
-4825.9727 2530.6255 11296.197 0
-4796.4741 2550.6406 11385.541 0
-4751.1436 2562.6895 11439.324 0
-4713.0229 2579.033 11512.278 0
-4674.4043 2595.5818 11586.149 0
-4636.8599 2613.2307 11664.931 0
-4599.1196 2631.3037 11745.604 0
-4561.3569 2649.9202 11828.705 65536
-4532.9438 2674.637 11939.035 65536
-4526.4517 2713.2793 12111.526 65536
-4463.2622 2718.6357 12135.437 65536
-4451.4243 2755.9604 12302.047 65536
-4487.3359 2824.5881 12608.387 65536
-4345.4365 2781.7217 12417.04 65536
-4297.6099 2798.635 12492.537 65536
-4267.2188 2827.6965 12622.263 0
-4251.9448 2867.9954 12802.147 0
-4197.2749 2882.7051 12867.809 0
-4172.9092 2919.1602 13030.537 0
-4106.8501 2927.2754 13066.763 0
-4027.0144 2925.6951 13059.708 0
-3977.7607 2946.7075 13153.503 0
-3917.1445 2959.9766 13212.733 0
-3894.4727 3003.0471 13404.991 2
-3858.865 3037.7336 13559.825 196610
-3814.8611 3067.1499 13691.133 131074
-3796.0876 3118.575 13920.685 65538
-3727.2346 3130.2339 13972.728 1
-3665.4443 3148.4907 14054.223 0
-3559.5527 3128.8345 13966.48 0
-3469.7507 3122.7195 13939.185 0
-3404.3135 3138.7695 14010.829 0
-3380.4868 3194.9521 14261.615 0
-3384.8987 3281.3984 14647.495 0
-3304.5693 3288.0906 14677.367 0
-3209.8096 3280.3979 14643.03 0
-3139.7773 3298.2522 14722.728 0
-3064.7148 3311.6946 14782.731 0
-2988.6028 3324.7629 14841.064 0
-2931.1094 3359.9688 14998.216 256
-2839.3743 3356.8997 14984.518 256
-2758.2207 3366.5479 15027.585 256
-2658.6392 3353.5967 14969.772 256
-2637.8687 3442.6023 15367.076 256
-2625.7837 3549.7341 15845.291 256
-2550.9114 3576.7981 15966.1 256
-2454.1333 3574.0515 15953.839 256
-2397.9409 3632.5662 16215.036 0
-2307.3713 3641.7234 16255.912 0
-2178.2979 3588.2546 16017.239 0
-2111.4209 3637.0354 16234.986 0
-2014.8378 3636.8677 16234.237 0
-1943.1001 3683.7859 16443.67 0
-1845.688 3684.4211 16446.506 0
-1755.9596 3701.324 16521.957 0
-1650.5575 3685.2339 16450.135 0
-1573.7506 3734.9827 16672.203 0
-1489.8571 3773.4688 16843.996 0
-1385.59 3762.1804 16793.607 65536
-1269.351 3714.1096 16579.029 65536
-1173.8838 3723.8413 16622.471 65536
-1093.5796 3787.8823 16908.336 65536
-1001.4451 3819.76 17050.631 196608
-903.5589 3834.4077 17116.016 65536
-814.47986 3894.8875 17385.986 65536
-724.8031 3969.6699 17719.799 65536
-629.73071 4035.304 18012.775 65536
-522.68738 4035.4023 18013.215 65536
-419.60159 4073.9766 18185.402 65536
-312.42593 4085.8308 18238.318 65536
-205.8299 4121.8896 18399.275 65536
-96.404839 4118.8203 18385.576 131072
12.716606 4070.6836 18170.703 196608
118.97066 4011.9829 17908.676 262144
220.21259 3919.5093 17495.893 393216
318.88034 3855.2351 17208.984 393216
414.91345 3798.0615 16953.773 458752
509.737 3754.323 16758.533 458752
594.01489 3659.9077 16337.084 458752
688.27484 3644.884 16270.021 458752
784.92596 3644.6646 16269.041 393216
848.09607 3506.0813 15650.434 393216
919.63251 3426.0598 15293.234 196608
987.54834 3348.1589 14945.5 196608
1050.6514 3268.1443 14588.332 196608
1158.191 3328.0164 14855.588 0
1268.08 3385.6787 15112.981 0
1241.6996 3095.9502 13819.692 0
1430.3979 3345.1616 14932.121 0
1427.2045 3142.709 14028.413 65536
1375.4012 2861.4736 12773.037 196608
1438.2878 2835.7874 12658.378 394245
1366.8492 2560.9778 11431.685 196608
1444.2706 2577.897 11507.208 196608
1429.9125 2436.8745 10877.712 656900
1521.8799 2481.415 11076.532 592133
1656.5557 2589.011 11556.818 395268
1908.6881 2864.3025 12785.664 2500387
2273.9456 3281.7761 14649.181 592648
2511.3853 3490.7949 15582.198 592135
2638.9116 3537.6016 15791.134 0
2610.3708 3379.1624 15083.893 0
2627.5471 3288.4604 14679.02 196608
2720.2031 3295.0178 14708.29 262144
2823.1296 3313.2205 14789.543 327680
2934.9258 3340.4187 14910.95 524288
2953.8975 3263.4702 14567.468 655360
3001.075 3221.1785 14378.686 851968
3073.4336 3207.5085 14317.665 917504
3145.1494 3193.9219 14257.018 720896
3337.2495 3300.0923 14730.94 327680
3338.2368 3216.6802 14358.606 327680
3347.3052 3145.0198 14038.729 196608
3424.4324 3139.2354 14012.908 262144
3467.3301 3103.0923 13851.572 327680
3569.5781 3120.509 13929.317 458752
3633.7629 3104.616 13858.374 458752
3681.6946 3075.8486 13729.963 458752
3748.7019 3063.9202 13676.717 196608
3821.342 3057.0042 13645.845 656900
3955.9275 3098.9006 13832.862 591621
4029.7922 3092.4937 13804.263 393729
4134.0347 3109.1895 13878.79 1
4147.4878 3058.2856 13651.564 1251866
4341.082 3139.6194 14014.622 5597037
4344.457 3082.9075 13761.472 5991799
4357.1299 3034.7678 13546.586 6057333
4687.7578 3205.814 14310.102 6779513
5016.2539 3369.3328 15040.017 460295
4404.0786 2906.3547 12973.376 393216
4982.0483 3231.1997 14423.418 393216
5118.9634 3263.8391 14569.114 262144
5221.2783 3273.6995 14613.128 1776408
5436.8525 3353.0869 14967.499 131586
5531.7183 3356.6726 14983.504 132355
5573.291 3328.3184 14856.937 0
5470.8032 3216.1587 14356.278 66049
5732.9297 3318.5005 14813.111 263686
5863.7358 3342.8816 14921.943 132355
6009.9292 3375.1777 15066.106 0
6169.5361 3413.948 15239.169 65536
6220.8408 3392.5337 15143.58 131072
5783.415 3109.0024 13877.954 196608
5808.8501 3078.7668 13742.989 196608
5831.7158 3048.0271 13605.773 196608
5900.1938 3041.6421 13577.271 196608
5922.7305 3012.0652 13445.247 65536
5927.1616 2974.1909 13276.184 65536
5943.7114 2943.313 13138.351 65536
6021.2397 2943.0403 13137.134 0
6019.792 2904.6675 12965.845 0
6077.8501 2895.6143 12925.433 0
6003.8203 2824.6433 12608.633 0
6143.6504 2854.7974 12743.234 0
6049.2886 2776.719 12394.709 0
6008.4155 2724.7764 12162.847 65536
5928.3545 2656.5083 11858.113 65536
5858.3794 2594.3108 11580.477 65536
5873.0449 2570.6045 11474.656 65536
5827.0825 2521.2109 11254.173 65536
5783.5449 2473.9753 11043.323 65536
5479.2559 2317.5122 10344.903 65536
5513.125 2305.9622 10293.346 65536
5596.0312 2314.9509 10333.47 0
6246.5625 2556.0093 11409.506 196608
0 0 0 0
0 0 0 0
0 0 0 0
4383.7544 1719.1244 7673.8213 393216
4415.0586 1713.5728 7649.04 262144
4450.9609 1709.9005 7632.6484 327680
4513.2124 1716.3229 7661.3164 327680
4585.4204 1726.3655 7706.1445 196608
4687.6875 1747.4143 7800.1025 196608
4750.0117 1753.3077 7826.4087 196608
4816.5195 1760.6158 7859.0308 196608
4892.6426 1771.2643 7906.5635 0
4934.4487 1769.4049 7898.2637 65536
5026.4497 1785.4099 7969.707 65536
5111.458 1798.6556 8028.8325 0
5194.4819 1810.9644 8083.7764 0
5247.8706 1812.8103 8092.0166 256
5280.7622 1807.6067 8068.7886 0
5026.2104 1704.9904 7610.73 65536
4824.4956 1621.9677 7240.1338 65536
5295.6152 1764.6165 7876.8887 131072
4906.8418 1620.7407 7234.6567 196608
5681.8394 1860.4215 8304.543 196608
5833.5425 1893.6444 8452.8438 196608
5857.1333 1885.0681 8414.5605 196608
6171.9746 1969.5801 8791.8047 196608
6520.6304 2063.373 9210.4775 196608
6305.9268 1978.8203 8833.0518 262144
6353.8545 1977.3984 8826.7041 327680
6394.2139 1973.663 8810.0303 327680
6447.4668 1973.9362 8811.25 393216
6809.978 2068.1235 9231.6826 393216
6406.7305 1930.1106 8615.6211 458752
6762.2866 2021.0731 9021.6592 393216
6775.1865 2008.999 8967.7627 393216
6835.625 2011.0996 8977.1396 458752
7536.5586 2200.1475 9821.0107 1709325
7561.5059 2190.4656 9777.792 196608
8265.4209 2376.1187 10606.511 131072
8450.0732 2410.8154 10761.39 0
8527.1172 2414.5208 10777.93 65536
8560.96 2406.0291 10740.024 0
8632.6934 2408.2332 10749.863 0
8715.4062 2413.4458 10773.131 0
8799.6309 2418.9976 10797.913 0
8926.4697 2436.0986 10874.249 0
9090.6406 2463.0693 10994.64 0
9266.5449 2492.811 11127.401 0
9426.623 2517.9041 11239.411 0
9569.4238 2538.0615 11329.391 0
9900.8242 2607.6094 11639.838 0
10068.424 2633.3506 11754.741 0
10177.789 2643.6108 11800.542 0
10341.259 2667.6885 11908.019 0
11203.738 2870.533 12813.476 0
11404.794 2902.3181 12955.357 0
12369.451 3126.6968 13956.938 0
12598.283 3163.3264 14120.445 0
12808.245 3194.7644 14260.778 0
12990.15 3218.8369 14368.232 0
13174.056 3243.0872 14476.481 0
13366.966 3269.2253 14593.157 0
13592.174 3302.8748 14743.361 0
13637.363 3292.6292 14697.626 0
13832.285 3318.4351 14812.819 0
13964.849 3329.0496 14860.2 0
14045.635 3327.2649 14852.234 0
14582.581 3432.8875 15323.711 0
15049.235 3520.7544 15715.932 0
15470.605 3597.0081 16056.312 65536
15661.543 3619.0784 16154.829 65536
0 0 0 0
0 0 0 0
-10082.273 2535.165 11023.995 0
-11260.899 2850.0486 12393.246 0
-11217.031 2857.6377 12426.246 0
-9816.918 2517.522 10947.276 0
