# .PCD v0.7 - Point Cloud Data file format
VERSION 0.7
FIELDS x y z rgb
SIZE 4 4 4 4
TYPE F F F U
COUNT 1 1 1 1
WIDTH 1549
HEIGHT 1
VIEWPOINT 0 0 0 1 0 0 0
POINTS 1549
DATA ascii
-4904.7036 -1501.1548 11322.962 0
-4839.6357 -1501.8463 11328.179 2
-4802.1484 -1511.2369 11399.011 257
-3958.9355 -1263.7061 9531.9258 9873060
-4471.395 -1448.0054 10922.065 8689300
-4626.0962 -1520.1726 11466.411 770
-5183.9673 -1728.9634 13041.286 259
-4485.7261 -1518.7938 11456.011 0
-4337.6504 -1491.2935 11248.58 0
-4437.4023 -1549.4697 11687.394 0
-4430.1382 -1571.5337 11853.818 0
-4382.4541 -1579.7405 11915.722 0
-4336.5742 -1588.8781 11984.645 65536
-4278.9072 -1593.9301 12022.751 65536
-4240.5366 -1606.4639 12117.291 65536
-4213.4697 -1623.7866 12247.954 65536
-4176.4229 -1637.8048 12353.691 0
-4137.3452 -1651.5142 12457.1 0
-4084.8066 -1660.2522 12523.009 0
-4069.0417 -1684.5385 12706.194 0
-4086.387 -1723.7094 13001.655 0
-4135.4443 -1778.0251 13411.35 0
-4084.5637 -1790.663 13506.675 0
-4042.9243 -1807.9403 13636.994 0
-3998.8184 -1824.7987 13764.155 0
-3951.5112 -1840.8702 13885.38 0
-4013.698 -1909.7247 14404.737 0
-4120.9316 -2003.4807 15111.924 0
-3796.7227 -1886.9862 14233.226 0
-3732.3718 -1897.276 14310.84 0
-3670.6948 -1909.4366 14402.564 0
-3607.5654 -1921.4041 14492.834 0
-3550.3335 -1937.1749 14611.791 0
-3490.7214 -1952.4055 14726.673 0
-3424.6353 -1964.7054 14819.448 0
-3354.9834 -1975.5548 14901.284 0
-3287.0242 -1988.0166 14995.28 0
-3222.8613 -2003.5327 15112.316 0
-3154.6799 -2017.3689 15216.68 0
-3089.7952 -2034.192 15343.574 0
-3075.6521 -2086.4607 15737.828 131842
-2930.6079 -2050.4221 15465.995 0
-2849.8513 -2058.4854 15526.814 0
-2770.6072 -2068.2173 15600.222 0
-2695.489 -2081.8101 15702.748 0
-2782.6396 -2226.1973 16791.838 0
0 0 0 0
-2489.6538 -2145.7119 16184.751 0
-2530.1836 -2268.281 17109.27 0
-2347.4233 -2192.5559 16538.088 0
-2238.6013 -2182.2903 16460.656 0
-2149.5757 -2191.2671 16528.365 0
-2056.002 -2196.2449 16565.912 0
-1982.9272 -2224.7219 16780.711 0
-1911.4438 -2258.0955 17032.441 0
-1831.1899 -2284.261 17229.805 0
-1746.193 -2307.2595 17403.277 256
-1676.3396 -2354.4231 17759.023 256
-1572.6378 -2357.1904 17779.898 256
-1482.6859 -2382.4502 17970.428 256
-1374.9424 -2380.824 17958.162 256
-1274.8975 -2393.377 18052.848 256
-1188.6566 -2436.533 18378.365 256
-1142.3862 -2578.6458 19450.299 256
-992.42651 -2492.3552 18799.424 256
-878.01062 -2484.7581 18742.121 256
-768.97009 -2492.3762 18799.582 256
0 0 0 0
0 0 0 0
-457.8847 -2630.9182 19844.582 0
-338.96588 -2623.3674 19787.627 0
-223.5103 -2648.8369 19979.738 0
0 0 0 0
0 0 0 0
0 0 0 0
0 0 0 0
0 0 0 0
0 0 0 0
0 0 0 0
0 0 0 0
0 0 0 0
0 0 0 0
0 0 0 0
0 0 0 0
0 0 0 0
0 0 0 0
0 0 0 0
0 0 0 0
0 0 0 0
0 0 0 0
1895.537 -2470.1311 18631.791 1
0 0 0 0
0 0 0 0
0 0 0 0
0 0 0 0
0 0 0 0
0 0 0 0
0 0 0 0
1003.8485 -891.5011 6724.4453 6386809
0 0 0 0
0 0 0 0
0 0 0 0
0 0 0 0
0 0 0 0
3580.7527 -2566.8506 19361.33 0
3705.0745 -2573.2754 19409.791 0
3828.72 -2578.8567 19451.891 0
3945.063 -2579.3367 19455.51 0
4025.6555 -2557.0803 19287.635 65536
4204.4053 -2596.6794 19586.324 0
4324.335 -2598.7957 19602.287 0
4445.9268 -2601.7734 19624.748 0
4590.9692 -2617.9714 19746.928 0
4682.5898 -2603.6582 19638.965 0
4690.5552 -2544.6577 19193.932 0
4790.708 -2537.2837 19138.311 0
5041.603 -2608.2366 19673.498 0
5011.4204 -2533.856 19112.457 0
5032.9478 -2488.3384 18769.125 921617
5147.2627 -2489.675 18779.209 1
5300.1904 -2509.2354 18926.748 4606794
5589.7861 -2591.3396 19546.047 395015
5563.6411 -2526.7083 19058.543 258
5735.9346 -2552.978 19256.691 2831924
5458.6978 -2382.0549 17967.447 988178
5917.1636 -2532.5754 19102.797 256
6025.0283 -2530.1943 19084.838 0
6122.9365 -2523.7971 19036.586 256
6399.687 -2590.0115 19536.029 512
6474.7676 -2573.7026 19413.014 513
6473.2559 -2528.0527 19068.684 8493203
6550.4277 -2514.1741 18964 515
6846.1562 -2583.2317 19484.891 9024181
0 0 0 0
0 0 0 0
0 0 0 0
0 0 0 0
0 0 0 0
0 0 0 0
0 0 0 0
0 0 0 0
0 0 0 0
0 0 0 0
0 0 0 0
0 0 0 0
0 0 0 0
0 0 0 0
7783.1714 -2342.4419 17668.652 265
7597.6416 -2256.1641 17017.873 266
7606.2534 -2229.0474 16813.336 263
8517.3721 -2463.688 18583.191 1777440
8626.2842 -2463.2498 18579.887 1251098
8803.5439 -2482.093 18722.018 260
8400.4131 -2338.8713 17641.721 258
8467.7754 -2328.5625 17563.963 256
8558.7559 -2324.9202 17536.49 256
8716.3896 -2339.2537 17644.604 256
8847.9287 -2346.3264 17697.953 256
8935.8555 -2341.8037 17663.838 256
9004.9492 -2332.5076 17593.719 256
9091.0117 -2327.7698 17557.982 0
9213.9268 -2332.4688 17593.426 0
9326.1143 -2334.3767 17607.818 0
9422.0898 -2332.2297 17591.625 256
9918.0078 -2428.0405 18314.309 1118994
10485.394 -2539.0771 19151.84 256
10340.534 -2477.1079 18684.416 256
9655.4521 -2288.4189 17261.166 0
9699.9404 -2274.7935 17158.391 0
9780.2002 -2269.7532 17120.373 0
9883.1992 -2270.0396 17122.533 257
10504.034 -2388.0476 18012.648 1
10452.169 -2352.2822 17742.877 2
10429.178 -2323.6646 17527.018 4
10273.648 -2266.375 17094.893 4
10253.332 -2239.7432 16894.014 4
10096.585 -2184.1152 16474.42 516
10046.448 -2152.3962 16235.17 515
10033.511 -2129.1748 16060.014 988439
9908.1299 -2082.7546 15709.874 1649198
9991.6846 -2080.7109 15694.459 3954010
9491.8154 -1958.3339 14771.389 9943235
10585.355 -2163.9365 16322.216 10009542
10727.844 -2173.1494 16391.707 9812936
10108.743 -2029.3091 15306.743 9680321
10200.643 -2029.4932 15308.132 10334914
9017.8428 -1778.3054 13413.465 526867
8915.3535 -1742.6888 13144.814 14
9181.2646 -1779.0768 13419.282 66063
8994.7158 -1727.9187 13033.405 9
9047.0107 -1723.1252 12997.249 8
9122.5898 -1722.8102 12994.873 7
9373.8447 -1755.3984 13240.681 5
9332.0557 -1733.024 13071.914 260
9407.6299 -1732.6342 13068.974 260
9455.75 -1727.236 13028.255 260
9435.665 -1709.5676 12894.987 515
9585.7246 -1722.7628 12994.516 516
9597.6055 -1711.1121 12906.635 662559
10119.807 -1789.9069 13500.972 5796465
8757.3066 -1536.7344 11591.334 3092530
9766.0918 -1700.3799 12825.685 257
10200.773 -1762.3073 13292.793 257
10275.188 -1761.5205 13286.858 256
10331.571 -1757.6781 13257.876 256
10366.18 -1750.2175 13201.603 256
10432.663 -1748.2103 13186.462 256
10462.14 -1740.078 13125.121 256
10497.873 -1733.0991 13072.48 256
12893.589 -2112.9709 15937.791 256
13032.004 -2120.0786 15991.403 256
10533.44 -1701.1995 12831.866 256
10354.27 -1660.2421 12522.931 256
10558.669 -1680.9332 12679.002 256
10614.571 -1677.8583 12655.808 256
10526.188 -1652.1797 12462.118 0
10392.261 -1619.7614 12217.592 0
10107.512 -1564.4485 11800.376 0
9999.1826 -1537.0161 11593.459 256
9971.957 -1522.3407 11482.765 256
10175.283 -1542.8223 11637.254 256
10949.795 -1649.0481 12438.498 256
10990.398 -1644.0634 12400.898 256
11030.265 -1639.0354 12362.974 3
11066.185 -1633.4916 12321.157 2
11093.778 -1626.7996 12270.681 258
11108.396 -1618.3047 12206.604 1
11153.241 -1614.2952 12176.361 260
11230.576 -1615.009 12181.747 770
11308.982 -1615.8673 12188.221 516
11315.243 -1606.4718 12117.352 257
10586.809 -1493.547 11265.578 4745831
12340.156 -1729.9617 13048.815 9610403
13491.415 -1879.5441 14177.09 2173234
13121.321 -1816.6393 13702.609 3033421
12553.28 -1727.2734 13028.539 5138541
13746.122 -1879.8077 14179.079 4151391
0 0 0 0
0 0 0 0
-9478.6357 -1312.4193 10363.976 0
-9671.0166 -1347.8152 10643.492 0
-9536.9307 -1337.8792 10565.028 0
-9494.6416 -1340.7744 10587.892 0
-9455.584 -1344.1677 10614.688 0
-9497.1172 -1359.14 10732.922 0
-10827.429 -1559.9999 12319.082 0
-10718.229 -1554.7803 12277.863 0
-11116.607 -1623.6228 12821.502 0
-11060.291 -1626.5471 12844.596 0
-10992.851 -1627.8649 12855.002 0
-10922.301 -1628.7377 12861.894 0
-10373.424 -1557.7915 12301.643 0
-10376.245 -1569.2756 12392.331 0
-10126.169 -1542.4031 12180.122 0
-9976.3359 -1530.5222 12086.301 0
-9598.7451 -1483.274 11713.189 0
-9098.3018 -1416.2128 11183.617 0
-9111.501 -1428.7047 11282.264 0
-9054.9277 -1430.3604 11295.338 0
-8952.3037 -1424.712 11250.734 0
-9261.6152 -1485.0294 11727.052 0
-8033.6841 -1297.9073 10249.377 65536
-7978.8477 -1298.8971 10257.192 65536
-7921.1528 -1299.433 10261.425 65536
-7861.5312 -1299.6587 10263.207 65536
-7803.3301 -1300.1248 10266.888 65536
-7753.0713 -1301.9316 10281.156 65536
-7951.8892 -1345.9258 10628.571 65536
-7633.4287 -1302.3695 10284.614 65536
-7565.7466 -1301.2418 10275.709 65536
-7501.1445 -1300.6298 10270.875 65536
-7442.7637 -1301.0951 10274.551 65536
-7385.2666 -1301.724 10279.517 65536
-7319.1221 -1300.8265 10272.43 65536
-7259.4199 -1301.0686 10274.341 65536
-7464.8398 -1349.2343 10654.698 0
-7445.437 -1357.241 10717.925 0
-7410.5532 -1362.5392 10759.765 0
-7373.7603 -1367.5757 10799.537 0
-7326.1748 -1370.6815 10824.063 0
-7269.6011 -1372.1456 10835.625 0
-7206.5308 -1372.3988 10837.625 0
-7138.6992 -1371.7418 10832.437 0
-7082.0518 -1373.2415 10844.278 0
-7021.6621 -1374.0361 10850.555 65536
-6971.0371 -1376.774 10872.176 65536
-6911.8101 -1377.8486 10880.661 65536
-6852.812 -1378.9895 10889.67 65536
-6792.4082 -1379.8666 10896.597 65536
-6732.3232 -1380.8258 10904.172 0
-6674.6841 -1382.3103 10915.895 0
-6613.854 -1383.1566 10922.577 0
-6552.5576 -1383.9214 10928.616 0
-6479.979 -1382.2946 10915.77 0
-6413.7393 -1382.0007 10913.449 0
-6344.6665 -1381.0842 10906.212 0
-6277.4443 -1380.5558 10902.039 0
-6216.7036 -1381.4567 10909.153 0
-6158.6929 -1382.9895 10921.258 0
-6120.4019 -1389.0304 10968.962 0
-6058.7847 -1389.8506 10975.438 0
-5999.5923 -1391.2507 10986.496 0
-5938.0225 -1392.1244 10993.395 65536
-5880.1323 -1393.8898 11007.336 65536
-5824.832 -1396.3159 11026.494 65536
-5769.1157 -1398.6962 11045.291 65536
-5710.8428 -1400.5043 11059.569 65536
-5657.5449 -1403.5887 11083.927 0
-5597.7891 -1405.125 11096.059 0
-5546.8325 -1408.9327 11126.128 0
-5481.4189 -1409.1161 11127.575 0
-5428.7246 -1412.6134 11155.193 0
-5369.7939 -1414.5547 11170.522 0
-5315.9121 -1417.891 11196.869 0
-5263.208 -1421.6298 11226.395 0
-5200.8521 -1422.8245 11235.828 65536
-5142.8784 -1425.2646 11255.098 65536
-5083.1553 -1427.2777 11270.995 65536
-5022.4175 -1429.0559 11285.037 65536
-4972.3643 -1433.9636 11323.793 65536
-4912.7612 -1436.2141 11341.564 65536
-4850.0781 -1437.6143 11352.621 2
-4769.3848 -1433.6403 11321.239 258
0 0 0 0
-4447.4424 -1375.6827 10863.558 1250581
-5044.3311 -1583.298 12503.063 256
-4625.3252 -1473.4883 11635.913 0
-4541.9053 -1468.8754 11599.485 0
-4491.1973 -1474.8625 11646.765 0
-4440.0103 -1480.8772 11694.263 0
-4417.395 -1496.7644 11819.721 0
-4387.5991 -1510.6929 11929.712 0
-4351.583 -1522.9019 12026.124 0
-4294.9473 -1528.1818 12067.819 0
-4268.7163 -1544.6432 12197.812 65536
-4222.6826 -1554.3842 12274.735 0
-4172.5156 -1562.9192 12342.135 0
-4141.6523 -1579.1198 12470.069 0
-4086.5068 -1586.4838 12528.222 0
-4055.0623 -1603.493 12662.541 0
-4066.2148 -1638.3086 12937.474 0
-4062.7651 -1668.4692 13175.648 0
-4008.5396 -1678.5535 13255.281 0
-4034.8032 -1723.4218 13609.601 0
-3990.4077 -1739.3276 13735.206 0
-3934.2551 -1750.6659 13824.742 0
-4336.9922 -1971.0403 15565.006 0
-4105.0542 -1906.2922 15053.7 0
-3877.6121 -1840.7935 14536.466 0
-3733.8555 -1812.9421 14316.528 0
-3679.9971 -1828.4589 14439.062 0
-3615.1292 -1839.1158 14523.219 0
-3556.5842 -1853.5896 14637.516 0
-3662.3301 -1956.5599 15450.656 0
-3534.6379 -1936.9075 15295.464 0
-3359.2302 -1889.38 14920.146 0
-3286.782 -1898.7544 14994.175 0
-3215.782 -1909.5112 15079.12 0
-3146.5171 -1921.9449 15177.307 0
-3064.249 -1926.9353 15216.715 0
-3021.8687 -1958.0753 15462.622 0
-2930.1282 -1958.1818 15463.463 0
-2851.281 -1967.1906 15534.604 0
-2769.01 -1974.3608 15591.228 0
-2693.6482 -1987.1249 15692.023 0
-2609.2236 -1993.8792 15745.36 0
-2526.9241 -2002.8199 15815.964 0
-2489.5017 -2049.3953 16183.763 0
-2434.8296 -2084.9434 16464.48 0
-2311.6577 -2062.356 16286.11 0
-2229.7061 -2076.1763 16395.248 0
-2141.3884 -2085.0613 16465.412 0
-2057.5044 -2099.3208 16578.018 0
-1975.9536 -2117.5151 16721.695 0
-1901.7577 -2145.936 16946.131 0
-1807.7562 -2153.9373 17009.314 0
-1793.4602 -2263.4805 17874.361 256
-1651.1444 -2215.0747 17492.107 256
-1538.6597 -2202.8723 17395.748 256
-1443.9335 -2216.168 17500.742 256
-1354.2607 -2239.886 17688.039 256
-1261.1411 -2261.4155 17858.055 256
-1165.4215 -2281.811 18019.115 256
-1128.9802 -2434.1421 19222.049 256
-1001.6393 -2402.7234 18973.941 256
-923.94562 -2497.5352 19722.656 256
-789.73022 -2444.9148 19307.121 0
-674.81854 -2444.3252 19302.465 0
-567.5553 -2476.8726 19559.486 65536
-454.2413 -2492.9792 19686.678 65536
-341.36298 -2523.4829 19927.561 65536
0 0 0 0
0 0 0 0
0 0 0 0
0 0 0 0
0 0 0 0
0 0 0 0
0 0 0 0
0 0 0 0
0 0 0 0
0 0 0 0
0 0 0 0
0 0 0 0
0 0 0 0
0 0 0 0
0 0 0 0
0 0 0 0
0 0 0 0
0 0 0 0
0 0 0 0
0 0 0 0
0 0 0 0
0 0 0 0
0 0 0 0
0 0 0 0
0 0 0 0
0 0 0 0
0 0 0 0
0 0 0 0
0 0 0 0
0 0 0 0
0 0 0 0
0 0 0 0
0 0 0 0
3573.6287 -2446.9014 19322.809 0
3696.2961 -2452.093 19363.805 0
3820.5771 -2458.0088 19410.521 0
4037.9773 -2521.731 19913.727 1184273
0 0 0 0
0 0 0 0
4307.6846 -2472.7349 19526.811 0
4397.5151 -2458.0762 19411.055 0
4506.8521 -2454.792 19385.119 460550
4651.6226 -2470.4907 19509.088 0
4703.5117 -2437.2954 19246.951 0
4807.3535 -2431.9585 19204.807 0
4841.1069 -2392.2351 18891.117 329222
4908.4531 -2370.5361 18719.764 592393
4930.9766 -2328.6316 18388.85 723982
5075.8018 -2345.0483 18518.49 1
0 0 0 0
5497.1528 -2434.1523 19222.131 0
5508.8564 -2389.6719 18870.875 0
5716.5703 -2430.2964 19191.682 1184274
5715.7109 -2382.3953 18813.412 65793
5922.8281 -2421.3564 19121.084 0
6094.9775 -2444.8247 19306.408 0
6207.8711 -2444.0957 19300.652 256
6375.2354 -2464.45 19461.387 768
6497.1118 -2466.8079 19480.008 4016455
6416.2563 -2393.4583 18900.777 2963768
6701.3984 -2456.812 19401.07 515
6827.355 -2460.6504 19431.381 7042418
0 0 0 0
6777.228 -2362.6536 18657.516 10076357
0 0 0 0
0 0 0 0
0 0 0 0
0 0 0 0
0 0 0 0
0 0 0 0
0 0 0 0
0 0 0 0
0 0 0 0
0 0 0 0
0 0 0 0
0 0 0 0
7613.4565 -2188.6431 17283.381 7
7665.7314 -2174.3342 17170.387 6
7787.4287 -2179.8342 17213.818 6
7901.0034 -2182.947 17238.4 3
7905.7949 -2156.3096 17028.049 1
8361.3223 -2251.7302 17781.57 258
8425.6025 -2240.7197 17694.623 257
8512.252 -2235.8562 17656.215 256
8625.5332 -2238.0212 17673.312 256
8752.3311 -2243.5989 17717.359 256
8890.4473 -2251.9109 17782.998 0
8990.585 -2250.521 17772.023 0
9070.3857 -2244.1318 17721.568 0
9146.7227 -2237.042 17665.58 256
9261.0996 -2239.3113 17683.5 256
9385.9766 -2244.0398 17720.84 256
9435.7695 -2230.9111 17617.166 256
9917.5332 -2319.0813 18313.432 256
10676.146 -2469.3718 19500.254 256
9622.7812 -2201.8281 17387.502 0
9673.8418 -2189.9929 17294.041 0
9728.3252 -2179.1736 17208.602 256
9820.707 -2176.9802 17191.281 256
10526.401 -2309.3865 18236.873 461064
10569.585 -2295.2271 18125.059 256
10614.507 -2281.7271 18018.451 256
10319.782 -2196.2146 17343.172 2
10301.62 -2170.668 17141.436 258
10241.126 -2136.7896 16873.902 259
10238.962 -2115.6206 16706.734 517
10185.27 -2084.3135 16459.506 1649196
10714.487 -2171.7542 17150.012 9746359
9374.4277 -1882.2271 14863.66 8562093
11455.299 -2278.5591 17993.434 9877183
12046.695 -2374.03 18747.354 9878212
11668.005 -2278.3293 17991.619 8759732
10416.188 -2015.4258 15915.511 8957625
10355.282 -1985.6093 15680.055 8824497
10002.628 -1900.8813 15010.972 8624549
9041.5117 -1703.0428 13448.671 11782095
8892.7139 -1660.3375 13111.433 66054
8905.3438 -1648.2522 13015.997 6
8976.4971 -1647.1138 13007.007 7
9148.418 -1664.3265 13142.935 6
9162.9873 -1652.8643 13052.418 5
9392.9521 -1680.1223 13267.671 4
9459.752 -1677.9843 13250.786 4
9556.9004 -1681.22 13276.338 4
9633.1143 -1680.7502 13272.629 4
9678.7793 -1675.0016 13227.232 260
9754.8408 -1674.5635 13223.772 260
9815.8535 -1671.5695 13200.13 258
9985.7939 -1687.0255 13322.185 258
9903.2549 -1659.9196 13108.132 258
10180.014 -1692.9899 13369.283 258
10235.787 -1689.0815 13338.42 2
10311.953 -1688.5723 13334.398 0
10390.286 -1688.4233 13333.222 0
10429.398 -1681.951 13282.111 0
10458.272 -1673.9375 13218.83 0
10512.863 -1670.1292 13188.756 0
12132.328 -1913.1412 15107.785 0
12490.134 -1955.094 15439.079 0
10594.652 -1646.2975 13000.561 0
10560.082 -1629.045 12864.32 0
10308.378 -1578.7853 12467.428 0
10371.428 -1577.1052 12454.16 0
10446.21 -1577.2203 12455.069 0
10574.041 -1585.2874 12518.772 1
10692.206 -1591.8021 12570.22 1
10398.006 -1537.262 12139.523 1
9981.0674 -1465.4524 11572.455 1
10088.955 -1471.1553 11617.489 1
10135.258 -1467.8613 11591.478 2
10969.165 -1577.9083 12460.502 258
11027.266 -1575.6283 12442.497 2
11074.649 -1571.8575 12412.721 2
11123.707 -1568.3729 12385.203 2
11162.907 -1563.5532 12347.143 2
11194.773 -1557.7761 12301.521 258
11243.189 -1554.3619 12274.56 259
11324.998 -1555.5785 12284.167 516
11391.621 -1554.7069 12277.284 515
11449.851 -1552.7081 12261.5 3030593
10842.211 -1461.0077 11537.355 5265758
12067.725 -1615.9282 12760.739 1053975
12170.114 -1619.4608 12788.636 198153
12861.088 -1700.7859 13430.847 262
13167.335 -1730.5438 13665.842 520
12818.082 -1674.3147 13221.809 331797
0 0 0 0
0 0 0 0
-9829.9902 -1297.1881 10748.147 0
-9717.7354 -1290.7627 10694.908 0
-9583.9424 -1281.373 10617.108 0
-9543.3623 -1284.4041 10642.223 0
-9499.5693 -1287.0402 10664.064 0
-9551.709 -1302.7964 10794.616 0
-11120.907 -1527.0828 12652.992 0
-10844.153 -1499.2179 12422.111 0
-11244.412 -1565.2103 12968.907 0
-11164.162 -1564.7659 12965.224 0
-11090.344 -1565.223 12969.012 0
-11017.365 -1565.8058 12973.841 0
-10940.547 -1565.847 12974.183 0
-11392.898 -1642.1635 13606.52 0
-9320.1367 -1353.0009 11210.597 0
-10095.35 -1476.0908 12230.486 0
-9764.543 -1438.0764 11915.51 0
-9077.5752 -1346.6698 11158.14 0
-9002.9209 -1345.4238 11147.815 0
-8953.834 -1348.0087 11169.232 0
-9474.0068 -1436.9747 11906.381 65536
-9408.0762 -1437.7131 11912.5 65536
-7774.4976 -1197.0834 9918.707 65536
-7723.936 -1198.385 9929.4912 65536
-7930.7236 -1239.9423 10273.823 65536
-7875.5815 -1240.8746 10281.55 65536
-7822.311 -1242.119 10291.86 65536
-7760.6606 -1242.0419 10291.221 65536
-7690.2461 -1240.5497 10278.857 65536
-7617.1377 -1238.5956 10262.666 65536
-7556.458 -1238.6471 10263.093 65536
-7504.3779 -1240.1207 10275.303 65536
-7469.5928 -1244.4999 10311.588 65536
-7680.4258 -1290.2123 10690.348 65536
-7626.8359 -1291.8971 10704.308 65536
-7566.5728 -1292.4703 10709.058 65536
-7520.6152 -1295.5177 10734.307 0
-7473.0317 -1298.3347 10757.648 0
-7427.6216 -1301.5813 10784.548 0
-7384.4692 -1305.2832 10815.222 0
-7344.8071 -1309.6727 10851.592 0
-7290.6367 -1311.53 10866.98 0
-7232.334 -1312.6704 10876.43 0
-7169.8516 -1313.0659 10879.707 0
-7111.5151 -1314.2351 10889.394 0
-7056.8486 -1316.1097 10904.927 65536
-7001.9165 -1317.9694 10920.336 65536
-6940.5396 -1318.6394 10925.888 65536
-6882.6519 -1319.9913 10937.089 65536
-6825.9263 -1321.5939 10950.367 65536
-6766.835 -1322.7649 10960.069 0
-6708.2168 -1324.0521 10970.735 0
-6647.7524 -1324.9965 10978.56 0
-6585.5098 -1325.6018 10983.575 0
-6509.7397 -1323.4689 10965.902 0
-6441.9575 -1322.9332 10961.465 0
-6374.2329 -1322.3987 10957.035 0
-6305.4761 -1321.6366 10950.721 0
-6245.4131 -1322.7001 10959.532 0
-6194.3179 -1325.7052 10984.432 0
-6145.8574 -1329.344 11014.583 0
-6088.4741 -1331.1105 11029.22 0
-6028.6079 -1332.3668 11039.629 0
-5966.0898 -1333.0583 11045.358 65536
-5909.4761 -1335.099 11062.267 65536
-5855.5249 -1337.7939 11084.596 65536
-5801.9048 -1340.6267 11108.067 65536
-5744.1431 -1342.5566 11124.059 65536
-5688.3394 -1344.9945 11144.258 0
-5633.48 -1347.7158 11166.806 0
-5582.9229 -1351.5433 11198.521 0
-5520.2539 -1352.4958 11206.412 0
-5457.4419 -1353.4362 11214.203 0
-5401.5605 -1356.1398 11236.604 0
-5337.7949 -1356.9067 11242.96 0
-5291.3716 -1362.1577 11286.468 0
-5225.9038 -1362.5779 11289.949 65536
-5168.0625 -1365.0234 11310.213 65536
-5111.584 -1367.8979 11334.03 65536
-5050.4077 -1369.5754 11347.93 65536
-4995.1802 -1372.9333 11375.752 65536
-4933.2939 -1374.5282 11388.966 65536
-4877.9258 -1378.0087 11417.805 65536
-4794.1724 -1373.4554 11380.078 256
-4704.0093 -1366.9093 11325.839 4604742
-4620.7217 -1362.2 11286.818 1184787
-5164.8643 -1545.0448 12801.821 256
-4581.1606 -1390.923 11524.809 256
-4385.0771 -1351.597 11198.965 0
-4231.5396 -1324.3749 10973.409 0
-4356.3916 -1384.7938 11474.024 0
-4342.8726 -1402.4501 11620.319 0
-4349.3872 -1427.251 11825.813 0
-4306.4717 -1436.3798 11901.452 0
-4260.9854 -1444.9419 11972.395 0
-4224.7329 -1456.979 12072.131 0
-4198.7852 -1473.0472 12205.269 0
-4188.4956 -1495.2704 12389.403 0
-4143.2876 -1505.6001 12474.992 0
-4096.627 -1515.7688 12559.247 0
-4049.4939 -1526.1368 12645.154 0
-4072.7671 -1563.9327 12958.32 0
-4146.1587 -1622.8021 13446.096 0
-4103.9683 -1637.8575 13570.842 0
-4044.7971 -1646.6039 13643.312 0
-3987.6831 -1656.5627 13725.827 0
-3936.3479 -1669.3883 13832.097 0
-4110.5117 -1780.434 14752.19 0
-3941.5923 -1744.4775 14454.267 0
-3884.5134 -1757.5206 14562.338 0
-3737.0527 -1729.3336 14328.787 0
-3678.2937 -1741.8359 14432.379 0
-3617.5034 -1753.9507 14532.758 0
-3557.8008 -1767.1981 14642.522 0
-3503.8455 -1784.0365 14782.04 0
-3527.8838 -1842.4738 15266.235 0
-3418.4797 -1832.465 15183.306 0
-3277.75 -1804.666 14952.972 0
-3213.9578 -1818.8585 15070.567 0
-3143.5767 -1830.0291 15163.123 0
-3072.325 -1841.3372 15256.818 0
-3007.717 -1857.436 15390.21 0
-2924.4778 -1862.6781 15433.644 0
-2846.8376 -1871.9412 15510.396 0
-2765.3911 -1879.2378 15570.852 0
-2679.845 -1884.157 15611.611 0
-2597.9854 -1892.114 15677.542 0
-2519.4475 -1903.1724 15769.168 0
-2488.9221 -1952.7549 16179.995 0
-2383.9409 -1945.5586 16120.368 0
-2301.929 -1957.2898 16217.57 0
-2222.4858 -1972.3262 16342.157 0
-2135.3545 -1981.6022 16419.016 0
-2049.9385 -1993.4347 16517.057 0
-1968.9606 -2010.99 16662.516 0
-1888.2157 -2030.6558 16825.461 0
-1799.4232 -2043.3823 16930.91 0
-1733.1786 -2084.7378 17273.57 256
-1631.9584 -2086.5825 17288.854 256
-1538.3367 -2099.0427 17392.096 256
-1451.1079 -2122.6497 17587.697 256
-1381.09 -2177.0518 18038.457 256
-1277.7263 -2183.6228 18092.904 256
-1174.3488 -2191.376 18157.145 256
-1102.7386 -2265.9756 18775.258 256
-1028.0701 -2350.3809 19474.615 256
-925.29224 -2383.7859 19751.4 256
-793.45782 -2341.1646 19398.252 256
-686.06586 -2368.4319 19624.182 0
-567.43549 -2360.1255 19555.357 0
0 0 0 0
0 0 0 0
0 0 0 0
0 0 0 0
0 0 0 0
0 0 0 0
0 0 0 0
0 0 0 0
0 0 0 0
0 0 0 0
0 0 0 0
0 0 0 0
0 0 0 0
0 0 0 0
0 0 0 0
0 0 0 0
0 0 0 0
0 0 0 0
0 0 0 0
0 0 0 0
0 0 0 0
0 0 0 0
0 0 0 0
0 0 0 0
0 0 0 0
0 0 0 0
0 0 0 0
0 0 0 0
0 0 0 0
0 0 0 0
0 0 0 0
2972.7412 -2226.0857 18444.738 514
0 0 0 0
0 0 0 0
0 0 0 0
3585.3005 -2339.6763 19385.92 256
3692.9402 -2334.8853 19346.223 0
3813.2207 -2338.1345 19373.146 0
3934.6785 -2341.894 19404.297 0
4120.4561 -2382.6321 19741.84 0
4167.5225 -2343.126 19414.504 0
4300.1934 -2352.5818 19492.854 0
4391.584 -2339.5498 19384.873 0
4580.4551 -2377.7881 19701.705 1907995
4682.3711 -2370.1052 19638.047 0
4719.5234 -2330.812 19312.473 0
4857.626 -2342.0562 19405.639 1514009
4852.9155 -2285.5198 18937.195 257
4919.4966 -2264.3613 18761.881 9940647
4809.0674 -2164.4712 17934.219 5199189
5082.1689 -2237.7903 18541.721 256
5207.8691 -2244.4707 18597.072 0
5341.9819 -2254.4233 18679.539 0
5473.3486 -2262.8357 18749.24 0
5600.0308 -2269.0144 18800.436 0
5772.3071 -2293.0635 18999.699 0
5984.1738 -2331.6155 19319.131 0
6057.8003 -2315.8674 19188.646 0
6185.0474 -2320.8213 19229.693 256
6281.8765 -2314.3887 19176.395 256
6581.21 -2381.4631 19732.156 256
6467.79 -2299.446 19052.584 515
6741.7197 -2355.593 19517.803 264971
6734.3657 -2313.2214 19166.723 1713445
0 0 0 0
6550.6255 -2176.4756 18033.684 10141892
0 0 0 0
0 0 0 0
0 0 0 0
0 0 0 0
0 0 0 0
0 0 0 0
0 0 0 0
0 0 0 0
0 0 0 0
0 0 0 0
0 0 0 0
7615.6812 -2115.0681 17524.877 1777960
7408.1528 -2029.6731 16817.318 1974568
7537.0044 -2037.4858 16882.053 262
8053.4136 -2148.4858 17801.768 260
8064.2021 -2123.4668 17594.467 259
8313.8643 -2161.1833 17906.977 258
8348.5508 -2142.77 17754.408 258
8484.9395 -2150.594 17819.236 2
8586.1465 -2149.4175 17809.488 256
8682.834 -2147.1521 17790.719 256
8812.8799 -2153.0916 17839.93 256
8923.5928 -2154.2222 17849.299 256
9034.625 -2155.4026 17859.078 256
9112.6348 -2148.7688 17804.113 256
9200.5625 -2144.5991 17769.564 0
9332.2598 -2150.6106 17819.375 0
9451.377 -2153.6211 17844.316 0
9517.0166 -2144.5142 17768.859 0
9577.9678 -2134.5623 17686.4 0
9568.1133 -2109.2175 17476.402 256
9635.4951 -2101.2607 17410.475 256
9698.293 -2092.4841 17337.754 256
9777.2607 -2087.344 17295.164 256
11065.59 -2337.811 19370.465 256
9930.7695 -2076.4558 17204.947 256
10055.804 -2081.1704 17244.01 257
10175.469 -2084.6895 17273.17 2
10346.291 -2098.5146 17387.721 2
10303.267 -2069.1213 17144.176 260
10267.128 -2041.6727 16916.744 67336
10200.308 -2008.7146 16643.662 264464
10446.199 -2037.3795 16881.172 8490127
10296.559 -1989.0901 16481.059 1516071
10632.214 -2034.5767 16857.949 7047824
10957.93 -2077.3298 17212.189 6060419
11977.399 -2249.5928 18639.514 5337210
12317.078 -2292.1902 18992.465 5073782
11806.582 -2177.2349 18039.975 9678780
10116.294 -1848.7424 15318.176 8756908
9810.002 -1776.7778 14721.896 5663866
9096.1348 -1632.9186 13529.919 1581607
8898.1914 -1583.3866 13119.51 2965840
8889.2578 -1568.056 12992.485 7502979
8943.6914 -1564.0714 12959.47 1289
9105.8604 -1578.8347 13081.795 2172716
9216.458 -1584.4818 13128.585 5
9241.0908 -1575.3794 13053.165 4
9433.4365 -1594.7812 13213.924 396045
9494.9297 -1591.9242 13190.25 4
9685.4424 -1610.5681 13344.729 4
9632.3506 -1588.7299 13163.782 4
9581.4365 -1567.5996 12988.703 4
9804.4326 -1591.2629 13184.771 4
10012.282 -1612.1123 13357.522 4
10129.205 -1618.1082 13407.204 3
10188.52 -1614.8796 13380.453 2
10244.756 -1611.2172 13350.106 2
10339.053 -1613.5508 13369.442 256
10393.941 -1609.7455 13337.912 256
10453.94 -1606.7831 13313.367 256
10520.913 -1604.9292 13298.006 256
10566.438 -1599.8553 13255.966 256
10632.979 -1598.0155 13240.722 0
12039.96 -1796.1752 14882.618 256
10638.193 -1575.479 13053.99 256
10587.944 -1556.6843 12898.263 512
10131.986 -1478.9396 12254.091 258
10313.201 -1494.6475 12384.241 514
10451.037 -1503.8903 12460.825 5533291
10334.24 -1476.6196 12234.868 658700
10620.516 -1506.921 12485.938 2
10759.254 -1516.0135 12561.275 2
10785.859 -1509.2898 12505.564 2
10827.63 -1504.7656 12468.078 1
10583.242 -1460.8043 12103.827 658442
10681.619 -1464.4293 12133.862 65793
10793.198 -1469.8033 12178.39 131586
10898.97 -1474.3202 12215.815 256
11139.265 -1496.854 12402.524 1
11202.574 -1495.4653 12391.019 258
11246.16 -1491.479 12357.988 197893
11213.847 -1477.5438 12242.525 66050
11326.379 -1482.7501 12285.664 513
11116.979 -1446.0155 11981.29 461067
11649.693 -1505.6626 12475.51 66052
11155.622 -1432.6879 11870.861 2
11641.438 -1485.684 12309.973 66568
11861.561 -1504.3219 12464.401 262
12613.597 -1589.7688 13172.392 7
12306.043 -1541.4387 12771.941 774
12461.823 -1551.3821 12854.33 1385254
0 0 0 0
0 0 0 0
-9548.7158 -1198.0183 10440.601 0
-9502.8711 -1200.0652 10458.438 0
-9628.376 -1223.9202 10666.332 0
-9586.4424 -1226.6661 10690.263 0
-9543.7031 -1229.345 10713.608 0
-9597.3555 -1244.5597 10846.203 0
-11156.953 -1456.5876 12694.004 0
-10889.906 -1431.403 12474.521 0
-11342.263 -1501.0815 13081.764 0
-11260.171 -1500.5031 13076.722 65536
-11189.496 -1501.4482 13084.959 0
-11115.942 -1502.0178 13089.923 0
-11038.688 -1502.0918 13090.567 0
-11447.105 -1568.7238 13671.258 0
-9367.3486 -1292.8888 11267.386 0
-10111.854 -1405.6951 12250.48 0
-9999.7598 -1400.1942 12202.541 0
-9728.4424 -1372.1552 11958.185 0
-9699.8174 -1378.1862 12010.744 0
-9627.21 -1378.011 12009.218 0
-9524.2305 -1373.4535 11969.499 65536
-9458.1719 -1374.1915 11975.931 65536
-8135.2051 -1190.9381 10378.897 65536
-8075.1567 -1191.1797 10381.002 65536
-8282.1719 -1231.123 10729.104 65536
-8222.5908 -1231.7502 10734.57 65536
-7886.8262 -1190.6909 10376.743 65536
-7808.897 -1188.2173 10355.186 65536
-7741.1289 -1187.2628 10346.867 65536
-7667.8125 -1185.4352 10330.939 65536
-7608.769 -1185.8025 10334.141 65536
-7577.0405 -1190.4674 10374.795 65536
-7522.0303 -1191.521 10383.977 65536
-7511.0908 -1199.6306 10454.651 65536
-7670.9473 -1235.3818 10766.219 65536
-7614.54 -1236.6128 10776.946 65536
-7554.7222 -1237.3062 10782.989 0
-7495.2935 -1238.0756 10789.694 0
-7434.7554 -1238.6735 10794.905 0
-7382.311 -1240.6421 10812.062 0
-7331.541 -1242.929 10831.991 0
-7278.8418 -1244.9265 10849.399 0
-7228.3706 -1247.3441 10870.469 0
-7176.5435 -1249.5695 10889.862 0
-7125.2617 -1251.9308 10910.441 0
-7075.1733 -1254.5475 10933.245 65536
-7023.5952 -1256.9458 10954.146 65536
-6964.0498 -1257.95 10962.897 65536
-6908.4341 -1259.6896 10978.059 65536
-6848.1064 -1260.5948 10985.948 0
-6791.9243 -1262.2883 11000.707 0
-6731.4897 -1263.2164 11008.795 0
-6669.1802 -1263.8079 11013.948 0
-6605.9692 -1264.2379 11017.697 0
-6534.374 -1263.0564 11007.4 0
-6465.2285 -1262.3292 11001.062 0
-6407.6792 -1263.8743 11014.528 0
-6341.2637 -1263.6844 11012.874 0
-6274.563 -1263.4333 11010.686 0
-6214.1802 -1264.4624 11019.653 0
-6164.3066 -1267.6746 11047.647 0
-6110.5669 -1270.1525 11069.241 0
-6055.3335 -1272.3702 11088.569 0
-5996.2617 -1273.8215 11101.217 65536
-5934.4287 -1274.7119 11108.977 65536
-5884.6689 -1278.2449 11139.766 65536
-5829.8047 -1280.7368 11161.483 65536
-5773.9751 -1283.0717 11181.831 65536
-5718.355 -1285.5079 11203.063 0
-5665.209 -1288.5643 11229.699 0
-5611.2622 -1291.5095 11255.365 0
-5560.1318 -1295.1814 11287.366 0
-5501.3984 -1297.1506 11304.527 0
-5442.9995 -1299.2483 11322.809 0
-5384.5815 -1301.3938 11341.507 0
-5335.0103 -1305.759 11379.549 0
-5280.7847 -1309.0825 11408.513 65536
-5226.5635 -1312.4937 11438.24 65536
-5175.8066 -1316.8761 11476.434 65536
-5114.1001 -1318.5524 11491.042 65536
-5061.4834 -1322.6494 11526.747 65536
-4999.7886 -1324.4541 11542.475 65536
-4940.0679 -1326.8392 11563.261 0
-4878.6289 -1328.8236 11580.555 256
-4747.7886 -1311.6912 11431.246 7896191
-4573.3584 -1281.8435 11171.127 1
-5168.2368 -1469.9185 12810.181 256
-4581.7402 -1322.5942 11526.267 256
-4388.3306 -1285.9911 11207.273 0
-4275.3335 -1272.1877 11086.979 0
-4255.5117 -1286.1117 11208.324 0
-4183.7549 -1284.533 11194.565 0
-4316.0044 -1346.5511 11735.048 0
-4356.2573 -1381.4332 12039.041 0
-4277.7939 -1379.205 12019.623 0
-4220.0078 -1383.6808 12058.629 0
-4204.6636 -1402.4678 12222.355 0
-4196.2354 -1424.2627 12412.296 0
-4145.3511 -1432.1697 12481.204 0
-4121.2612 -1449.7906 12634.77 0
-4074.6077 -1459.9808 12723.575 0
-4078.5688 -1489.0352 12976.78 0
-4149.2842 -1544.0503 13456.231 0
-4110.9238 -1559.8403 13593.841 0
-4057.0068 -1570.2427 13684.495 0
-4002.3257 -1580.7687 13776.229 0
-3949.9614 -1592.6686 13879.935 0
-3902.7271 -1607.1886 14006.475 0
-3949.6865 -1661.9771 14483.95 0
-3840.1047 -1651.8688 14395.857 0
-3748.4531 -1649.1885 14372.499 0
-3676.3069 -1655.1649 14424.584 0
-3605.8052 -1662.1849 14485.762 0
-3545.947 -1674.5746 14593.737 0
-3485.3057 -1687.2068 14703.824 0
-3491.4822 -1733.6665 15108.716 0
-3359.6194 -1712.2273 14921.876 0
-3276.7385 -1715.2659 14948.356 0
-3205.8652 -1724.9348 15032.62 0
-3147.1074 -1741.8636 15180.154 0
-3071.1531 -1749.993 15251 0
-2995.5576 -1758.8274 15327.991 0
-2923.1733 -1770.1609 15426.76 0
-2842.8 -1777.2334 15488.397 0
-2759.1567 -1782.6669 15535.749 0
-2681.0239 -1792.1599 15618.48 0
-2842.8132 -1968.4646 17154.957 0
-2599.0452 -1866.6172 16267.368 0
-2444.0664 -1823.1318 15888.397 0
-2373.5327 -1841.6737 16049.987 0
-2294.3086 -1854.7428 16163.883 0
-2213.2354 -1867.3939 16274.137 0
-2125.929 -1875.702 16346.541 0
-2042.3267 -1888.2303 16455.725 0
-1959.5457 -1902.8167 16582.842 0
-1877.7751 -1919.9811 16732.428 0
-1790.8599 -1933.5105 16850.336 0
-1711.1434 -1956.8755 17053.959 256
-1619.7404 -1968.9763 17159.416 256
-1529.6162 -1984.3623 17293.504 256
-1437.8495 -1999.6808 17427.002 256
-1350.0588 -2023.3364 17633.158 256
-1268.3492 -2060.8542 17960.123 256
-1165.7892 -2068.2759 18024.801 256
-1069.7944 -2090.0256 18214.348 256
0 0 0 0
0 0 0 0
-804.26709 -2256.197 19662.514 256
-673.37854 -2210.1562 19261.273 0
-552.70709 -2185.6584 19047.777 0
0 0 0 0
0 0 0 0
0 0 0 0
0 0 0 0
0 0 0 0
0 0 0 0
0 0 0 0
0 0 0 0
0 0 0 0
0 0 0 0
0 0 0 0
0 0 0 0
0 0 0 0
0 0 0 0
0 0 0 0
0 0 0 0
0 0 0 0
0 0 0 0
0 0 0 0
0 0 0 0
0 0 0 0
0 0 0 0
0 0 0 0
0 0 0 0
0 0 0 0
2255.5481 -2062.1084 17971.051 65796
2337.2285 -2040.1742 17779.898 3
2385.8633 -1992.5398 17364.77 526603
2673.8674 -2140.4746 18654.006 259
2745.0149 -2109.9446 18387.938 513
2815.8601 -2081.5283 18140.295 258
3065.8809 -2182.7734 19022.635 257
3212.6599 -2205.9272 19224.418 1842718
3332.533 -2209.6509 19256.869 66050
3502.7292 -2245.3862 19568.299 256
3610.5173 -2240.1047 19522.27 256
3701.876 -2225.2754 19393.035 0
3812.4878 -2222.5662 19369.424 65536
3919.8762 -2218.1914 19331.299 0
4011.4751 -2205.385 19219.693 526343
4137.4253 -2211.6506 19274.297 0
4261.8496 -2216.7847 19319.039 65536
4352.1523 -2204.3667 19210.818 65536
4495.0454 -2218.54 19334.336 65536
4611.9897 -2219.5186 19342.865 0
4688.7842 -2201.5977 19186.686 256
4812.1982 -2205.8977 19224.16 4671814
4802.478 -2150.3855 18740.379 0
4915.915 -2151.2854 18748.221 131843
5057.3916 -2164.1443 18860.283 395015
5092.0747 -2131.7373 18577.861 256
5218.501 -2138.2981 18635.037 658442
5407.9038 -2169.855 18910.051 526344
5427.7363 -2133.4739 18592.994 0
5540.8003 -2134.4597 18601.586 0
5853.2168 -2210.7004 19266.016 131329
5917.4067 -2192.0618 19103.582 0
5936.771 -2157.832 18805.273 65536
6072.0352 -2166.2151 18878.33 65536
6318.3389 -2213.1887 19287.701 0
6471.0122 -2226.2759 19401.754 256
6585.2559 -2225.915 19398.609 514
6777.3633 -2251.4329 19620.994 67335
6831.2222 -2230.9382 19442.385 771
7040.3711 -2260.9963 19704.34 515
6761.3965 -2135.8765 18613.932 10601414
0 0 0 0
0 0 0 0
0 0 0 0
0 0 0 0
0 0 0 0
0 0 0 0
0 0 0 0
0 0 0 0
8189.1714 -2254.8572 19650.836 3362131
0 0 0 0
0 0 0 0
0 0 0 0
7827.1392 -2038.8622 17768.465 4
8172.8145 -2100.5649 18306.197 4
7922.3042 -2009.4287 17511.955 260
8129.25 -2035.1816 17736.389 258
8225.9434 -2033.0266 17717.607 257
8377.6133 -2044.3414 17816.215 257
8523.2637 -2053.9233 17899.719 1
8616.376 -2050.7646 17872.191 256
8730.2988 -2052.5754 17887.973 256
8859.5947 -2057.9133 17934.494 256
8983.3262 -2061.8477 17968.779 256
9071.0117 -2057.5132 17931.006 256
9129.2471 -2046.6771 17836.57 256
9228.5225 -2045.1848 17823.564 256
9368.5674 -2052.6592 17888.703 256
9483.4893 -2054.5229 17904.945 256
9547.8848 -2045.5206 17826.492 256
9595.9326 -2033.2523 17719.574 256
9562.4326 -2004.1588 17466.027 256
9636.0244 -1997.8942 17411.432 256
9702.2412 -1990.2496 17344.811 256
9779.1143 -1984.9292 17298.443 256
9882.5928 -1985.0632 17299.611 256
9955.3105 -1979.0796 17247.465 0
10019.397 -1971.5195 17181.58 0
10780.948 -2099.9675 18300.99 256
10407.62 -2007.0001 17490.789 257
10377.927 -1981.4825 17268.406 258
10369.271 -1960.4423 17085.043 4
10088.702 -1888.8995 16461.557 5
9768.7012 -1811.4199 15786.328 2
9922.957 -1822.519 15883.058 518
10111.953 -1839.7299 16033.047 265746
10521.299 -1896.3347 16526.352 2768966
11983.678 -2139.9331 18649.285 5469565
12369.588 -2188.6023 19073.434 7904677
11731.651 -2056.8796 17925.484 9220538
10397.126 -1806.4956 15743.414 8890802
9828.0205 -1692.3833 14748.938 7832978
8824.5 -1506.1437 13125.88 132110
8861.0908 -1499.136 13064.809 11
8811.1045 -1477.7301 12878.258 8
9023.0225 -1500.2391 13074.422 1032
9368.3174 -1544.3507 13458.85 2567987
9227.915 -1508.3269 13144.906 4943734
9178.3887 -1487.6371 12964.597 3027763
9536.3428 -1532.7867 13358.07 1052948
9490.9111 -1512.8893 13184.667 261
9642.6035 -1524.4828 13285.703 1054233
9647.9746 -1512.9429 13185.134 1250841
9614.3369 -1495.5209 13033.303 329224
9785.7998 -1510.026 13159.714 260
9897.4482 -1515.1445 13204.321 2
10004.513 -1519.4863 13242.159 2
10044.792 -1513.696 13191.697 2
10266.057 -1535.0579 13377.863 2
10339.256 -1534.1216 13369.704 0
10362.862 -1525.8972 13298.029 256
10403.609 -1520.302 13249.269 256
10486.209 -1520.8613 13254.142 256
10544.473 -1517.9087 13228.411 256
10598.425 -1514.3839 13197.692 0
10649.75 -1510.5382 13164.178 256
10657.586 -1500.6251 13077.786 256
10367.553 -1449.2184 12629.781 395015
10285.387 -1427.3982 12439.621 1186073
10254.093 -1412.899 12313.263 1030
12147.282 -1661.8987 14483.268 1514525
9862.0928 -1339.7625 11675.885 66052
10689.667 -1442.0414 12567.235 2
10790.089 -1445.4884 12597.275 2
10823.036 -1439.9109 12548.668 2
10865.361 -1435.6489 12511.525 2
10607.623 -1392.0668 12131.712 258
11071.327 -1443.1106 12576.553 1
10481.56 -1357.0743 11826.756 723724
10432.731 -1341.7544 11693.245 257
11208.114 -1431.9377 12479.183 258
11271.437 -1430.561 12467.186 258
11387.59 -1435.8641 12513.4 1
11506.336 -1441.423 12561.846 257
11515.86 -1433.316 12491.194 259
11560.186 -1429.6166 12458.954 260
11821.017 -1452.5685 12658.978 4
11902.098 -1453.2822 12665.197 4
11950.838 -1450.0626 12637.14 4
12354.28 -1489.6527 12982.162 526860
12140.985 -1454.8479 12678.843 726038
12637.371 -1504.9888 13115.814 2174255
13366.601 -1582.074 13787.604 1449506
0 0 0 0
0 0 0 0
-9596.4639 -1141.6467 10492.81 0
-9543.3096 -1142.7493 10502.943 0
-9674.1855 -1166.0479 10717.079 0
-9634.7402 -1168.9902 10744.122 0
-9584.6895 -1170.6764 10759.62 0
-9645.1963 -1185.9795 10900.27 0
-11187.411 -1384.9131 12728.657 0
-10941.078 -1363.6403 12533.14 0
-11437.049 -1435.2269 13191.088 0
-11352.805 -1434.4883 13184.3 65536
-11281.43 -1435.377 13192.467 0
-11204.598 -1435.5789 13194.322 0
-11129.5 -1436.0072 13198.26 0
-10194.155 -1324.6587 12174.861 0
-10108.644 -1322.9374 12159.042 0
-10440.188 -1376.1652 12648.255 0
-10183.881 -1352.1161 12427.221 0
-9834.3096 -1315.2423 12088.316 0
-9766.9824 -1315.851 12093.91 0
-9690.3291 -1315.2029 12087.954 0
-9619.1719 -1315.2966 12088.815 0
-9523.1377 -1311.9645 12058.19 0
-9478.1816 -1315.6724 12092.269 0
-8093.7583 -1132.0837 10404.916 65536
-8077.9004 -1138.5646 10464.482 0
-8023.728 -1139.7041 10474.955 65536
-7966.21 -1140.3823 10481.188 65536
-8136.9697 -1174.0074 10790.234 65536
-7830.958 -1138.8313 10466.934 65536
-7723.5498 -1132.2056 10406.036 65536
-7666.6675 -1132.9392 10412.778 65536
-7653.437 -1140.1879 10479.4 65536
-7829.7388 -1176.0231 10808.761 65536
-7773.7056 -1177.266 10820.184 65536
-7713.7202 -1177.9261 10826.251 65536
-7651.3701 -1178.233 10829.072 65536
-7585.2573 -1177.9611 10826.572 0
-7523.0942 -1178.303 10829.715 0
-7463.957 -1179.1288 10837.305 0
-7406.6743 -1180.2645 10847.743 0
-7345.2559 -1180.7554 10852.255 0
-7298.498 -1183.6324 10878.698 0
-7247.7383 -1185.9061 10899.596 0
-7188.8286 -1186.8752 10908.503 0
-7133.4702 -1188.4539 10923.011 0
-7078.7979 -1190.1768 10938.846 65536
-7025.896 -1192.2319 10957.735 65536
-6966.9434 -1193.2892 10967.452 65536
-6912.0425 -1195.067 10983.792 65536
-6862.0605 -1197.7372 11008.334 65536
-6804.4277 -1199.1108 11020.958 0
-6745.9712 -1200.3641 11032.479 0
-6683.7744 -1200.9703 11038.049 0
-6612.1597 -1199.8794 11028.022 0
-6537.3159 -1198.1749 11012.356 0
-6473.3716 -1198.4536 11014.918 0
-6410.2651 -1198.8948 11018.973 0
-6349.5889 -1199.8044 11027.333 0
-6291.5454 -1201.2355 11040.486 0
-6227.9634 -1201.6282 11044.096 0
-6163.1582 -1201.7908 11045.59 0
-6098.0693 -1201.9009 11046.603 0
-6046.5737 -1204.7218 11072.528 0
-5990.1392 -1206.6099 11089.882 65536
-5935.6841 -1208.943 11111.326 65536
-5882.5605 -1211.6031 11135.774 65536
-5830.8193 -1214.6117 11163.426 65536
-5782.4082 -1218.3912 11198.163 65536
-5735.6846 -1222.6182 11237.014 0
-5680.5117 -1225.1227 11260.032 0
-5630.2607 -1228.7611 11293.473 0
-5578.4282 -1232.1379 11324.509 0
-5515.1025 -1233.0278 11332.688 0
-5460.7622 -1235.9731 11359.759 0
-5404.8628 -1238.6353 11384.226 0
-5354.2847 -1242.5995 11420.661 0
-5306.8809 -1247.412 11464.892 65536
-5252.2329 -1250.6245 11494.417 65536
-5203.7539 -1255.41 11538.401 65536
-5155.335 -1260.338 11583.694 65536
-5106.7124 -1265.349 11629.75 65536
-5056.043 -1269.9833 11672.344 0
-5013.2578 -1276.7545 11734.577 0
-4960.6494 -1281.1798 11775.25 0
-4907.6787 -1285.6368 11816.214 256
-4982.7437 -1324.2509 12171.113 256
-4859.7812 -1310.598 12045.631 256
-4868.5142 -1332.5839 12247.702 0
-4849.2896 -1347.4689 12384.509 0
-4780.4331 -1348.8087 12396.823 0
-4728.2646 -1354.9729 12453.478 0
-4680.5503 -1362.6299 12523.853 0
-4619.8623 -1366.6962 12561.226 0
-4602.4814 -1383.918 12719.511 0
-4514.9419 -1380.267 12685.954 0
-4480.9546 -1393.1414 12804.281 0
-4422.4482 -1398.7058 12855.425 0
-4394.9634 -1414.4498 13000.127 0
-4347.3164 -1424.1522 13089.301 0
-4295.6987 -1432.8837 13169.552 0
-4245.4233 -1442.3954 13256.973 0
-4194.3159 -1451.9786 13345.053 0
-4146.0923 -1462.9491 13445.881 0
-4113.6543 -1480.0299 13602.87 0
-4060.6311 -1490.2411 13696.72 0
-4011.1274 -1502.1881 13806.524 0
-3984.9946 -1523.5693 14003.038 0
-3904.321 -1524.5656 14012.194 0
-3861.8953 -1540.8657 14162.009 0
-3809.6804 -1553.8997 14281.802 0
-3739.1106 -1559.8701 14336.677 0
-3671.0986 -1567.2112 14404.147 0
-3605.8467 -1576.1091 14485.929 0
-3541.5312 -1585.8616 14575.563 0
-3474.0051 -1594.6298 14656.149 0
-3416.7554 -1608.687 14785.35 0
-3359.6577 -1623.5598 14922.045 0
-3273.3904 -1624.761 14933.084 0
-3201.6453 -1633.4379 15012.833 0
-3140.8918 -1648.3807 15150.173 0
-3057.3335 -1651.8842 15182.373 0
-2994.2275 -1666.9873 15321.185 0
-2922.4722 -1678.0715 15423.059 0
-2841.4763 -1684.3958 15481.185 0
-2760.03 -1690.8673 15540.665 0
-2677.519 -1697.1124 15598.062 0
-2594.9187 -1703.7466 15659.036 0
-2522.9124 -1718.0887 15790.855 0
-2446.8191 -1730.6486 15906.291 0
-2444.9065 -1798.7949 16532.621 0
-2292.124 -1757.0006 16148.492 0
-2212.0132 -1769.6935 16265.151 0
-2125.1357 -1777.8854 16340.441 0
-2045.5299 -1793.2366 16481.535 0
-1962.3574 -1806.848 16606.637 0
-1876.5482 -1819.3448 16721.494 0
-1789.7484 -1832.2255 16839.879 0
-1702.087 -1845.6974 16963.699 0
-1622.514 -1870.1892 17188.801 256
-1529.1648 -1881.0258 17288.4 256
-1444.6512 -1905.0757 17509.441 256
-1357.0472 -1928.4674 17724.434 256
-1253.9379 -1931.9078 17756.055 256
-1156.5267 -1945.5665 17881.59 256
0 0 0 0
-1018.4304 -2099.0244 19292.012 256
-890.6756 -2068.6091 19012.469 256
-776.76776 -2066.1882 18990.217 256
-661.961 -2060.1465 18934.688 0
-551.20831 -2066.8311 18996.125 0
-445.53815 -2100.9255 19309.486 0
-335.89096 -2133.4182 19608.125 0
0 0 0 0
0 0 0 0
0 0 0 0
0 0 0 0
0 0 0 0
0 0 0 0
0 0 0 0
0 0 0 0
0 0 0 0
0 0 0 0
0 0 0 0
0 0 0 0
0 0 0 0
0 0 0 0
0 0 0 0
0 0 0 0
0 0 0 0
0 0 0 0
0 0 0 0
0 0 0 0
2028.1566 -2049.3032 18835.027 9609631
0 0 0 0
0 0 0 0
2317.3621 -2008.8856 18463.553 259
2501.4531 -2070.4292 19029.195 1
2606.3057 -2063.9006 18969.191 1
2780.6865 -2110.689 19399.221 2
2918.0918 -2126.8025 19547.32 256
3017.1577 -2114.8096 19437.092 258
3120.3652 -2106.4966 19360.689 257
3333.1304 -2170.1047 19945.309 3027507
0 0 0 0
3507.0398 -2131.7051 19592.379 256
3630.0305 -2135.5566 19627.777 256
3734.1743 -2128.4255 19562.236 1711385
3809.2673 -2105.6665 19353.061 0
3917.7434 -2102.1543 19320.779 0
3950.7524 -2059.5015 18928.76 65536
4122.2212 -2089.3904 19203.467 65536
4226.5 -2084.5303 19158.799 65536
4322.6426 -2076.0178 19080.561 0
4397.6025 -2058.0271 18915.209 0
4557.2651 -2079.5852 19113.348 0
4643.1924 -2067.2659 19000.121 0
4663.6436 -2027.0721 18630.703 723722
4706.5898 -1998.2933 18366.199 0
4886.1211 -2027.4954 18634.594 0
5010.9019 -2033.1876 18686.91 0
5114.4585 -2030.208 18659.525 0
5196.0029 -2018.8025 18554.697 0
5264.4336 -2002.882 18408.373 0
5392.8813 -2009.9785 18473.598 256
5552.4238 -2028.1499 18640.609 131842
5704.8784 -2043.0718 18777.756 987407
6028.002 -2117.3699 19460.625 198147
6276.356 -2163.1013 19880.939 9936285
6344.1597 -2146.0676 19724.383 256
6346.0845 -2107.7708 19372.4 256
6497.5425 -2119.6194 19481.301 256
6626.4189 -2123.8157 19519.867 256
6723.9292 -2117.9873 19466.299 2
0 0 0 0
7078.1377 -2155.3872 19810.039 262
6407.3208 -1919.1908 17639.172 10272192
0 0 0 0
0 0 0 0
0 0 0 0
0 0 0 0
0 0 0 0
0 0 0 0
0 0 0 0
6933.8896 -1836.5227 16879.375 3028798
7468.9624 -1950.03 17922.613 792092
0 0 0 0
0 0 0 0
7041.4448 -1762.9822 16203.469 922645
7833.2207 -1934.7601 17782.27 2368807
8227.8623 -2005.1804 18429.498 260
8238.2988 -1981.3474 18210.449 260
8062.7319 -1913.9777 17591.26 258
8213.7207 -1924.8601 17691.279 1
8377.2432 -1938.3677 17815.426 256
8516.6152 -1946.0199 17885.758 256
8614.5781 -1944.1383 17868.463 256
8723.5469 -1944.7559 17874.139 256
8862.1924 -1951.8948 17939.752 256
8975.3838 -1953.3245 17952.893 256
9077.6846 -1952.3782 17944.195 256
9153.6045 -1945.8461 17884.16 256
9276.9697 -1949.4338 17917.135 256
9405.7197 -1954.0588 17959.643 256
9553.5537 -1962.5005 18037.229 256
9586.7451 -1947.4658 17899.047 256
9560.6299 -1920.8459 17654.385 256
9580.6299 -1903.9684 17499.264 256
9663.8789 -1899.8881 17461.762 256
9709.6309 -1888.6007 17358.021 256
9778.3057 -1881.9628 17297.012 256
9909.7148 -1887.4115 17347.09 256
10014.128 -1887.6589 17349.365 256
10150.482 -1893.861 17406.367 0
10205.148 -1884.8505 17323.553 0
10384.935 -1898.8982 17452.664 3
10363.953 -1876.3204 17245.154 2
10208.111 -1830.0088 16819.506 4
10364.842 -1840.0865 16912.129 261
10400.642 -1828.7081 16807.551 5
10555.881 -1838.3466 16896.139 261
10488.775 -1809.4465 16630.52 261
9851.5625 -1683.6532 15474.36 1449761
9930.3047 -1681.4137 15453.777 515
10732.439 -1800.5785 16549.014 2439484
11036.59 -1834.7908 16863.457 2439997
10208.127 -1681.7894 15457.229 8495011
10277.015 -1678.0374 15422.745 9480624
9460.1504 -1531.004 14071.369 6187124
8790.7715 -1410.2068 12961.13 593174
8842.8428 -1406.2374 12924.646 9
8993.2158 -1417.8341 13031.232 8
9126.4463 -1426.5532 13111.368 8
9124.6592 -1414.1989 12997.82 7
9151.7568 -1406.4911 12926.979 4
9432.2314 -1437.5278 13212.235 4
9495.4795 -1435.2188 13191.014 3
9473.5752 -1420.1824 13052.814 1119255
9651.9355 -1435.168 13190.547 2
9510.2861 -1402.7126 12892.251 258
9820.084 -1436.8297 13205.819 258
9834.8262 -1427.5768 13120.776 987409
9795.6572 -1410.7057 12965.715 790030
9980.8906 -1426.1624 13107.776 257
10287.877 -1458.6423 13406.298 256
10321.451 -1452.1559 13346.681 256
10366.135 -1447.3195 13302.229 256
10376.622 -1437.8177 13214.9 256
10475.75 -1440.6489 13240.922 256
10535.123 -1438.0116 13216.682 256
10591.467 -1435.0026 13189.026 0
10620.897 -1428.4185 13128.512 256
10586.704 -1413.4359 12990.808 258
10379.355 -1375.7194 12644.158 2
10411.313 -1370.036 12591.922 197893
10498.049 -1371.5905 12606.209 2
10650.23 -1381.6129 12698.324 2
10227.198 -1317.3992 12108.14 2
10302.863 -1317.8727 12112.492 2
9812.0303 -1246.3798 11455.405 2
9847.4385 -1242.2579 11417.521 2
9981.0752 -1250.499 11493.265 2
10877.822 -1353.5861 12440.731 2
10961.781 -1354.8246 12452.114 2
11076.839 -1359.864 12498.433 2
11120.378 -1356.1149 12463.975 2
11195.764 -1356.2733 12465.431 2
11283.675 -1357.9373 12480.723 2
11393.522 -1362.2018 12519.919 2
11530.89 -1369.6802 12588.651 1
11752.354 -1386.9869 12747.717 1
11899.592 -1395.3682 12824.748 1
12087.442 -1408.3745 12944.29 259
12279.46 -1421.6989 13066.753 260
12664.287 -1457.0388 13391.561 1
12577.228 -1437.9854 13216.44 2765620
12806.885 -1455.1544 13374.241 2173484
13053.557 -1474.0334 13547.756 3423808
0 0 0 0
0 0 0 0
0 0 0 0
-9713.0859 -1092.4004 10620.324 0
-9587.6904 -1085.3508 10551.787 0
-9582.8135 -1091.9409 10615.857 0
-9676.6924 -1109.9463 10790.905 0
-9626.7471 -1111.5846 10806.833 0
-9691.3877 -1126.5648 10952.471 0
-11209.164 -1311.8082 12753.408 0
-10987.074 -1294.5712 12585.829 0
-11520.509 -1366.7288 13287.347 0
-11433.35 -1365.7507 13277.838 65536
-11355.739 -1365.9077 13279.363 0
-11279.184 -1366.1946 13282.152 0
-11203.054 -1366.5374 13285.485 0
-10254.198 -1259.6753 12246.571 0
-10146.732 -1255.3845 12204.856 0
-11399.461 -1420.531 13810.412 0
-10412.621 -1306.9678 12706.35 0
-9907.0195 -1252.5903 12177.691 0
-9833.5 -1252.4447 12176.275 0
-9758.9141 -1252.1599 12173.508 0
-9673.3604 -1250.4535 12156.917 0
-8776.8477 -1143.1013 11113.238 0
-9529.1445 -1250.4915 12157.286 0
-8094.2939 -1070.3145 10405.604 0
-8047.3691 -1072.3025 10424.932 0
-7992.6519 -1073.2749 10434.385 65536
-7939.6504 -1074.4948 10446.245 65536
-7914.0874 -1079.4764 10494.677 65536
-7853.5747 -1079.7322 10497.163 65536
-7797.4072 -1080.5941 10505.544 65536
