# .PCD v0.7 - Point Cloud Data file format
VERSION 0.7
FIELDS x y z rgb
SIZE 4 4 4 4
TYPE F F F U
COUNT 1 1 1 1
WIDTH 1537
HEIGHT 1
VIEWPOINT 0 0 0 1 0 0 0
POINTS 1537
DATA ascii
-7065.2715 253.6344 11554.668 0
-7005.6567 253.9628 11569.628 0
-6941.1235 254.11763 11576.682 0
-6880.4297 254.41756 11590.345 0
-6826.3999 254.97238 11615.621 0
-6767.4526 255.35307 11632.964 0
-6708.8706 255.75552 11651.298 0
-6647.8779 256.07349 11665.783 0
-6586.7515 256.39294 11680.337 0
-6529.7314 256.8808 11702.562 0
-6462.7754 256.98404 11707.265 0
-6405.0854 257.46198 11729.038 0
-6342.7412 257.76132 11742.675 0
-6284.2671 258.22632 11763.858 0
-6225.6572 258.69614 11785.262 0
-6169.0225 259.25967 11810.935 0
-6113.1221 259.8674 11838.62 0
-6056.2861 260.44907 11865.118 0
-6005.562 261.31033 11904.354 0
-5952.1411 262.07339 11939.117 0
-5895.1631 262.69638 11967.498 0
-5837.2358 263.29175 11994.621 0
-5776.2368 263.7616 12016.025 0
-5719.2969 264.43085 12046.515 0
-5661.2109 265.06345 12075.333 0
-5603.4648 265.72836 12105.625 0
-5543.9014 266.32333 12132.729 65536
-5483.7593 266.90576 12159.264 65536
-5424.0234 267.5238 12187.419 65536
-5366.8608 268.28723 12222.197 65536
-5308.2056 268.99594 12254.484 0
-5255.5166 270.03094 12301.635 0
-5415.7407 282.18906 12855.515 0
-5150.7666 272.22296 12401.495 0
-5076.0332 272.16791 12398.987 0
-5015.0146 272.85742 12430.399 0
-4950.2529 273.36084 12453.333 0
-4884.2031 273.80734 12473.674 0
-4827.645 274.80792 12519.256 0
-4777.5137 276.21133 12583.191 0
-4734.8657 278.09897 12669.185 0
-4684.627 279.59457 12737.318 0
-4632.04 280.99683 12801.2 0
-4576.0986 282.23901 12857.79 0
-4522.5913 283.67612 12923.259 0
-4475.2163 285.55411 13008.814 0
-4423.3491 287.20651 13084.091 65536
-4370.1763 288.8317 13158.13 0
-4320.9268 290.78015 13246.894 0
-4271.0332 292.75681 13336.943 0
-4227.1235 295.22614 13449.437 0
-4175.4434 297.23749 13541.067 0
-4124.2822 299.3656 13638.015 0
-4074.6301 301.6907 13743.939 0
-4040.3074 305.26923 13906.964 0
-3986.1877 307.47018 14007.23 0
-3923.5879 309.09698 14081.342 0
-3854.8157 310.29779 14136.047 0
-3777.8098 310.8746 14162.325 65536
-3712.2451 312.44067 14233.669 65536
-3653.3328 314.65271 14334.441 65536
-3595.7458 317.08728 14445.351 65536
-3532.2283 319.10513 14537.277 65536
-3463.1907 320.71301 14610.526 65536
-3393.4346 322.33533 14684.433 65536
-3327.5566 324.42139 14779.467 65536
-3262.3584 326.68869 14882.756 65536
-3217.1226 331.13702 15085.406 0
-3155.7112 334.12778 15221.654 0
-3112.0337 339.22812 15454.008 0
-3026.5205 339.9397 15486.426 0
-2925.9392 338.95038 15441.355 0
-2833.6506 338.88876 15438.548 0
-2763.3469 341.54025 15559.341 0
-2695.5127 344.69116 15702.885 0
-2650.6211 351.10712 15995.173 0
-2575.0503 353.7854 16117.186 0
-2476.3147 353.36508 16098.037 0
-2377.033 352.82986 16073.655 0
-2300.7717 355.80994 16209.417 0
-2228.4109 359.68005 16385.725 0
-2145.7571 362.1666 16499.002 0
-2075.4404 367.07327 16722.533 0
-1996.5814 370.88675 16896.262 0
-1898.8331 371.40936 16920.07 0
-1796.1876 370.979 16900.465 0
-1722.027 376.72931 17162.428 0
-1638.8741 381.11273 17362.119 0
-1552.0345 385.17014 17546.961 0
-1470.0421 391.10178 17817.184 0
-1376.774 394.7215 17982.086 0
-1284.1725 399.15768 18184.184 0
-1183.2861 401.59744 18295.328 0
-1086.7587 406.16 18503.184 0
-984.31989 409.29193 18645.861 0
-867.61041 406.53171 18520.117 0
-756.15918 405.79126 18486.385 0
-649.73889 407.95782 18585.086 0
-560.9187 424.32623 19330.771 0
-428.56262 407.70947 18573.771 0
-327.10489 419.15579 19095.225 0
0 0 0 0
0 0 0 0
0 0 0 0
0 0 0 0
0 0 0 0
0 0 0 0
0 0 0 0
0 0 0 0
0 0 0 0
0 0 0 0
0 0 0 0
0 0 0 0
0 0 0 0
0 0 0 0
0 0 0 0
0 0 0 0
0 0 0 0
0 0 0 0
0 0 0 0
0 0 0 0
0 0 0 0
0 0 0 0
0 0 0 0
0 0 0 0
0 0 0 0
0 0 0 0
0 0 0 0
0 0 0 0
0 0 0 0
0 0 0 0
0 0 0 0
0 0 0 0
0 0 0 0
0 0 0 0
0 0 0 0
3896.0342 434.49188 19793.883 262144
3974.0825 430.20581 19598.623 262144
4058.647 426.84909 19445.703 262144
4166.1167 426.02051 19407.955 262144
4236.126 421.50906 19202.432 262144
4297.2344 416.37204 18968.406 262144
4386.7539 414.18005 18868.547 262144
4454.7407 410.11499 18683.357 262144
4517.4048 405.76953 18485.395 196608
4583.1802 401.90323 18309.26 196608
4628.0088 396.42209 18059.559 196608
4692.4932 392.8349 17896.139 262144
4763.3872 389.93143 17763.867 262144
4841.2217 387.70966 17662.652 262144
4914.7178 385.24216 17550.242 262144
4967.3022 381.27213 17369.381 393216
5017.0742 377.25223 17186.25 393216
5061.3921 372.99088 16992.117 393216
5105.0312 368.84714 16803.344 393216
5153.5161 365.20587 16637.461 458752
5201.2534 361.64972 16475.455 458752
5259.7524 358.95941 16352.895 458752
5306.8389 355.60199 16199.942 393216
5337.397 351.2764 16002.885 393216
5376.0137 347.62341 15836.468 262144
5414.249 344.0719 15674.673 196608
5448.0522 340.36362 15505.737 196608
5419.9341 332.97458 15169.119 196608
5422.1025 327.6575 14926.893 262144
5508.6724 327.52994 14921.081 327680
5581.1074 326.57928 14877.772 327680
5576.0889 321.19678 14632.565 327680
5633.0186 319.49313 14554.954 393216
5632.582 314.63657 14333.706 196608
5698.7285 313.58862 14285.966 262144
5831.2466 316.17014 14403.57 196608
5909.6143 315.78342 14385.951 393216
5981.6294 315.07309 14353.592 327680
6072.8325 315.37921 14367.538 393216
6272.0029 321.20615 14632.992 458752
6183.0234 312.3186 14228.107 458752
6241.5483 311.02115 14169 458752
6296.4136 309.57825 14103.268 393216
6342.3247 307.7388 14019.469 196608
6369.4448 305.04715 13896.847 262144
6417.4263 303.41074 13822.297 196608
6601.4253 308.16516 14038.893 65536
6632.5283 305.75256 13928.983 0
6713.8745 305.68707 13925.999 0
6706.3398 301.62567 13740.976 0
6806.1401 302.4314 13777.683 0
7180.6191 315.27826 14362.939 0
8218.0918 356.59119 16245.008 0
8463.3271 362.96786 16535.506 0
8537.3867 361.94125 16488.736 0
8526.2939 357.3688 16280.433 0
8509.7129 352.67157 16066.443 0
7904.127 323.93906 14757.494 0
7592.3848 307.7478 14019.879 0
7692.9229 308.43796 14051.319 0
7679.6997 304.60114 13876.528 0
7509.6177 294.69046 13425.032 0
7560.1323 293.55371 13373.247 0
7695.4312 295.69849 13470.956 0
7712.0786 293.28683 13361.09 0
7880.7905 296.64838 13514.229 0
7947.4409 296.13904 13491.024 0
8126.8955 299.80121 13657.86 0
8063.4395 294.51855 13417.202 0
7248.3438 262.15451 11942.812 0
8269.7471 296.19559 13493.601 0
8320.5957 295.15451 13446.174 0
7409.7129 260.3425 11860.265 0
7392.6167 257.29419 11721.394 0
7471.521 257.61276 11735.906 0
7521.5854 256.94028 11705.271 0
7610.0195 257.5788 11734.36 0
8604.5527 288.59628 13147.404 0
9916.9365 329.62021 15016.307 0
8687.4854 286.18011 13037.333 0
7681.2407 250.79587 11425.354 0
7753.9985 250.95291 11432.509 0
7669.2041 246.05247 11209.263 0
9026.667 287.11017 13079.702 65536
9048.6309 285.35132 12999.576 0
9010.8584 281.75443 12835.715 65536
8255.5205 255.96919 11661.032 196608
8327.4365 256.0495 11664.69 196608
9249.0635 282.03934 12848.694 196608
9355.6846 282.95447 12890.383 196608
9465.8643 283.96143 12936.258 65536
9620.5645 286.27698 13041.745 65536
9640.9238 284.58994 12964.889 0
9721.6533 284.69754 12969.791 0
9817.7012 285.2485 12994.893 0
9911.4609 285.72491 13016.596 0
10014.87 286.47 13050.539 0
10124.056 287.36758 13091.429 0
10176.98 286.66669 13059.499 0
10256.196 286.71136 13061.535 0
10343.622 286.98315 13073.917 0
10417.027 286.86484 13068.526 0
10563.482 288.74503 13154.18 256
10759.08 291.93094 13299.319 256
10602.812 285.59271 13010.573 256
8903.3701 238.08098 10846.109 256
10135.764 269.08762 12258.66 256
9549.8896 251.7242 11467.646 256
9929.7266 259.88153 11839.265 65793
10631.01 276.27777 12586.218 197122
0 0 0 0
0 0 0 0
12402.496 315.65182 14379.958 1512982
12119.212 306.33118 13955.342 460294
11748.79 294.94965 13436.84 591879
11976.952 298.64755 13605.305 131072
12110.408 299.95023 13664.649 196608
11955.81 294.14856 13400.346 196608
12115.53 296.10565 13489.505 196608
12362.277 300.14999 13673.75 65536
12638.889 304.86185 13888.405 0
12912.169 309.4328 14096.641 65793
10842.311 258.15472 11760.598 197379
13592.504 321.56363 14649.278 0
12606.767 296.34543 13500.427 131586
14053.845 328.27231 14954.901 0
15059.839 349.55978 15924.682 0
16073.54 370.75909 16890.445 0
16009.855 366.99808 16719.107 0
16183.062 368.6803 16795.742 0
11525.095 260.95346 11888.097 1382166
0 0 0 0
0 0 0 0
0 0 0 0
-9789.9375 300.54205 10774.371 0
-9810.5713 303.15848 10868.169 0
-9767.4043 303.82492 10892.062 0
-9871.3506 309.10696 11081.421 0
-9864.0654 310.95349 11147.618 0
-9815.9385 311.52881 11168.243 0
-9769.2568 312.15811 11190.804 0
-9722.5488 312.79523 11213.645 0
-9725.8301 315.06046 11294.853 0
-11068.779 361.0563 12943.794 0
-10768.427 353.71738 12680.695 0
-9474.8613 313.42035 11236.055 0
-9718.292 323.75467 11606.539 0
-11843.394 397.37082 14245.662 0
-11728.912 396.36325 14209.541 0
-11628.447 395.81818 14190.001 0
-10216.052 350.28244 12557.554 0
-10314.071 356.24585 12771.34 0
-10985.516 382.25049 13703.602 0
-10174.09 356.66046 12786.204 0
-10195.806 360.11148 12909.923 0
-10114.403 359.94513 12903.959 0
-10030.745 359.69537 12895.005 0
-9961.793 359.97314 12904.963 0
-9867.3311 359.32626 12881.773 65536
-9765.8037 358.41 12848.925 65536
-9686.4053 358.29782 12844.903 65536
-7761.6958 289.384 10374.357 65536
-7703.6992 289.52161 10379.29 65536
-7648.9878 289.78592 10388.766 65536
-7597.9448 290.19464 10403.418 0
-7554.0952 290.88705 10428.241 0
-7504.834 291.38083 10445.942 0
-7747.5352 303.31305 10873.71 0
-7690.0122 303.59348 10883.764 0
-7632.0459 303.86099 10893.354 0
-7566.7363 303.83823 10892.538 0
-7500.7168 303.78635 10890.678 0
-7439.9341 303.94748 10896.455 0
-7377.1411 304.02859 10899.363 0
-7332.7295 304.87543 10929.722 0
-7274.6045 305.16208 10939.998 0
-7214.1411 305.35498 10946.913 0
-7457.3271 318.521 11418.912 0
-7398.7139 318.91983 11433.211 0
-7339.666 319.30719 11447.098 0
-7287.292 319.99484 11471.749 0
-7227.2114 320.35388 11484.621 0
-7165.5186 320.64767 11495.152 0
-7103.1528 320.91666 11504.796 0
-7051.3491 321.67267 11531.899 0
-6998.73 322.40598 11558.188 0
-6935.2944 322.65063 11566.959 0
-6877.8335 323.18097 11585.971 0
-6819.4907 323.68011 11603.865 0
-6763.0303 324.27972 11625.361 0
-6712.4062 325.17447 11657.438 0
-6653.3325 325.67426 11675.354 0
-6592.959 326.12027 11691.345 0
-6525.1479 326.20398 11694.346 0
-6462.1333 326.53189 11706.102 0
-6403.2402 327.07742 11725.658 0
-6343.688 327.60095 11744.427 0
-6283.1587 328.08511 11761.783 0
-6223.2373 328.61224 11780.681 0
-6166.4468 329.31857 11806.003 0
-6107.5962 329.9299 11827.919 0
-6055.165 330.90625 11862.921 0
-5998.8916 331.69321 11891.133 0
-5947.2749 332.7594 11929.356 0
-5893.061 333.70432 11963.23 0
-5834.6484 334.43161 11989.305 0
-5774.7217 335.08905 12012.873 0
-5713.0854 335.66254 12033.433 0
-5656.1528 336.53033 12064.544 0
-5601.0161 337.52872 12100.335 0
-5540.2095 338.20691 12124.648 65536
-5483.4678 339.15445 12158.617 65536
-5423.0581 339.89734 12185.25 65536
-5365.2925 340.82834 12218.626 65536
-5307.3799 341.77542 12252.578 0
-5258.5327 343.34073 12308.694 0
-5366.7607 355.35068 12739.248 0
-4508.7061 302.80807 10855.607 0
-5189.1948 353.56973 12675.402 0
-5018.6235 346.98508 12439.344 0
-4944.2402 346.95334 12438.206 0
-4875.9971 347.35806 12452.716 0
-4814.1392 348.23718 12484.231 0
-4765.9385 350.14719 12552.705 0
-4732.0029 353.18262 12661.524 0
-4684.6636 355.29962 12737.418 0
-4631.645 357.04831 12800.108 0
-4574.2388 358.51154 12852.565 0
-4518.04 360.12073 12910.254 0
-4471.5098 362.56943 12998.04 0
-4417.623 364.49731 13067.153 65536
-4367.9048 366.84427 13151.291 0
-4319.2529 369.36789 13241.764 0
-4268.2085 371.77682 13328.122 0
-4228.6489 375.29617 13454.291 0
-4181.0835 378.22696 13559.358 0
-4128.1968 380.78207 13650.959 0
-4072.5242 383.17755 13736.836 0
-4037.8628 387.68839 13898.549 0
-3991.0679 391.1983 14024.379 0
-3927.3586 393.1647 14094.874 0
-3855.7124 394.40491 14139.335 0
-3786.3721 395.94156 14194.424 65536
-3717.3157 397.57858 14253.109 65536
-3648.2102 399.28659 14314.342 65536
-3600.0415 403.42233 14462.607 0
-3566.293 409.41586 14677.475 0
-3473.6475 408.77893 14654.641 0
-3403.7095 410.85019 14728.896 65536
-3335.0103 413.1843 14812.573 65536
-3268.8364 415.96634 14912.309 65536
-3224.6453 421.77875 15120.682 0
-3163.2896 425.61496 15258.208 0
-3115.9199 431.61496 15473.307 0
-3037.4321 433.53833 15542.259 0
-2932.106 431.63147 15473.9 0
-2842.6697 432.01608 15487.688 0
-2770.865 435.19559 15601.673 0
-2702.8826 439.21643 15745.819 0
-2640.3274 444.43924 15933.056 0
-2613.2131 456.23822 16356.046 0
-2508.0688 454.79938 16304.464 0
-2383.3225 449.54752 16116.186 0
-2310.3457 454.02957 16276.867 0
-2241.9607 459.84525 16485.357 0
-2158.7856 463.02023 16599.18 0
-2107.0427 473.56381 16977.166 0
-2018.6709 476.52142 17083.195 0
-1914.8145 475.94348 17062.477 0
-1815.2852 476.43658 17080.154 0
-1741.1489 484.04755 17353.006 0
-1653.1135 488.50961 17512.969 0
-1568.2251 494.56375 17730.008 0
-1480.7406 500.6124 17946.852 0
-1376.6456 501.54846 17980.41 0
-1247.5282 492.75854 17665.293 0
-1147.7388 495.00189 17745.715 0
-1063.8438 505.24783 18113.031 0
-973.5094 514.39844 18441.078 0
-859.45477 511.74701 18346.025 0
-750.78406 511.99664 18354.975 0
-690.67236 551.07556 19755.945 0
-538.64264 517.80151 18563.078 0
0 0 0 0
0 0 0 0
0 0 0 0
0 0 0 0
0 0 0 0
0 0 0 0
0 0 0 0
0 0 0 0
0 0 0 0
0 0 0 0
0 0 0 0
0 0 0 0
0 0 0 0
0 0 0 0
0 0 0 0
0 0 0 0
0 0 0 0
0 0 0 0
0 0 0 0
0 0 0 0
0 0 0 0
0 0 0 0
0 0 0 0
0 0 0 0
0 0 0 0
0 0 0 0
0 0 0 0
0 0 0 0
0 0 0 0
0 0 0 0
0 0 0 0
0 0 0 0
0 0 0 0
0 0 0 0
0 0 0 0
3687.3538 556.14618 19937.727 196608
3777.2153 551.96173 19787.715 196608
3846.6421 545.13403 19542.943 196608
3932.5129 540.96875 19393.617 262144
4034.6174 539.21014 19330.572 262144
4118.3623 535.16321 19185.49 262144
4204.7974 531.67444 19060.42 262144
4261.8989 524.75708 18812.432 196608
4334.9282 520.10425 18645.631 196608
4422.8306 517.4234 18549.523 196608
4493.5659 512.91351 18387.844 196608
4540.7251 505.99057 18139.658 196608
4583.478 498.90912 17885.789 196608
4650.4746 494.72775 17735.889 262144
4728.8965 491.92032 17635.242 262144
4827.9019 491.32932 17614.055 262144
4913.7383 489.45172 17546.744 262144
4959.8979 483.78214 17343.49 262144
4980.2324 475.8757 17060.045 393216
5012.0371 469.35895 16826.422 458752
5068.9438 465.40189 16684.562 458752
5126.8701 461.68851 16551.438 393216
5178.6382 457.5708 16403.818 393216
5318.4453 461.24039 16535.373 393216
5289.8208 450.43472 16147.993 393216
5408.6196 452.34372 16216.43 458752
5356.792 440.16556 15779.846 393216
5412.8198 437.11649 15670.536 393216
5407.9595 429.33661 15391.629 393216
4983.2915 389.0415 13947.059 458752
5089.4795 390.83047 14011.191 458752
5349.5259 404.18665 14490.009 458752
5433.001 403.99005 14482.96 458752
5393.7764 394.81808 14154.147 458752
5436.9146 391.86414 14048.248 458752
5495.0571 390.06461 13983.736 393216
5584.8237 390.53003 14000.422 393216
5614.0488 386.81052 13867.078 393216
5709.1187 387.66971 13897.88 393216
5871.4614 393.00729 14089.23 458752
5951.5181 392.7644 14080.523 589824
6056.8765 394.17484 14131.088 851968
6127.1724 393.29617 14099.586 917504
6174.7422 391.00198 14017.341 851968
6229.2656 389.20346 13952.863 720896
6270.563 386.6366 13860.843 458752
6310.1719 384.0336 13767.525 262144
6355.8638 381.86267 13689.698 196608
6411.3032 380.32492 13634.57 65536
6490.9067 380.24106 13631.564 0
6565.7217 379.8822 13618.698 0
6895.4932 394.10385 14128.542 0
7732.9736 436.6517 15653.873 0
7920.9565 441.94922 15843.788 0
8033.8677 442.98285 15880.844 0
8202.0713 447.00592 16025.07 0
8087.0435 435.67789 15618.962 0
7141.708 380.38303 13636.652 0
7145.9102 376.336 13491.567 0
7198.5732 374.90265 13440.183 0
7274.4595 374.69693 13432.808 0
7319.0786 372.90265 13368.483 0
7430.4731 374.51257 13426.198 65536
7412.8423 369.65417 13252.025 0
7471.8604 368.67999 13217.102 0
7554.3003 368.86978 13223.905 0
7680.8691 371.18817 13307.02 0
7789.9585 372.62326 13358.467 0
7839.457 371.20764 13307.718 0
7869.728 368.91901 13225.67 0
7825.4019 363.2132 13021.118 0
7983.7051 366.93204 13154.438 0
8023.5684 365.18802 13091.915 0
8063.1191 363.46341 13030.088 0
8270.1738 369.2504 13237.551 0
8324.7061 368.18262 13199.271 0
8335.0781 365.19989 13092.341 0
8331.374 361.66132 12965.483 0
9451.6592 406.53226 14574.099 0
9743.8115 415.29233 14888.146 0
9877.2148 417.18958 14956.16 0
8590.6328 359.61118 12891.986 0
7607.4302 315.63824 11315.566 0
7649.4199 314.59924 11278.318 0
7519.415 306.56613 10990.333 0
8852.8154 357.8205 12827.791 0
8956.9629 358.93884 12867.884 0
8989.3281 357.186 12805.045 0
8062.0098 317.6503 11387.697 65536
8214.2471 320.95413 11506.14 0
9153.0537 354.6832 12715.319 0
9264.1836 356.04984 12764.312 0
9377.1074 357.46262 12814.961 0
9543.9287 360.89069 12937.857 0
9600.5801 360.13135 12910.635 0
9636.1963 358.60126 12855.781 0
9704.6729 358.30847 12845.285 0
9785.833 358.48495 12851.611 0
9891.54 359.5509 12889.825 0
10002.194 360.7789 12933.85 0
10089.342 361.14676 12947.037 0
10165.516 361.11923 12946.051 0
10241.543 361.08698 12944.894 0
10166.336 355.76285 12754.024 0
10341.208 359.2041 12877.393 0
10606.931 365.72729 13111.248 256
8671.0264 296.79678 10640.104 256
8735.0527 296.82361 10641.065 256
10651.428 359.34177 12882.328 0
9786.9111 327.81958 11752.265 0
8977.0996 298.56354 10703.441 0
10991.291 362.98007 13012.761 0
11024.688 361.53903 12961.1 65536
11180.176 364.09399 13052.695 65536
10774.255 348.45691 12492.108 65536
11278.089 362.25543 12986.783 65536
10964.228 349.78033 12539.553 65536
11781.839 373.32611 13383.664 65536
11993.547 377.48584 13532.79 65536
12150.968 379.89294 13619.084 65536
12362.415 383.94608 13764.388 65536
12630.963 389.70767 13970.939 65536
13175.393 403.85034 14477.951 0
13412.566 408.45258 14642.94 0
10763.369 325.66354 11674.971 65792
10750.146 323.17996 11585.936 197377
12419.561 370.991 13299.951 0
12569.803 373.10431 13375.712 0
12825.057 378.28842 13561.562 0
12617.712 369.84824 13258.983 0
12706.104 370.1275 13268.995 0
12055.758 349.01682 12512.181 0
10839.611 311.88528 11181.023 986896
0 0 0 0
0 0 0 0
0 0 0 0
-9799.541 364.93552 10784.94 0
-9812.2559 367.81485 10870.034 0
-9770.0254 368.65912 10894.984 0
-9862.9619 374.64899 11072.003 0
-9856.2793 376.90988 11138.819 0
-9809.7393 377.66684 11161.189 0
-9763.0781 378.42938 11183.726 0
-9716.1172 379.19073 11206.226 0
-9719.8691 381.95538 11287.93 0
-11278.333 446.27765 13188.845 0
-10970.862 437.14944 12919.079 0
-10621.844 426.22534 12596.239 0
-9714.6396 392.58878 11602.177 0
-11841.549 481.96259 14243.442 0
-11730.154 480.86642 14211.047 0
-11620.746 479.83627 14180.604 0
-10278.591 427.51749 12634.426 0
-10311.061 432.0242 12767.612 0
-10950.353 462.21152 13659.738 0
-10187.014 433.20288 12802.446 0
-10178.163 436.08374 12887.584 0
-10092.282 435.68289 12875.738 0
-10019.111 435.82877 12880.05 0
-9951.915 436.23883 12892.167 0
-9851.9316 435.20685 12861.67 65536
-8726.7324 388.51593 11481.812 65536
-9667.9375 433.81082 12820.413 65536
-7769.9302 351.41479 10385.363 65536
-7722.9019 352.08481 10405.163 65536
-7664.999 352.26578 10410.512 65536
-7624.0562 353.23553 10439.171 0
-7568.9976 353.5618 10448.813 0
-7517.2051 354.04733 10463.162 0
-7766.6582 368.84744 10900.55 0
-7716.1021 369.5289 10920.688 0
-7656.8633 369.80255 10928.776 0
-7595.8125 369.99265 10934.395 0
-7541.0225 370.49365 10949.2 0
-7472.9277 370.34399 10944.777 0
-7409.9976 370.44989 10947.907 0
-7352.1353 370.81326 10958.646 0
-7587.8447 386.12213 11411.068 0
-7531.6362 386.71835 11428.688 0
-7473.2207 387.21103 11443.249 0
-7412.2373 387.57849 11454.108 0
-7362.458 388.5441 11482.645 0
-7304.1221 389.07187 11498.243 0
-7239.8032 389.28799 11504.63 0
-7184.686 390.00772 11525.9 0
-7125.5923 390.52341 11541.14 0
-7057.7681 390.56595 11542.396 0
-6998.5791 391.09189 11557.939 0
-6925.9966 390.87238 11551.453 0
-6870.0742 391.59811 11572.9 0
-6815.5093 392.41663 11597.09 0
-6759.3594 393.15973 11619.052 0
-6698.3354 393.63177 11633.001 0
-6633.9043 393.91129 11641.262 0
-6576.8823 394.6413 11662.836 0
-6515.7061 395.13498 11677.425 0
-6453.3574 395.56735 11690.203 0
-6396.9307 396.3761 11714.104 0
-6338.9585 397.10583 11735.67 0
-6278.8965 397.71945 11753.805 0
-6225.8882 398.79868 11785.699 0
-6169.3745 399.67542 11811.608 0
-6110.0703 400.3894 11832.71 0
-6051.9419 401.19803 11856.606 0
-5998.0215 402.30789 11889.407 0
-5944.4414 403.46735 11923.673 0
-5887.0586 404.39359 11951.046 0
-5830.9746 405.43274 11981.756 0
-5770.7329 406.20493 12004.576 0
-5710.4849 406.996 12027.954 0
-5648.8745 407.70877 12049.02 0
-5585.1724 408.28699 12066.107 0
-5534.9766 409.8804 12113.197 65536
-5477.6226 410.97873 12145.656 65536
-5427.4727 412.65414 12195.169 65536
-5372.4517 413.99951 12234.93 65536
-5305.6279 414.45984 12248.533 0
-5233.7344 414.53146 12250.649 0
-5216.7451 419.01501 12383.152 0
-5127.7949 417.76422 12346.188 0
-5082.2827 420.06741 12414.253 0
-5007.5693 419.98926 12411.944 0
-4936.5776 420.22565 12418.93 0
-4867.543 420.63834 12431.126 0
-4802.3384 421.39978 12453.629 0
-4748.666 423.21286 12507.212 0
-4715.6274 426.95184 12617.709 0
-4670.4058 429.6907 12698.65 0
-4624.1279 432.42084 12779.335 0
-4568.4834 434.35153 12836.393 0
-4515.772 436.6315 12903.772 0
-4471.5234 439.8226 12998.079 0
-4420.1523 442.41309 13074.635 65536
-4368.1997 445.03693 13152.178 0
-4319 448.04202 13240.988 0
-4264.1206 450.55853 13315.358 0
-4217.9189 454.10446 13420.151 0
-4175.9551 458.25208 13542.726 0
-4118.9463 460.87936 13620.37 0
-4068.7568 464.39026 13724.128 0
-4023.2317 468.58817 13848.188 0
-3971.8943 472.2702 13957.004 0
-3923.5671 476.47498 14081.267 0
-3851.9333 477.97101 14125.479 0
-3782.7251 479.84128 14180.751 65536
-3707.9209 481.07086 14217.089 65536
-3631.9395 482.20142 14250.5 65536
-3597.0435 488.97101 14450.562 65536
-3911.657 544.74524 16098.857 65536
-3466.2334 494.81815 14623.362 65536
-3395.7224 497.21957 14694.332 65536
-3351.0603 503.63272 14883.86 65536
-3243.3015 500.65363 14795.819 65536
-3438.2383 545.5365 16122.241 0
-3361.8945 548.71533 16216.186 0
-3111.8916 522.90125 15453.303 0
-3038.6382 526.12012 15548.431 0
-2930.8054 523.36597 15467.037 0
-2825.4983 520.89905 15394.132 0
-2748.7847 523.71484 15477.347 0
-2685.3564 529.34448 15643.72 0
-2630.7676 537.1828 15875.366 0
-2592.7585 549.11578 16228.021 0
-2517.9263 553.87079 16368.546 0
-2380.9653 544.79224 16100.247 0
-2319.8315 553.02997 16343.696 0
-2244.7939 558.52838 16506.191 0
-2198.6348 572.04291 16905.586 0
-2107.9648 574.71637 16984.596 0
-2027.0411 580.44958 17154.029 0
-1942.5399 585.71136 17309.531 0
-1846.897 588.01447 17377.594 0
-1772.0375 597.5993 17660.854 0
-1659.7611 594.97821 17583.393 0
-1548.511 592.39746 17507.125 0
-1456.1288 597.18298 17648.551 0
-1349.9089 596.59589 17631.201 0
-1248.7692 598.34399 17682.863 0
-1155.9509 604.76715 17872.686 0
-1059.9258 610.64264 18046.324 0
-961.53302 616.32355 18214.211 0
-866.01837 625.52466 18486.133 0
-753.60229 623.41803 18423.875 0
-648.88708 628.04858 18560.723 0
-538.21045 627.62433 18548.184 0
-427.69479 627.21747 18536.16 0
0 0 0 0
0 0 0 0
0 0 0 0
0 0 0 0
0 0 0 0
0 0 0 0
0 0 0 0
0 0 0 0
0 0 0 0
0 0 0 0
0 0 0 0
0 0 0 0
0 0 0 0
0 0 0 0
0 0 0 0
0 0 0 0
0 0 0 0
0 0 0 0
0 0 0 0
0 0 0 0
0 0 0 0
0 0 0 0
0 0 0 0
0 0 0 0
0 0 0 0
0 0 0 0
0 0 0 0
0 0 0 0
2972.3564 673.7326 19910.822 196608
0 0 0 0
0 0 0 0
3342.2366 676.74341 19999.801 65536
3453.7029 675.29657 19957.043 65536
3547.1394 670.5376 19816.4 65536
3648.9285 667.61261 19729.959 196608
3681.5044 652.60083 19286.314 196608
3844.2603 660.87506 19530.844 196608
3899.6931 650.75488 19231.762 262144
3986.7605 646.33972 19101.281 262144
4092.3335 645.08618 19064.234 262144
4205.1763 645.0152 19062.137 196608
4239.978 633.29163 18715.67 196608
4308.7866 627.11694 18533.189 196608
4360.1147 618.76929 18286.492 196608
4408.626 610.43762 18040.266 262144
4499.4536 608.22186 17974.783 262144
4572.124 603.7113 17841.482 262144
4624.0142 596.72357 17634.975 262144
4691.978 592.07397 17497.564 262144
4783.2778 590.50677 17451.25 262144
4866.7524 588.06067 17378.959 196608
4911.4062 581.12286 17173.926 393216
4940.1816 572.62708 16922.85 393216
4977.1152 565.39703 16709.182 458752
5068.0332 564.46259 16681.564 458752
5061.1343 552.87836 16339.217 393216
5191.646 556.45856 16445.021 393216
5167.5371 543.63983 16066.19 393216
5239.5371 541.21381 15994.493 393216
5252.0488 532.83887 15746.99 458752
5346.9097 532.96558 15750.734 458752
5588.23 547.43542 16178.361 458752
5467.1318 526.51294 15560.039 458752
5523.3296 523.07703 15458.497 393216
5339.1216 497.35889 14698.449 458752
5278.5747 483.8028 14297.826 458752
5311.8159 479.13611 14159.912 524288
5316.9609 472.12024 13952.571 524288
5395.5459 471.74078 13941.357 589824
5490.8667 472.8139 13973.071 524288
5591.8696 474.33707 14018.085 589824
5679.8779 474.7294 14029.68 720896
5793.7822 477.24344 14103.978 917504
5870.0835 476.63257 14085.925 983040
5955.4785 476.76688 14089.894 1114112
6034.9487 476.42972 14079.929 1114112
6096.9863 474.74435 14030.122 1048576
6145.7446 472.08444 13951.514 983040
6193.5254 469.4213 13872.81 917504
6246.4214 467.21066 13807.479 589824
6261.6245 462.27466 13661.605 393216
6311.3447 459.98071 13593.812 196608
6376.375 458.84644 13560.29 65536
6449.6406 458.32568 13544.9 0
6488.1157 455.37598 13457.728 0
6794.3745 471.064 13921.355 0
7164.3813 490.74103 14502.871 0
6999.4639 473.7449 14000.585 0
7669.2812 512.98175 15160.152 0
6930.2476 458.16669 13540.202 0
6927.6948 452.74069 13379.848 0
6948.7339 448.9621 13268.179 0
7025.6992 448.84128 13264.607 0
7103.4175 448.77063 13262.521 0
7146.1265 446.51404 13195.831 0
7201.1646 445.06845 13153.11 0
7276.6543 444.90436 13148.261 65536
7308.6621 442.11349 13065.781 0
7374.333 441.39621 13044.584 0
7490.166 443.66507 13111.636 0
7575.729 444.11279 13124.866 0
7656.0688 444.24823 13128.869 0
7760.9907 445.79288 13174.52 0
7849.7329 446.38666 13192.067 0
7723.7124 434.87668 12851.912 0
7858.9438 438.15765 12948.874 0
7908.8789 436.66553 12904.778 0
7959.2769 435.22745 12862.278 0
8071.2949 437.15414 12919.218 0
8047.8892 431.77884 12760.362 0
8065.8477 428.70248 12669.446 0
8197.7617 431.68375 12757.552 0
8265.1758 431.24506 12744.587 0
9697.667 501.39194 14817.639 0
9837.4238 504.04041 14895.908 0
8441.5928 428.6644 12668.321 0
7458.6104 375.40027 11094.206 0
7500.7354 374.21231 11059.098 0
7420.1953 366.97836 10845.313 0
9840.6719 482.49582 14259.201 0
9940.7334 483.2403 14281.202 0
9002.2461 433.91348 12823.447 0
8918.042 426.24612 12596.854 0
9022.9951 427.67215 12638.997 0
9076.2051 426.6423 12608.562 0
9161.8643 427.14221 12623.335 0
9283.6982 429.30685 12687.307 0
9045.3701 414.91568 12262.005 0
9243.7881 420.62827 12430.829 0
9441.2344 426.20645 12595.681 0
9524.96 426.60345 12607.414 0
9612.7695 427.17581 12624.329 0
9725.5098 428.83862 12673.469 0
9824.9932 429.89575 12704.711 0
9942.1934 431.70605 12758.211 0
9934.8711 428.12289 12652.318 0
10060.716 430.28912 12716.336 65536
10100.57 428.77264 12671.52 65536
10205.918 430.03824 12708.922 65536
10383.161 434.29242 12834.646 65536
10457.682 434.21933 12832.486 65536
10602.754 437.05548 12916.303 65536
10603.833 433.95807 12824.765 65536
10717.968 435.49857 12870.291 65536
10773.688 434.66049 12845.523 65536
10844.838 434.45233 12839.372 0
10966.228 436.24573 12892.372 0
11088.465 438.0477 12945.625 0
11192.902 439.12646 12977.506 0
11210.717 436.81528 12909.204 65536
11383.396 440.52866 13018.945 65536
11755.765 451.86758 13354.045 65536
11955.565 456.46573 13489.934 65536
12105.703 459.11911 13568.35 65536
12292.302 463.11105 13686.323 262144
12549.396 469.68893 13880.719 65536
12855.88 478.0174 14126.85 65536
13083.509 483.32471 14283.696 65536
13691.98 502.54184 14851.621 65536
10725.323 391.13394 11559.184 65536
15225.646 551.71893 16304.952 0
15469.97 557.02704 16461.822 0
15780.639 564.64227 16686.875 0
15086.414 536.43115 15853.151 0
15475.469 546.84955 16161.047 0
11202.71 393.42319 11626.837 0
12095.324 422.16647 12476.287 263171
0 0 0 0
0 0 0 0
0 0 0 0
-9805.3848 429.28995 10791.371 0
-9817.459 432.64853 10875.798 0
-9772.1045 433.50406 10897.304 0
-9855.792 440.13358 11063.955 0
-9851.0654 442.87732 11132.927 0
-9804.2734 443.75424 11154.971 0
-9757.0225 444.62219 11176.789 0
-9709.9189 445.50882 11199.077 0
-9714.7188 448.80557 11281.949 0
-11303.141 525.8175 13217.854 0
-10960.359 513.43994 12906.711 0
-9653.7832 455.42056 11448.235 0
-9698.7598 460.79004 11583.212 0
-11847.255 566.88934 14250.307 0
-11723.1 564.98749 14202.499 0
-11611.882 563.68622 14169.786 0
-11503.231 562.49146 14139.753 0
-10248.935 504.84628 12690.686 0
-10900.784 540.93628 13597.905 0
-10191.032 509.49316 12807.497 0
-10522.144 530.00549 13323.131 0
-10081.271 511.64896 12861.689 0
-10000.984 511.45233 12856.746 0
-9936.9404 512.08972 12872.769 0
-9841.5645 511.10974 12848.135 65536
-8809.5615 461.09158 11590.792 65536
-9653.3682 509.23843 12801.094 65536
-7800.6382 414.77136 10426.407 65536
-7759.8101 415.90442 10454.89 65536
-7703.9648 416.24438 10463.436 65536
-7654.2651 416.92459 10480.534 0
-7904.2607 434.07419 10911.636 0
-7845.6538 434.41992 10920.327 0
-7793.4927 435.13138 10938.211 0
-7738.6987 435.70657 10952.67 0
-7678.9429 436.00974 10960.291 0
-7618.5435 436.28125 10967.117 0
-7565.6201 436.98932 10984.915 0
-7503.6733 437.18387 10989.807 0
-7437.4243 437.12906 10988.429 0
-7370.8242 437.05246 10986.503 0
-7606.5801 455.0629 11439.244 0
-7546.6016 455.54633 11451.396 0
-7490.1919 456.25595 11469.235 0
-7431.4893 456.83771 11483.859 0
-7374.8896 457.56067 11502.032 0
-7318.458 458.30771 11520.812 0
-7255.7856 458.67429 11530.027 0
-7195.4902 459.19968 11543.233 0
-7133.3525 459.61642 11553.709 0
-7072.7944 460.14398 11566.971 0
-7009.4668 460.49997 11575.92 0
-6942.8662 460.64587 11579.588 0
-6883.6328 461.28839 11595.739 0
-6823.7964 461.90311 11611.192 0
-6766.8726 462.72955 11631.967 0
-6710.4355 463.60663 11654.015 0
-6650.3794 464.24939 11670.172 0
-6589.062 464.81674 11684.435 0
-6525.9146 465.26572 11695.72 0
-6466.6958 466.00745 11714.365 0
-6405.8789 466.64893 11730.491 0
-6349.7168 467.64731 11755.588 0
-6286.4551 468.13922 11767.953 0
-6226.2544 468.87274 11786.393 0
-6171.4121 470.03107 11815.51 0
-6110.8203 470.77304 11834.162 0
-6050.1104 471.52316 11853.019 0
-5991.7671 472.47757 11877.01 0
-5936.5249 473.70218 11907.794 0
-5879.0444 474.77557 11934.776 0
-5821.9414 475.90607 11963.193 0
-5763.7695 476.97604 11990.091 0
-5701.873 477.76071 12009.815 0
-5640.1479 478.57977 12030.405 0
-5579.2695 479.49274 12053.354 0
-5519.1533 480.49576 12078.568 65536
-5457.2549 481.36804 12100.495 65536
-5400.8081 482.75082 12135.256 65536
-5356.2954 485.25229 12198.137 65536
-5295.2124 486.30054 12224.488 0
-5220.647 486.12265 12220.016 0
-5168.4536 488.05225 12268.521 0
-5107.1362 489.16315 12296.447 0
-5037.1816 489.46704 12304.086 0
-4981.8638 491.22311 12348.23 0
-4921.8564 492.56241 12381.896 0
-4858.1914 493.57071 12407.243 0
-4794.6602 494.62387 12433.718 0
-4747.4551 497.42068 12504.022 0
-4710.2876 501.37482 12603.421 0
-4668.4185 504.94821 12693.247 0
-4617.0327 507.59277 12759.726 0
-4561.0562 509.8125 12815.524 0
-4519.9917 513.80273 12915.83 0
-4469.165 516.80194 12991.224 0
-4415.7012 519.59631 13061.468 65536
-4360.7954 522.31793 13129.884 0
-4329.7422 528.04785 13273.92 0
-4289.6021 532.86163 13394.928 0
-4239.6743 536.61865 13489.37 0
-4201.6538 542.05658 13626.067 0
-4146.0869 545.40015 13710.117 0
-4101.5151 550.35315 13834.624 0
-4060.1304 555.94519 13975.195 0
-4009.1714 560.43237 14087.993 0
-3943.198 562.96747 14151.72 0
-3897.7014 568.60022 14293.314 0
-3821.0229 569.8338 14324.323 65536
-3715.947 566.79211 14247.862 65536
-3704.865 578.27972 14536.636 65536
-3820.7776 610.61145 15349.381 65536
-3530.7383 578.06134 14531.145 65536
-3464.7019 581.47278 14616.9 65536
-3545.0618 610.26099 15340.571 131584
-3493.3289 617.2298 15515.75 65536
-3342.9631 606.67682 15250.473 65536
-3221.251 600.88043 15104.765 0
-3222.2776 618.30347 15542.739 0
-3190.3545 630.24567 15842.94 0
-3046.5093 620.13202 15588.707 0
-2948.071 618.91663 15558.154 0
-2856.7935 619.17456 15564.638 0
-2781.9319 623.12677 15663.986 0
-2714.6589 629.11121 15814.422 0
-2653.5232 636.99829 16012.686 0
-2587.5151 644.25903 16195.203 0
-2492.0664 644.46716 16200.436 0
-2394.8098 644.20569 16193.863 0
-2326.8127 652.1228 16392.881 0
-2250.324 658.24792 16546.854 0
-2176.6079 665.78107 16736.219 0
-2103.2478 674.14972 16946.588 0
-2010.991 676.9986 17018.203 0
-1915.6757 679.06512 17070.15 0
-1816.2268 679.81561 17089.016 0
-1737.0997 688.71191 17312.648 0
-1645.7355 693.57147 17434.807 0
-1548.498 696.44257 17506.979 0
-1460.8951 704.3725 17706.32 0
-1362.6292 707.99335 17797.34 0
-1258.5676 708.95898 17821.613 0
-1172.6318 721.25061 18130.598 0
-1075.587 728.50568 18312.973 0
-972.91052 733.15057 18429.734 0
-869.64935 738.47748 18563.641 0
-756.99384 736.21594 18506.791 0
-652.81592 742.83191 18673.102 0
-544.11688 745.96002 18751.734 0
-428.98785 739.61359 18592.201 0
0 0 0 0
-215.85162 767.57648 19295.123 65536
-104.27187 791.07861 19885.914 65536
0 0 0 0
0 0 0 0
0 0 0 0
0 0 0 0
0 0 0 0
0 0 0 0
0 0 0 0
0 0 0 0
0 0 0 0
0 0 0 0
0 0 0 0
0 0 0 0
0 0 0 0
0 0 0 0
0 0 0 0
0 0 0 0
0 0 0 0
0 0 0 0
0 0 0 0
0 0 0 0
0 0 0 0
0 0 0 0
0 0 0 0
2741.927 793.87738 19956.27 196608
2857.6064 793.06488 19935.846 196608
2955.8433 787.66907 19800.205 131072
3062.7639 784.91187 19730.895 65536
3184.1848 785.93707 19756.666 65536
3270.7415 778.5899 19571.977 65536
3389.1345 779.06573 19583.938 65536
3501.7761 778.23181 19562.975 65536
3625.7354 779.8858 19604.553 196608
3682.5779 767.44971 19291.938 196608
3764.6057 760.8548 19126.156 196608
3862.873 757.8324 19050.18 196608
3960.2551 754.81342 18974.289 196608
4029.4741 746.74237 18771.402 196608
4104.1841 740.09644 18604.338 196608
4180.5903 734.09705 18453.527 196608
4254.9644 728.05664 18301.686 196608
4305.6606 718.367 18058.109 196608
4377.519 712.59351 17912.977 196608
4461.0464 708.94855 17821.352 196608
4539.9922 704.76147 17716.098 196608
4607.7207 699.06238 17572.836 196608
4673.5718 693.3374 17428.922 196608
4758.1738 690.58215 17359.662 196608
4820.6543 684.80133 17214.346 262144
4862.4873 676.38861 17002.869 196608
4895.2651 667.08453 16768.986 393216
4961.7437 662.65259 16657.576 393216
5017.6685 657.01208 16515.787 393216
5067.4888 650.80408 16359.731 393216
5100.8271 642.75299 16157.345 393216
5154.5068 637.51514 16025.679 393216
5202.7202 631.80365 15882.104 393216
5240.3071 625.0282 15711.785 393216
5438.8257 637.34882 16021.498 393216
5531.4888 637.0542 16014.091 393216
5546.6724 627.99725 15786.42 393216
5558.1074 618.82434 15555.833 393216
5096.7197 558.17004 14031.124 458752
5200.6602 560.38422 14086.782 458752
5239.2368 555.59668 13966.436 524288
5314.8599 554.82581 13947.058 524288
5330.999 547.96442 13774.577 655360
5367.6709 543.3891 13659.564 589824
5449.9722 543.50061 13662.367 589824
5649.8687 555.16388 13955.555 589824
5783.6548 560.08752 14079.324 589824
5884.9399 561.76825 14121.574 655360
5959.6313 560.8988 14099.718 786432
6022.7114 558.97583 14051.378 851968
6081.3833 556.7019 13994.217 917504
6130.563 553.63208 13917.05 917504
6177.2593 550.42279 13836.375 851968
6208.9297 545.97644 13724.604 655360
6244.7202 542.00311 13624.724 524288
6281.9355 538.25354 13530.468 393216
6326.2124 535.19611 13453.611 327680
6372.4961 532.38275 13382.889 262144
6432.7607 530.79236 13342.91 131072
6507.0234 530.38165 13332.586 131072
6581.3496 529.98596 13322.639 65536
6646.7451 528.88898 13295.063 65536
6722.3716 528.62238 13288.362 65536
6762.103 525.57202 13211.684 0
6805.1597 522.84723 13143.188 0
6878.311 522.47028 13133.712 0
6943.5928 521.51062 13109.589 0
7019.0845 521.33069 13105.065 0
7094.2876 521.13348 13100.108 0
7144.4453 519.12073 13049.512 0
7190.9429 516.88806 12993.389 65536
7225.8438 513.87817 12917.727 65536
7271.2046 511.66766 12862.159 65536
7329.2637 510.38733 12829.975 65536
7420.9082 511.44809 12856.64 0
7512.8032 512.50439 12883.192 0
7594.3164 512.83826 12891.585 65536
7628.5142 510.0022 12820.293 65536
7507.665 496.95911 12492.42 0
7774.3779 509.57437 12809.538 0
7805.0918 506.62628 12735.431 0
7835.2402 503.69852 12661.833 0
7947.3101 506.04282 12720.763 0
7972.3398 502.85284 12640.575 0
7971.6816 498.11731 12521.534 0
8048.8276 498.2861 12525.777 0
8142.2949 499.45294 12555.109 0
9599.9814 583.52063 14668.379 0
9735.3018 586.42053 14741.275 0
8309.625 496.07822 12470.276 0
7366.1704 435.86713 10956.707 0
7374.1802 432.51746 10872.504 0
7343.9775 427.00421 10733.913 0
9819.0205 565.99518 14227.829 0
8748.165 499.96249 12567.918 0
8706.7852 493.38489 12402.571 0
7822.9976 439.58194 11050.089 131072
8882.6768 494.9711 12442.445 0
8956.1777 494.94626 12441.821 0
9042.3066 495.61404 12458.607 0
9122.4551 495.9458 12466.947 0
8622.4785 464.98758 11688.729 460551
8756.6963 468.45132 11775.8 0
9366.2002 497.08466 12495.576 0
9419.4883 495.98013 12467.811 0
9497.8936 496.20505 12473.464 0
9594.8984 497.39059 12503.267 0
9694.2139 498.67682 12535.6 0
9832.5908 501.9375 12617.564 0
9827.1025 497.86026 12515.072 0
9908.748 498.22556 12524.255 0
9582.3193 478.21979 12021.355 657929
10171.912 503.88724 12666.577 0
10338.198 508.36218 12779.067 0
10439.452 509.59735 12810.116 0
10671.043 517.13098 12999.494 65536
10700.374 514.82495 12941.525 0
10760.227 514.00983 12921.035 0
10871.532 515.64667 12962.184 0
10722.729 505.01019 12694.806 0
10836.16 506.78656 12739.459 0
10957.314 508.89691 12792.509 0
11093.799 511.68527 12862.602 0
11175.82 511.94061 12869.021 0
11391.749 518.28479 13028.499 0
11680.164 527.81897 13268.166 65536
11880.071 533.25244 13404.751 65536
12054.057 537.45776 13510.463 65536
12288.611 544.29016 13682.215 65536
12501.208 550.06653 13827.42 65536
12762.617 557.90125 14024.366 65536
12994.426 564.34875 14186.442 65536
13258.4 572.10107 14381.318 65536
13218.852 566.74097 14246.577 65536
14953.274 637.02167 16013.273 65536
15497.541 656.03241 16491.16 65536
15821.889 665.55328 16730.494 65536
14712.923 615.03894 15460.679 0
16411.596 681.78986 17138.645 0
16968.082 700.56 17610.482 0
17311.801 710.36926 17857.064 0
0 0 0 0
0 0 0 0
0 0 0 0
-9809.1621 493.61688 10795.529 0
-9829.4854 497.89633 10889.121 0
-9774.0117 498.36768 10899.43 0
-9849.835 505.58472 11057.268 0
-9845.1533 508.73862 11126.245 0
-9798.6807 509.76111 11148.607 0
-9751.6533 510.76849 11170.639 0
-9704.0244 511.75793 11192.278 0
-9709.1006 515.55975 11275.425 0
-11313.187 604.91296 13229.603 0
-10940.771 589.0943 12883.645 0
-10695.662 579.95563 12683.779 0
-9691.8896 529.25787 11575.007 0
-11817.534 649.94922 14214.558 0
-11691.44 647.64417 14164.145 0
-11573.664 645.76971 14123.15 0
-11456.526 643.90381 14082.342 0
-10151.112 574.73291 12569.558 0
-10292.628 587.06555 12839.275 0
-10184.561 585.2406 12799.363 0
-10495.125 607.62524 13288.921 0
-10059.26 586.8064 12833.607 0
-9984.9863 586.92401 12836.18 0
-9915.6992 587.33881 12845.251 0
-9833.6807 587.00012 12837.844 65536
-8813.2119 530.19922 11595.594 65536
-9631.7588 584.00946 12772.438 65536
-7779.2627 475.43277 10397.837 65536
-7730.6333 476.24405 10415.58 0
-7684.7993 477.24191 10437.404 0
-7626.5068 477.4761 10442.526 0
-7584.4517 478.73907 10470.147 0
-7833.5938 498.55573 10903.542 0
-7781.1489 499.34879 10920.887 0
-7727.9912 500.10907 10937.515 0
-7673.585 500.80081 10952.644 0
-7607.1279 500.71121 10950.684 0
-7558.3828 501.79593 10974.406 0
-7498.0376 502.12271 10981.553 0
-7424.6992 501.57745 10969.628 0
-7351.8398 501.05518 10958.206 0
-7598.3828 522.48657 11426.917 0
-7540.0552 523.15167 11441.463 0
-7483.3169 523.94019 11458.708 0
-7426.1655 524.71405 11475.632 0
-7368.7832 525.48578 11492.51 0
-7310.2295 526.18756 11507.858 0
-7249.6772 526.75745 11520.321 0
-7186.4512 527.14203 11528.732 0
-7125.9087 527.73279 11541.651 0
-7064.2256 528.24976 11552.958 0
-7003.2573 528.83075 11565.665 0
-6939.0142 529.17358 11573.163 0
-6876.8711 529.68512 11584.35 0
-6824.873 530.99615 11613.023 0
-6767.9663 531.94824 11633.846 0
-6712.2861 533.0174 11657.229 0
-6654.3203 533.92548 11677.089 0
-6594.2417 534.6814 11693.619 0
-6532.2681 535.2981 11707.107 0
-6471.2417 536.00653 11722.601 0
-6408.6992 536.60345 11735.655 0
-6347.7583 537.34906 11751.962 0
-6288.2261 538.23181 11771.269 0
-6231.8926 539.41132 11797.065 0
-6173.8291 540.46631 11820.138 0
-6114.4097 541.42542 11841.113 0
-6056.6245 542.55334 11865.781 0
-5999.1675 543.73743 11891.679 0
-5940.5176 544.84052 11915.802 0
-5882.2993 546.01019 11941.384 0
-5825.5288 547.34448 11970.565 0
-5765.083 548.36218 11992.823 0
-5705.8218 549.51947 12018.133 0
-5645.52 550.60455 12041.864 0
-5582.3345 551.43274 12059.977 0
-5523.1528 552.68304 12087.32 65536
-5464.5776 554.02783 12116.731 65536
-5404.7349 555.27826 12144.079 65536
-5340.6382 556.11963 12162.479 65536
-5284.4956 557.82367 12199.747 0
-5224.583 559.17169 12229.229 0
-5162.7305 560.34711 12254.936 0
-5105.6938 562.08643 12292.975 0
-5047.4189 563.73785 12329.092 0
-4986.2222 565.10687 12359.033 0
-4923.0293 566.28717 12384.847 0
-4857.1177 567.18579 12404.5 0
-4790.5493 568.03436 12423.058 0
-4743.2485 571.22986 12492.943 0
-4700.5352 575.08807 12577.325 0
-4658.1304 579.10956 12665.275 0
-4610.5762 582.61237 12741.883 0
-4559.3052 585.75464 12810.604 0
-4512.0039 589.52228 12893.005 0
-4458.4458 592.58856 12960.064 0
-4413.8921 596.98047 13056.116 65536
-4359.2368 600.13892 13125.192 0
-4316.3604 605.06348 13232.895 0
-4286.2495 611.99359 13384.458 0
-4236.8267 616.37634 13480.31 0
-4192.4487 621.67609 13596.216 0
-4143.4956 626.49225 13701.548 0
-4090.2974 630.84692 13796.785 0
-4043.4146 636.37378 13917.658 0
-4020.5164 645.98505 14127.859 0
-3955.8071 649.1452 14196.973 0
-4003.3491 671.26489 14680.736 0
-3943.7153 675.99908 14784.275 65536
-3758.7449 658.97522 14411.959 65536
-3723.9023 668.09143 14611.331 65536
-3619.3816 664.84369 14540.303 65536
-3538.7478 665.93219 14564.109 65536
-3476.7183 670.66406 14667.596 65536
-3543.9954 701.22424 15335.955 65536
-3456.1658 701.89795 15350.689 65536
-3334 695.44592 15209.582 65536
-3338.48 715.78784 15654.464 0
-3219.595 710.08759 15529.799 0
-3157.8403 717.02301 15681.479 0
-3048.675 713.28778 15599.788 0
-2950.281 711.91742 15569.817 0
-2864.8396 713.68506 15608.476 0
-2802.2729 721.46014 15778.52 0
-2728.2712 726.72772 15893.723 0
-2656.3469 732.94635 16029.726 0
-2585.8279 740.02979 16184.643 0
-2492.5896 740.90747 16203.837 0
-2400.7051 742.27417 16233.728 0
-2323.9072 748.61536 16372.411 0
-2252.7036 757.39166 16564.352 0
-2175.2371 764.76819 16725.678 0
-2094.4629 771.63263 16875.805 0
-2009.1438 777.42896 17002.572 0
-1913.5887 779.6687 17051.555 0
-1817.9325 782.1153 17105.064 0
-1735.2067 790.74438 17293.783 0
-1652.4415 800.44098 17505.85 0
-1577.2228 815.34174 17831.734 0
-1484.0724 822.45178 17987.232 0
-1386.9521 828.29492 18115.023 0
-1283.9022 831.28229 18180.357 0
-1189.9574 841.25555 18398.477 0
-1089.9659 848.53998 18557.789 0
-987.84735 855.62231 18712.682 0
-881.86578 860.7312 18824.414 0
-766.46368 856.79401 18738.307 0
-665.51428 870.42078 19036.326 0
-550.10828 866.84912 18958.213 0
0 0 0 0
-320.90417 856.56274 18733.248 0
-218.30115 892.26599 19514.088 65536
-99.489677 867.56604 18973.893 0
13.194135 862.04022 18853.041 0
0 0 0 0
0 0 0 0
0 0 0 0
0 0 0 0
0 0 0 0
0 0 0 0
0 0 0 0
0 0 0 0
0 0 0 0
0 0 0 0
0 0 0 0
0 0 0 0
0 0 0 0
0 0 0 0
0 0 0 0
0 0 0 0
0 0 0 0
0 0 0 0
0 0 0 0
0 0 0 0
0 0 0 0
2628.718 914.36206 19997.334 196608
2718.2583 904.60773 19784.004 196608
2841.9319 906.55048 19826.492 196608
2936.583 899.44928 19671.188 131072
3037.4661 894.72748 19567.922 65536
3148.0483 893.10571 19532.451 65536
3232.1116 884.34344 19340.818 65536
3358.644 887.40381 19407.75 65536
3460.3101 883.90912 19331.32 65536
3568.5088 882.25409 19295.125 196608
3649.3286 874.14398 19117.756 196608
3734.5576 867.54791 18973.496 196608
3841.0312 866.12903 18942.465 196608
3930.8923 861.15155 18833.607 196608
4028.5745 858.11566 18767.211 196608
4103.0259 850.42841 18599.088 196608
4130.9058 833.74487 18234.215 196608
4272.1504 840.2099 18375.607 196608
4293.0078 823.26611 18005.043 196608
4377.5166 819.05597 17912.965 196608
4432.2822 809.61285 17706.441 196608
4513.3774 805.3056 17612.24 196608
4587.272 799.93793 17494.848 196608
4668.9858 796.14148 17411.82 196608
4746.3296 791.78076 17316.449 196608
4795.2271 782.96039 17123.545 262144
4832.6323 772.66919 16898.475 196608
4889.9546 765.91669 16750.795 393216
4946.0347 759.24292 16604.838 393216
5001.6831 752.76532 16463.172 393216
5033.8643 743.07214 16251.18 393216
5070.2344 734.35071 16060.439 393216
5126.4995 728.77979 15938.602 393216
5181.231 723.19696 15816.505 393216
5203.0117 713.2959 15599.965 393216
5243.0186 706.19635 15444.696 393216
5410.4634 716.21069 15663.713 393216
5485.8813 713.91034 15613.403 393216
5522.7329 706.75104 15456.828 393216
5532.5244 696.41986 15230.882 458752
5332.3154 660.41254 14443.392 524288
5382.0137 656.00696 14347.041 524288
5398.0146 647.69562 14165.27 524288
5406.355 638.73438 13969.286 655360
5414.394 630.00928 13778.466 524288
5562.9141 637.64667 13945.497 524288
5721.271 646.17084 14131.924 524288
5812.395 646.96478 14149.287 655360
5883.6929 645.56085 14118.582 655360
5954.1318 644.10339 14086.707 655360
6022.896 642.50769 14051.81 655360
6080.2539 639.75555 13991.618 720896
6131.3813 636.43091 13918.908 720896
6187.355 633.6911 13858.987 655360
6218.1958 628.48303 13745.087 524288
6235.5234 622.06207 13604.657 458752
6252.9956 615.81964 13468.135 393216
6293.4956 611.97424 13384.034 262144
6329.0034 607.74548 13291.55 262144
6374.6216 604.57983 13222.317 196608
6437.9204 603.14777 13190.997 196608
6507.7354 602.35321 13173.62 65536
6577.0127 601.52844 13155.582 65536
6663.5737 602.28522 13172.134 65536
6729.7363 601.20215 13148.446 65536
6767.9399 597.67493 13071.305 65536
6838.8242 597.08093 13058.313 65536
6902.1738 595.84985 13031.39 65536
6976.8657 595.61438 13026.24 65536
7046.689 594.97296 13012.213 65536
7084.7896 591.69623 12940.549 65536
7132.9775 589.32318 12888.65 0
7147.293 584.23175 12777.3 65536
7196.1582 582.04193 12729.407 131072
7268.2397 581.75592 12723.152 196608
7355.0684 582.64398 12742.574 196608
7448.3149 584.01715 12772.605 196608
7518.269 583.55469 12762.492 196608
7584.0044 582.7774 12745.491 196608
7602.2178 578.39972 12649.751 65536
7729.3467 582.31329 12735.342 65536
7683.4487 573.24182 12536.947 65536
7706.5161 569.44061 12453.813 0
7800.228 570.88208 12485.338 0
7893.9976 572.30042 12516.358 0
7903.3184 567.62714 12414.152 0
7985.0361 568.19189 12426.504 0
8061.1978 568.35455 12430.061 0
9546.3584 666.95349 14586.444 0
9689.6318 670.87097 14672.121 0
8220.7842 564.09723 12336.953 0
7434.0493 505.60324 11057.673 0
7253.0112 488.96786 10693.854 0
9822.1963 656.41943 14356.063 0
9968.9697 660.49084 14445.105 0
8602.7217 565.10394 12358.969 0
8458.3838 550.91852 12048.729 0
7845.3418 506.69958 11081.65 65536
8720.4082 558.52777 12215.146 65536
8763.8369 556.67487 12174.623 65536
8876.9365 559.24158 12230.758 65536
8880.0449 554.89355 12135.665 65536
8566.375 530.98022 11612.674 65536
9094.9287 559.23651 12230.646 65536
9164.2812 559.0329 12226.193 65536
9225.1582 558.31946 12210.591 65536
9227.5938 554.10785 12118.481 65536
9372.1289 558.42834 12212.972 0
9441.0732 558.21301 12208.263 0
9567.4238 561.36938 12277.293 0
9502.4766 553.33838 12101.653 0
9544.2764 551.59741 12063.577 0
9561.8398 548.49207 11995.663 0
10113.482 575.84216 12593.817 65536
10324.443 583.53522 12762.065 65536
10402.158 583.63983 12764.354 65536
10603.975 590.65558 12917.791 65536
10629.998 587.849 12856.409 0
10677.179 586.24414 12821.311 0
10721.009 584.47937 12782.714 0
10618.752 574.83112 12571.705 0
10745.561 577.63129 12632.945 0
10816.9 577.43158 12628.577 0
10936.197 579.77698 12679.872 0
10927.462 575.34912 12583.034 0
11130.209 582.04077 12729.382 0
11612.459 603.15955 13191.256 0
11793.189 608.43903 13306.719 0
11993.163 614.63434 13442.212 0
12218.877 622.05811 13604.571 0
12495.783 631.97327 13821.419 0
13187.572 662.60461 14491.334 0
