# .PCD v0.7 - Point Cloud Data file format
VERSION 0.7
FIELDS x y z rgb
SIZE 4 4 4 4
TYPE F F F U
COUNT 1 1 1 1
WIDTH 1282
HEIGHT 1
VIEWPOINT 0 0 0 1 0 0 0
POINTS 1282
DATA ascii
-1275.7627 1391.8135 3360.1509 4086124
-1255.5029 1391.4929 3359.377 4020332
-1237.5909 1393.806 3364.9614 4020331
-1218.2201 1394.5251 3366.6978 3954795
-1199.3344 1395.8331 3369.8555 4020588
-1181.3423 1398.243 3375.6733 4151918
-1162.8119 1400.0881 3380.1279 4217710
-1144.2516 1401.9615 3384.6506 4217710
-1124.9292 1402.9514 3387.0405 4152174
-1106.853 1405.5601 3393.3384 4086124
-1087.6194 1406.7682 3396.2551 3954538
-1068.8187 1408.5928 3400.6602 3954538
-1048.1396 1407.9642 3399.1428 3888745
-1027.3079 1407.1022 3397.0613 4020332
-1007.7013 1407.9171 3399.0288 4086124
-988.51935 1409.371 3402.5386 4020331
-969.71643 1411.437 3407.5269 3954795
-951.11035 1413.8839 3413.4341 3954795
-931.58051 1415.0344 3416.2117 3954794
-911.8338 1415.8995 3418.3 4086123
-890.73737 1414.66 3415.3079 3889001
-872.80042 1418.4979 3424.5732 3954537
-851.59766 1417.0846 3421.1611 3889000
-831.8399 1418.0654 3423.5293 4020586
-813.85632 1422.1957 3433.5007 4020586
-793.34766 1422.0128 3433.0591 4021098
-772.12292 1420.5026 3429.4128 3691621
-757.93274 1432.2031 3457.6606 3427936
-737.42017 1432.2759 3457.8362 2243148
-719.47772 1437.4879 3470.4194 3428192
-697.9649 1435.6636 3466.0151 3888486
-678.7074 1438.5083 3472.8828 4086122
-653.57233 1428.6836 3449.1636 4086122
-634.59418 1432.1171 3457.4529 3889000
-612.24738 1427.9236 3447.3289 4020330
-593.04034 1431.0162 3454.7952 3889000
-570.65088 1426.376 3443.5925 4152172
-551.09045 1428.7249 3449.2634 3822950
-531.43372 1430.996 3454.7463 3625571
-513.11304 1437.1919 3469.7048 3757157
-497.28204 1451.172 3503.4558 4151658
-475.32468 1447.7147 3495.1091 4151659
-459.46686 1463.3679 3532.8997 4151659
-434.08511 1448.7349 3497.5723 4020329
-409.81546 1436.5282 3468.1025 4020330
-391.84225 1446.2684 3491.6174 4020329
-373.41263 1455.319 3513.4675 4217451
-353.19647 1458.0667 3520.1011 4151915
-331.7106 1455.5887 3514.1187 4151658
-312.51443 1463.5002 3533.2192 3756387
-291.48938 1463.3702 3532.9053 1647668
-270.01636 1460.7965 3526.6914 1054248
-246.91586 1448.2438 3496.3867 198162
-224.46182 1437.5243 3470.5071 4677744
-206.90704 1459.1866 3522.8049 4152169
-186.21306 1461.0953 3527.4128 3954793
-163.75 1447.8466 3495.4275 4349551
-143.57059 1453.8729 3509.9766 4349295
-122.82605 1455.2529 3513.3081 4414830
-102.17342 1458.51 3521.1716 4480623
-81.249718 1458.5789 3521.3376 4480623
-60.318253 1458.5076 3521.1658 4480623
-39.380726 1458.1365 3520.2698 4480623
-18.493641 1460.9087 3526.9624 4480880
2.468426 1460.9752 3527.123 4480880
23.464823 1463.0632 3532.1638 4415087
44.341732 1459.2471 3522.9509 4480880
65.194649 1457.3428 3518.3533 4415088
86.37619 1461.9253 3529.4167 4217708
106.82516 1454.7407 3512.0715 4283501
127.84484 1456.4066 3516.0935 4415087
148.87982 1457.754 3519.3464 4349294
169.8111 1457.8795 3519.6492 4349294
190.66466 1457.3831 3518.4507 4349295
211.43744 1456.4285 3516.1462 4415088
230.17462 1442.885 3483.4495 4415089
254.18134 1461.8839 3529.3169 4415089
275.17245 1461.9645 3529.5115 4415088
296.44617 1463.4288 3533.0466 4546416
317.79822 1465.0605 3536.9858 4349038
339.18597 1466.644 3540.8088 4217452
360.27509 1466.8268 3541.25 4151658
382.66174 1471.9805 3553.6921 4151658
404.46722 1474.4764 3559.718 4283244
425.33603 1473.4794 3557.3108 4217452
447.28494 1476.1412 3563.7373 4282990
469.88525 1480.615 3574.5378 4282990
490.36078 1478.2961 3568.9397 4217197
511.06552 1476.8319 3565.4048 4151404
532.05109 1476.2635 3564.0325 4085868
552.89728 1475.3667 3561.8674 4151404
573.57037 1474.0912 3558.7878 4151404
594.06085 1472.4536 3554.8347 4019819
615.65894 1473.5797 3557.5532 4019819
636.79944 1473.5723 3557.5352 4019818
658.47473 1474.7629 3560.4097 4085611
679.50684 1474.4838 3559.7358 4085611
700.17487 1473.4554 3557.2529 4151405
722.33099 1475.527 3562.2544 4019818
741.05804 1470.6753 3550.5413 3954282
762.96844 1472.2351 3554.3069 4085868
784.22852 1472.4897 3554.9216 4151404
805.93744 1473.5516 3557.4854 4085611
826.3703 1472.2858 3554.4292 4085611
846.80664 1471.0891 3551.5403 4085611
869.54517 1473.8527 3558.2122 4019818
889.05115 1471.136 3551.6536 3954282
908.46875 1468.4027 3545.0547 4019818
929.15442 1467.7963 3543.5908 4020075
951.22272 1469.3528 3547.3481 4085611
972.53516 1469.6992 3548.1848 4150634
992.72321 1468.368 3544.9709 4150634
1016.5338 1472.3387 3554.5574 4150634
1036.4586 1470.6346 3550.4431 4085098
1059.0874 1472.7585 3555.5706 4085351
1079.88 1472.2957 3554.4534 4019559
1102.2416 1473.9489 3558.4443 3953509
1125.8344 1477.1552 3566.1851 3953509
1146.7483 1476.7931 3565.3108 3953510
1169.1357 1478.3074 3568.9668 3822180
1194.7814 1483.8141 3582.2612 3624288
1223.6361 1493.0436 3604.5432 3163480
1252.6132 1502.1022 3626.4126 3163224
1267.5226 1494.2701 3607.5044 3097428
1291.7877 1497.5446 3615.4097 2702670
1320.3116 1505.5681 3634.7803 2505034
1339.9769 1503.3943 3629.5322 2768206
1362.8904 1504.876 3633.1091 2109761
1389.2653 1510.0739 3645.6582 2438469
1425.0604 1525.1942 3682.1624 2240831
1427.0228 1504.1951 3631.4653 2108987
1471.1077 1527.5604 3687.8745 660764
1483.287 1517.5959 3663.8184 265747
1513.2118 1525.8134 3683.657 594970
1552.6957 1543.2975 3725.8677 1056036
1565.8058 1534.4446 3704.4944 1319979
1598.4164 1544.6819 3729.2097 1847099
1617.9663 1542.1901 3723.1941 2374217
1597.9088 1502.5227 3627.428 3493469
1622.7271 1505.5466 3634.7285 3756383
1604.9354 1469.4773 3547.6492 3492955
1630.8531 1473.8448 3558.1934 3493212
1633.6188 1457.4454 3518.6013 3230042
1646.3755 1450.2612 3501.2571 3295577
1670.3514 1453.0161 3507.908 3427165
1689.5747 1451.6195 3504.5361 3690081
1716.7411 1456.9984 3517.522 3953253
1732.2509 1452.4738 3506.5986 4019046
1753.5812 1452.8793 3507.5776 4084582
1775.0936 1453.4244 3508.8936 4084841
1790.0468 1448.6483 3497.3633 4347756
1804.8102 1443.8304 3485.7317 4348013
1827.8187 1445.6428 3490.1074 4413806
1848.3251 1445.4579 3489.6606 4348270
1871.462 1447.3113 3494.1353 4479600
1893.0789 1447.9615 3495.7051 4479599
1912.6941 1447.0831 3493.5845 4611185
1936.0502 1449.0234 3498.2688 4611185
1957.2083 1449.2949 3498.9243 4545393
1980.1058 1450.8353 3502.6431 4545393
2003.363 1452.6042 3506.9138 4611185
2019.4485 1449.1904 3498.6721 4545649
2036.2932 1446.3854 3491.8999 4545393
2054.9473 1444.9092 3488.3362 4676978
2075.9902 1445.1255 3488.8582 4676978
2095.729 1444.4385 3487.1997 4676978
2119.9233 1446.8057 3492.9146 4677235
2140.9062 1446.9567 3493.2791 4676979
2163.0708 1447.8956 3495.5461 4742772
2186.7146 1449.7975 3500.1375 4677235
2209.9775 1451.4135 3504.0388 4742772
2231.292 1451.7313 3504.8064 4808564
2253.9983 1452.9407 3507.7258 4874357
2275.3938 1453.2906 3508.5708 4742772
2300.1904 1455.7867 3514.5969 4808564
2328.9065 1460.696 3526.4492 4742772
2350.1355 1460.864 3526.8547 4611185
2379.7759 1466.2114 3539.7644 4611185
2406.5044 1469.6865 3548.1543 4545392
2439.5554 1476.9293 3565.6399 4414063
2456.7681 1474.5411 3559.874 4479599
2484.635 1478.5336 3569.5127 4545392
2507.2761 1479.375 3571.5442 4610929
2533.3403 1482.2053 3578.3772 4676721
2563.0837 1487.1232 3590.25 4676721
2590.4502 1490.5918 3598.6243 4742514
2618.4714 1494.3774 3607.7637 4676722
2649.4478 1499.7745 3620.7935 4676722
2687.7292 1509.1865 3643.5159 4676722
2716.2979 1513.0377 3652.8137 4676978
2749.3909 1519.3281 3668 4808307
2784.1636 1526.4403 3685.1707 4808564
2816.5671 1532.153 3698.9619 4808307
2849.6165 1538.1255 3713.3811 4676721
2888.8621 1547.325 3735.5908 4610928
2938.124 1561.7084 3770.3154 4479599
2970.1187 1566.7653 3782.5239 4610672
3002.9041 1572.1602 3795.5486 4479342
3039.8799 1579.6521 3813.636 4413549
3096.3894 1597.1086 3855.7798 4348013
3135.6304 1605.467 3875.9587 4215914
3143.5588 1597.7881 3857.4202 4281963
3145.5952 1587.2473 3831.9724 4084841
3243.2971 1624.7833 3922.5928 4084841
3260.3679 1621.6785 3915.0967 4084839
3220.7681 1590.6299 3840.1384 3887462
3256.5652 1596.9921 3855.4983 3821412
3310.1562 1611.9304 3891.563 4150378
3322.4006 1606.667 3878.8557 4544877
3388.4812 1627.3307 3928.7429 4478828
3454.3999 1647.6346 3977.7612 4215399
3509.2795 1662.4332 4013.488 3228502
3450.2859 1623.4514 3919.377 4412777
3505.7778 1638.4996 3955.7068 4413034
3660.6084 1699.4661 4102.8936 4346985
3591.7703 1656.473 3999.0986 4083814
3625.761 1661.1565 4010.4058 3886436
3662.4102 1666.989 4024.4868 3689056
3703.7544 1674.8689 4043.5105 3624033
3774.5637 1695.8857 4094.2498 3754850
3797.3171 1695.1803 4092.5469 3688543
3817.8826 1693.5134 4088.5225 3556953
3889.0295 1714.1622 4138.3735 2569541
3916.4976 1715.4202 4141.4106 1121320
4026.1521 1752.4353 4230.7734 527638
4045.873 1750.089 4225.1089 329742
3933.3279 1690.9115 4082.241 396307
3977.6147 1699.4672 4102.8965 593689
0 0 0 0
0 0 0 0
0 0 0 0
0 0 0 0
0 0 0 0
0 0 0 0
0 0 0 0
-2759.8306 1310.4427 3118.9512 4085611
-2756.8857 1317.8964 3136.6914 4019818
-2751.9541 1324.4952 3152.3972 4085611
-2739.115 1327.3527 3159.1982 4151404
-2730.0957 1332.1135 3170.5293 4151404
-2717.7817 1335.3215 3178.1648 4019819
-2703.5398 1337.6207 3183.637 4085611
-2692.1365 1341.3668 3192.5527 4019818
-2679.1917 1344.3923 3199.7539 4151404
-2671.1199 1349.924 3212.9194 4217454
-2663.835 1355.9358 3227.228 3954026
-2650.0669 1358.7108 3233.8328 3888232
-2631.5403 1359.0687 3234.6846 3625060
-2625.7695 1366.0682 3251.3442 3822439
-2611.2029 1368.5615 3257.2783 3888232
-2594.7876 1370.1161 3260.9783 3822439
-2582.8105 1374.0549 3270.353 3888232
-2566.6899 1375.8326 3274.584 4085611
-2548.2566 1376.3882 3275.9062 4086122
-2533.2759 1378.8315 3281.7219 3822439
-2513.7715 1378.8315 3281.7219 3493475
-2492.9016 1378.0768 3279.9253 3559267
-2477.4929 1380.3527 3285.3423 3690854
-2454.4727 1378.3905 3280.6719 3559267
-2433.9417 1377.8057 3279.28 3493474
-2409.5322 1374.9984 3272.5986 3559268
-2382.7097 1370.7571 3262.5039 3625060
-2359.0474 1368.2793 3256.6064 3625060
-2337.0544 1366.7367 3252.9351 3690853
-2312.875 1363.8789 3246.1333 3690854
-2288.8247 1361.0499 3239.4001 3756647
-2263.6912 1357.5233 3231.0066 3822696
-2240.3215 1355.0033 3225.0085 3691366
-2218.7861 1353.5586 3221.5703 3691623
-2194.0918 1350.145 3213.4456 3757416
-2173.4941 1349.2145 3211.231 3954538
-2152.7285 1348.1622 3208.7263 3954538
-2133.2361 1347.8955 3208.0918 3954539
-2115.03 1348.4445 3209.3982 4020331
-2093.7517 1347.0266 3206.0237 3954538
-2075.072 1347.2699 3206.6028 3889002
-2057.2043 1348.05 3208.4592 3954538
-2037.9264 1347.9117 3208.1301 3889002
-2020.8573 1349.2456 3211.3049 3889002
-2004.722 1351.2344 3216.0386 3954538
-1977.7979 1345.9194 3203.3887 3888745
-1955.942 1343.9838 3198.7815 4151658
-1936.4882 1343.6769 3198.051 4151915
-1913.9203 1341.1818 3192.1123 4020586
-1885.1439 1334.2424 3175.5962 3954793
-1858.6077 1328.7642 3162.5576 3954537
-1827.2461 1319.6891 3140.9583 4020332
-1785.3251 1302.7217 3100.5745 4020588
-1760.7926 1298.2208 3089.8621 4086124
-1724.6088 1284.9438 3058.262 4151917
-1682.5751 1266.9792 3015.5049 3955049
-1645.7423 1252.5862 2981.2485 4019300
0 0 0 0
-1517.0157 1180.0205 2808.5366 66573
-1505.0576 1183.7438 2817.3984 462616
-1491.4319 1186.2246 2823.3027 462357
-1473.1294 1184.9998 2820.3877 66826
-1451.6379 1181.1521 2811.2297 9
-1437.3625 1183.1545 2815.9958 9
-1419.8158 1182.4795 2814.3894 8
-1402.2015 1181.7318 2812.6096 8
-1385.8732 1182.0626 2813.397 7
-1370.9974 1183.6556 2817.1887 7
-1356.9167 1185.983 2822.728 7
-1339.9232 1185.7911 2822.271 132620
-1332.8181 1194.4559 2842.894 267
-1341.8672 1218.0063 2898.9458 725536
-1368.0967 1257.967 2994.0552 4085606
-1400.064 1304.3263 3104.3936 3757670
-1399.9016 1321.5912 3145.4856 3823208
-1393.963 1333.7969 3174.5356 3823209
-1378.4338 1337.0348 3182.2422 4020331
-1366.088 1343.4935 3197.6145 4020588
-1353.1616 1349.5553 3212.0422 4151917
-1339.9574 1355.5098 3226.2141 4151917
-1327.9259 1362.8407 3243.6621 4020332
-1313.6801 1368.0814 3256.1355 4086124
-1300.4972 1374.6023 3271.656 4020588
-1282.7668 1376.4418 3276.0337 4020588
-1269.266 1382.946 3291.5146 4151917
-1254.834 1388.6238 3305.0281 4086124
-1234.7783 1388.1598 3303.9236 4086381
-1215.7512 1388.8558 3305.5803 4151917
-1196.6675 1389.509 3307.1348 4217710
-1178.4331 1391.1866 3311.1277 4283503
-1160.7714 1393.6086 3316.8923 4283503
-1140.3239 1392.712 3314.7585 4151918
-1121.2642 1393.5089 3316.6548 4086381
-1102.4487 1394.6429 3319.354 4086124
-1085.3062 1397.9734 3327.2805 4020331
-1066.954 1399.8403 3331.7244 3888745
-1050.5221 1404.3451 3342.4458 3625830
-1025.4713 1397.2794 3325.6289 3625830
-1017.4751 1413.6309 3364.5469 3888490
-994.01685 1408.7251 3352.8706 4151918
-974.14478 1408.8049 3353.0605 3888489
-956.62073 1412.3546 3361.5093 3954538
-937.24731 1413.2672 3363.6812 4020331
-918.33289 1414.9269 3367.6311 3889002
-899.19836 1416.3137 3370.9319 3888745
-879.27435 1416.4918 3371.356 3888745
-857.6933 1413.9465 3365.2981 3362402
-841.25336 1419.9576 3379.6047 2901850
-820.88562 1419.4705 3378.4456 4217965
-798.87793 1416.0524 3370.3101 4217709
-778.3421 1415.1343 3368.125 4151915
-759.81885 1417.9237 3374.7639 3823207
-745.75348 1429.4087 3402.0991 3428192
-731.98456 1442.118 3432.3481 3888486
-707.6123 1434.0669 3413.186 3559778
-684.89386 1428.9913 3401.1057 3362399
-663.20038 1425.8105 3393.5352 4020073
-645.02911 1430.2399 3404.0774 3822950
-623.52155 1427.3192 3397.126 2375504
-601.03827 1421.8945 3384.2148 3624290
-582.3678 1425.4266 3392.6216 1913668
-561.22131 1422.9344 3386.6899 1517878
-542.81769 1427.4698 3397.4844 4480622
-522.72955 1427.7548 3398.1626 4283758
-502.87659 1428.7305 3400.4849 4283501
-483.49738 1431.1906 3406.3401 4151915
-463.50787 1431.98 3408.219 4152172
-444.2373 1435.1643 3415.7979 4086122
-423.86957 1434.9393 3415.2622 4151915
-403.77744 1435.6715 3417.0051 4086122
-383.60782 1436.1912 3418.2419 4151915
-364.42691 1440.6777 3428.9204 4152172
-344.13684 1441.0511 3429.8091 4151917
-323.64752 1440.5848 3428.6992 4020588
-303.76169 1442.9224 3434.2627 3888746
-283.06091 1441.4468 3430.7507 4086124
-263.05682 1443.5654 3435.7932 4151917
-241.91963 1439.299 3425.6387 4283758
-221.72644 1440.3811 3428.2141 4151915
-201.87337 1444.1151 3437.1016 4349037
-181.41399 1443.8644 3436.5046 4414830
-160.7289 1441.5258 3430.9385 4480624
-140.20761 1440.1901 3427.7595 4414830
-119.96297 1441.7249 3431.4126 4612209
-99.661095 1443.0599 3434.5901 4612209
-79.254715 1443.1796 3434.8748 4612466
-58.850178 1443.4275 3435.4648 4546417
-38.480396 1445.2443 3439.7888 4612209
-18.090628 1449.5779 3450.103 4480880
2.414408 1449.5079 3449.9368 4480880
23.005196 1454.9865 3462.9761 4415344
43.458794 1450.7115 3452.8015 4415087
63.980278 1450.7183 3452.8174 4415087
84.657738 1453.3994 3459.1987 4415088
105.19933 1453.156 3458.6194 4415088
125.69687 1452.4832 3457.0181 4415088
146.33986 1453.444 3459.3049 4349296
167.0524 1454.7738 3462.47 4349551
187.69345 1455.2576 3463.6213 4349295
208.3885 1456.0231 3465.4434 4481137
228.88622 1455.3961 3463.9509 4546673
249.48906 1455.4858 3464.1646 4546673
270.14978 1455.8738 3465.0879 4481136
291.17322 1458.0231 3470.2034 4480623
312.19995 1459.9034 3474.679 4612209
332.52567 1458.4758 3471.281 4480623
352.99811 1457.8209 3469.7222 4480880
374.27328 1460.3705 3475.7905 4480624
395.3938 1462.0814 3479.8625 4611954
416.52921 1463.6746 3483.6545 4480625
437.68152 1465.1735 3487.2219 4414831
459.65582 1469.1641 3496.72 4282990
481.23416 1471.5986 3502.5142 3888233
502.82004 1473.8533 3507.8806 3756646
521.8894 1468.8458 3495.9624 4085098
543.15637 1470.1702 3499.1143 3756133
559.39813 1458.2965 3470.8542 3558497
582.65979 1464.9169 3486.6111 3953512
608.45392 1477.231 3515.9194 4151404
625.7843 1468.8608 3495.998 4151404
646.57642 1468.8931 3496.0747 4217197
667.60425 1469.442 3497.3816 4414576
688.16901 1468.9696 3496.2568 4282990
708.73572 1468.5287 3495.2075 4282990
729.64441 1468.8014 3495.8567 4085611
750.9314 1469.7996 3498.2322 4085611
771.21417 1468.8312 3495.9275 4085868
792.17218 1469.1659 3496.7241 4085868
813.35443 1469.8888 3498.4448 4151404
833.59656 1468.9191 3496.1367 4151405
853.58832 1467.5658 3492.916 4019818
874.78174 1468.2941 3494.6492 4019818
894.97272 1467.3448 3492.3901 4020075
915.09216 1466.3242 3489.9607 3954282
936.22827 1466.9417 3491.4302 3954282
956.16785 1465.698 3488.4705 4084841
977.8053 1467.0549 3491.7 4084841
998.8457 1467.478 3492.7068 4019305
1018.9759 1466.5739 3490.5549 4085096
1042.0771 1469.8966 3498.4634 4084839
1054.5063 1458.3306 3470.9353 4019302
1082.9211 1468.8914 3496.0708 4019302
1105.6498 1471.4868 3502.2483 3821923
1126.0977 1471.0073 3501.1069 3821923
1149.1827 1473.9276 3508.0574 3953509
1167.6426 1470.9171 3500.8923 3755874
1192.0165 1475.3317 3511.3992 3821667
1216.8083 1480.1029 3522.7551 3558238
1235.9094 1477.9075 3517.53 3492186
1255.8503 1476.7727 3514.8291 3491929
1278.7719 1479.1228 3520.4224 3360343
1300.3674 1479.8882 3522.2439 3031634
1332.0564 1491.934 3550.9138 2965585
1359.5746 1499.0056 3567.7451 3096915
1376.5836 1494.4512 3556.905 3031124
1385.9673 1481.8813 3526.988 3097431
1423.453 1499.2852 3568.4104 3032152
1439.7922 1494.2319 3556.3833 3229275
1448.9507 1481.9807 3527.2244 3230301
1478.551 1490.6884 3547.9495 3624544
1494.5609 1485.6417 3535.938 3493728
1483.9642 1454.6543 3462.1855 3690849
1499.6722 1449.9468 3450.9812 3756128
1516.4491 1446.3857 3442.5056 3887970
1532.8021 1442.5206 3433.3064 3822178
1570.0688 1458.1803 3470.5779 3887973
1572.3688 1441.3802 3430.5923 3887716
1589.5939 1438.5168 3423.7771 3953508
1607.9365 1436.7244 3419.511 3953766
1628.6292 1437.0504 3420.2869 3887717
1653.4668 1440.9805 3429.6409 4150889
1664.5184 1432.9468 3410.52 4150888
1685.639 1433.6704 3412.2424 4282474
1701.7875 1430.1981 3403.978 4414059
1722.4423 1430.5499 3404.8154 4479599
1751.9385 1438.1517 3422.9082 4545136
1763.7653 1431.2406 3406.4592 4545393
1789.6174 1435.7384 3417.1643 4611185
1810.8704 1436.4868 3418.9456 4611185
1830.7343 1436.1292 3418.0942 4611185
1849.2632 1434.7435 3414.7964 4611186
1873.5175 1437.7817 3422.0273 4676978
1895.2023 1438.804 3424.4604 4676978
1914.4537 1437.9768 3422.4917 4676979
1936.1844 1439.0096 3424.95 4676979
1954.5918 1437.5764 3421.5391 4611442
1974.2751 1437.1021 3420.4097 4611186
1993.9408 1436.6243 3419.2727 4742771
2014.0236 1436.4537 3418.8667 4676979
2034.5767 1436.6188 3419.2595 4742771
2055.0962 1436.757 3419.5884 4676979
2078.9041 1439.1688 3425.3289 4742772
2102.4219 1441.3352 3430.4849 4742771
2126.8674 1444.0896 3437.0408 4742772
2150.8733 1446.4962 3442.7686 4808565
2174.3784 1448.5237 3447.594 4742772
2196.8379 1449.8234 3450.6875 4874357
2218.8374 1450.7982 3453.0076 4939893
2243.9248 1453.7557 3460.0469 4808564
2268.624 1456.4103 3466.3647 4677235
2293.5393 1459.1545 3472.8962 4742514
2324.2725 1465.5181 3488.042 4610928
2349.2419 1468.1672 3494.3472 4150121
2377.1213 1472.5724 3504.8318 3229019
2403.2793 1475.8439 3512.6184 3557983
2430.1631 1479.5012 3521.3232 3821669
2442.1023 1474.0752 3508.4087 3624290
2448.2476 1465.2734 3487.46 4150377
2503.5896 1485.8165 3536.354 4545136
2539.2087 1494.4099 3556.8066 4676721
2559.4902 1493.9092 3555.615 4610929
2589.4539 1499.0217 3567.7832 4610928
2620.2083 1504.5051 3580.8342 4545392
2648.4355 1508.4609 3590.2493 4610929
2678.8162 1513.5701 3602.4092 4676721
2709.2417 1518.6233 3614.4365 4676721
2745.5647 1526.8768 3634.0806 4676722
2776.0645 1531.7883 3645.7703 4676721
2803.0444 1534.6965 3652.6921 4742514
2866.8906 1557.5897 3707.1797 3689056
2879.4707 1552.4932 3695.0493 3951971
2922.5081 1563.7708 3721.8906 3887461
2948.0918 1565.6099 3726.2681 3952229
2986.1453 1573.9944 3746.2239 4214885
3011.5083 1575.6152 3750.0815 2174018
3057.3911 1587.8694 3779.2471 1317938
3094.8022 1595.5769 3797.5918 1646649
3120.019 1596.9315 3800.8159 1779262
3135.4639 1593.301 3792.1748 2898771
3148.0847 1588.2971 3780.2654 3228248
3153.0588 1579.5339 3759.4084 3624289
3207.8391 1595.6688 3797.8108 4281449
3246.1199 1603.4285 3816.2791 4347755
3253.1292 1595.7407 3797.9819 4347755
3276.0901 1595.9301 3798.4321 4216169
3312.9111 1602.822 3814.8359 4150375
3318.5239 1594.6243 3795.3245 3887460
3360.7097 1603.9927 3817.6221 3821668
3408.1609 1615.7317 3845.562 3755876
3461.2388 1629.9642 3879.436 3755106
3468.6794 1622.6589 3862.0488 3623263
3520.3386 1635.9991 3893.7998 3294299
3553.1519 1640.4642 3904.427 3688800
3594.0552 1648.5822 3923.748 3622750
3627.3745 1653.1392 3934.5942 3557214
3664.344 1659.2906 3949.2354 3623263
3701.2935 1665.3547 3963.6685 3623262
3649.6116 1631.7159 3883.6055 3754588
3712.0378 1649.1959 3925.2092 3689052
3680.0249 1624.7621 3867.0547 3163734
3702.614 1624.5892 3866.6433 3624030
3669.2422 1600.0161 3808.1572 3492444
3810.969 1651.6298 3931.0017 3820637
0 0 0 0
0 0 0 0
0 0 0 0
0 0 0 0
0 0 0 0
0 0 0 0
0 0 0 0
-2711.2971 1305.6086 3064.1023 4217197
-2718.0012 1317.6876 3092.45 4151661
-2705.8674 1320.7361 3099.6045 4151404
-2692.5679 1323.2535 3105.5125 4217197
-2679.5049 1325.9227 3111.7769 4085611
-2672.6707 1331.7327 3125.4121 4085868
-2664.5938 1337.0005 3137.7749 4151404
-2650.2778 1339.1899 3142.9133 4020075
-2635.3604 1341.1044 3147.4062 3888232
-2626.4373 1346.1184 3159.1736 3690853
-2625.2646 1355.2056 3180.5 3493475
-2608.7119 1356.4276 3183.3679 3625060
-2595.9978 1359.678 3190.9961 3822696
-2581.1921 1361.8726 3196.1465 4019818
-2567.0933 1364.4752 3202.2549 4085611
-2551.8015 1366.4784 3206.9558 4151404
-2536.9734 1368.7615 3212.3142 4151405
-2517.2754 1368.432 3211.5408 3888489
-2500.6873 1369.8009 3214.7537 3690853
-2485.3101 1371.8595 3219.5847 3625061
-2458.8066 1367.7605 3209.9651 3559524
-2439.0898 1367.4026 3209.1248 3625060
-2418.3193 1366.4434 3206.8738 3493474
-2403.9041 1369.0884 3213.0813 3493475
-2383.0342 1368.0702 3210.6919 3493731
-2363.1611 1367.6125 3209.6177 3625060
-2339.6313 1365.014 3203.5193 3690853
-2314.3154 1361.3223 3194.8552 3822696
-2293.1216 1360.014 3191.7849 3888232
-2266.3174 1355.3289 3180.7893 3822439
-2234.5701 1347.5839 3162.6128 3822440
-2220.478 1350.4451 3169.3276 3756903
-2197.2944 1347.7784 3163.0696 3691623
-2175.4937 1345.9216 3158.7117 3691366
-2152.0759 1343.0231 3151.9094 3757159
-2130.6541 1341.3303 3147.9365 3888745
-2111.8953 1341.299 3147.863 3954538
-2093.2117 1341.3152 3147.9009 3954538
-2074.8313 1341.5276 3148.3994 3889002
-2055.8206 1341.3328 3147.9421 3889002
-2035.733 1340.4252 3145.8123 3954538
-2017.3361 1340.6243 3146.2795 4086381
-1997.59 1339.9222 3144.6321 4151917
-1982.0547 1342.0581 3149.6445 4151916
-1966.5979 1344.2882 3154.8784 4217708
-1940.0714 1338.9219 3142.2842 4217709
-1919.656 1337.7095 3139.439 4283244
-1899.08 1336.3604 3136.2727 4151915
-1877.4332 1334.2234 3131.2576 4020588
-1852.9642 1330.0183 3121.3884 4020332
-1823.6337 1322.2029 3103.0469 3888746
-1799.6177 1318.1206 3093.4663 3888745
-1766.3221 1307.0872 3067.572 3954538
-1730.4186 1293.8734 3036.561 3954795
-1697.9175 1282.9521 3010.9302 3955049
-1667.9785 1273.7549 2989.3452 4151400
-1553.5977 1199.1808 2814.3291 3031632
-1552.7572 1211.5763 2843.4199 1037
-1513.9299 1194.2784 2802.8237 199959
-1501.5286 1197.6737 2810.7922 199441
-1486.4153 1198.958 2813.8064 330254
-1463.2533 1193.7054 2801.4792 66311
-1450.3628 1196.808 2808.7603 5
-1434.4626 1197.4701 2810.3142 5
-1416.265 1196.2075 2807.3511 6
-1399.8245 1196.4164 2807.8416 7
-1384.0865 1197.2382 2809.77 7
-1368.5031 1198.2153 2812.0632 7
-1355.3611 1201.3807 2819.4922 6
-1340.3466 1202.9447 2823.1626 461846
-1329.5312 1208.365 2835.8833 1039
-1339.0874 1232.677 2892.9407 1187628
-1349.9152 1258.8073 2954.2651 4085349
-1378.5778 1302.4766 3056.7515 3823465
-1374.5704 1316.0336 3088.5681 3889002
-1366.5332 1326.0471 3112.0686 3954538
-1353.4174 1331.3395 3124.4895 3954794
-1343.3002 1339.77 3144.2747 3954538
-1330.9432 1346.1731 3159.302 4086124
-1316.113 1350.222 3168.8042 3954538
-1303.2847 1356.472 3183.4722 3954538
-1291.0559 1363.5394 3200.0583 4020331
-1274.9592 1366.6719 3207.4102 4020331
-1263.4083 1374.8463 3226.5945 3428194
-1236.7722 1366.6039 3207.2505 2177872
-1225.5164 1375.3643 3227.8101 2177871
-1208.8242 1378.2054 3234.4778 3427938
-1185.4414 1373.3868 3223.1692 4020331
-1170.809 1378.714 3235.6714 4086124
-1153.5691 1381.0975 3241.2654 3954539
-1135.6267 1382.7065 3245.0415 4020588
-1116.2053 1382.5394 3244.6492 4020588
-1097.2441 1382.9464 3245.6045 4086124
-1080.3756 1386.0526 3252.8943 4086124
-1063.6943 1389.5168 3261.0242 4020588
-1046.1316 1391.9365 3266.7031 4020587
-1026.2626 1391.3213 3265.259 3822181
-1005.3721 1389.2706 3260.4465 529440
-988.54504 1392.865 3268.8818 780
-973.8194 1399.6234 3284.7434 331546
-949.53485 1392.6392 3268.3521 4282218
-941.19562 1409.2375 3307.3064 4283503
-923.33392 1411.9821 3313.7476 4217710
-903.66583 1412.0237 3313.8452 4152174
-885.76959 1414.8975 3320.5896 4152174
-866.38672 1415.4736 3321.9417 4086381
-848.05634 1417.8361 3327.4861 4086124
-837.53851 1433.6846 3364.6807 4283502
-806.87091 1414.973 3320.7668 4151917
-790.03027 1420.1786 3332.9836 3954537
-767.81079 1415.7341 3322.553 3823206
-747.25421 1414.202 3318.9575 3822950
-728.37811 1415.8535 3322.8333 3691364
-708.81512 1416.2249 3323.7046 3954536
-687.80316 1413.639 3317.6362 4151916
-667.09406 1411.5415 3312.7136 4152429
-647.65759 1412.0913 3314.0039 4152430
-627.27167 1410.5405 3310.3645 4152684
-613.84033 1425.0344 3344.3796 4086892
-591.57599 1419.3063 3330.9365 4020586
-573.03217 1422.4166 3338.2361 4415088
-550.99921 1416.7787 3325.0046 4415088
-530.27667 1414.2162 3318.9905 4283501
-511.3674 1416.4783 3324.2993 4283501
-492.29681 1418.4574 3328.9441 4283501
-472.28775 1417.7849 3327.366 4217708
-453.31949 1420.3146 3333.3027 4086122
-434.85532 1424.7272 3343.6584 4086379
-415.02557 1424.8739 3344.0032 4217708
-395.41348 1425.8203 3346.2241 4217708
-375.6821 1426.4142 3347.6179 4349037
-356.14249 1427.8433 3350.9717 4283244
-337.71838 1434.1787 3365.8403 4283244
-317.6983 1434.1077 3365.6736 4217708
-298.61719 1438.5505 3376.1003 4349037
-278.44186 1437.9824 3374.7668 4217197
-258.10236 1436.4124 3371.0825 4349037
-237.59081 1433.54 3364.3416 4480623
-218.20552 1437.5598 3373.7754 4480623
-198.46695 1439.8303 3379.1038 4546416
-178.59035 1441.4974 3383.0166 4480624
-158.50829 1441.7194 3383.5371 4546416
-138.23143 1439.9763 3379.4463 4546416
-118.07696 1439.1321 3377.4651 4612209
-98.025826 1439.4597 3378.2341 4546416
-77.949722 1439.495 3378.3169 4546416
-57.898621 1440.1765 3379.9163 4546416
-37.757366 1438.1483 3375.1565 4480623
-17.804405 1446.8239 3395.5168 4283758
2.3740513 1445.441 3392.2717 4349294
22.537596 1445.5759 3392.5881 4415088
42.658821 1444.151 3389.2439 4480880
62.778175 1443.5969 3387.9436 4415087
83.025833 1445.546 3392.5178 4349294
102.93266 1441.9585 3384.0986 4349294
123.14924 1443.1741 3386.9512 4415087
143.59497 1446.3561 3394.4189 4349294
163.9111 1447.6095 3397.3606 4480880
184.08791 1447.4924 3397.0859 4480880
204.38118 1448.2239 3398.8025 4480880
224.98409 1450.8203 3404.8962 4480881
245.13654 1450.3232 3403.7295 4480880
265.63657 1451.8015 3407.199 4414830
284.53741 1444.9496 3391.1182 3559521
306.15057 1451.8665 3407.3513 4151914
327.28149 1455.7803 3416.5364 4349294
348.28351 1458.6967 3423.3809 4349039
367.81506 1455.4727 3415.8145 4282990
388.7244 1457.7526 3421.165 4414577
409.35971 1458.8293 3423.6921 4480369
429.98117 1459.757 3425.8694 4414576
451.79596 1464.469 3436.9277 4480369
472.6824 1465.8943 3440.2727 4480369
492.52866 1464.1093 3436.0837 4282991
514.23077 1467.7637 3444.6599 3887718
533.46686 1464.3688 3436.6926 1649727
555.28442 1468.0493 3445.3303 1385270
576.8385 1470.7961 3451.7769 2834002
594.12726 1462.8523 3433.1335 3426911
614.00958 1461.6096 3430.2173 4348527
635.09296 1463.2142 3433.9832 4414576
655.98889 1464.3004 3436.5322 4349040
675.94287 1463.2819 3434.1418 4414833
696.52979 1463.653 3435.0127 4414833
716.336 1462.4092 3432.0938 4414576
736.97986 1462.897 3433.2385 4348783
757.00037 1462.1544 3431.4958 4217197
777.31549 1462.0051 3431.1453 4151404
797.88568 1462.3308 3431.9099 4085612
818.56567 1462.8365 3433.0964 4151404
837.47906 1460.2372 3426.9963 4151404
856.10059 1457.2646 3420.02 4151404
879.65009 1462.6239 3432.5974 4085611
899.40265 1461.5701 3430.1243 4085611
919.61273 1461.2898 3429.4668 4019818
939.55023 1460.5981 3427.8433 4216427
958.81427 1458.9109 3423.8835 4282220
981.09564 1461.7896 3430.6394 4282220
1001.5356 1461.8633 3430.8125 4216427
1020.7006 1460.1102 3426.6982 3953512
1042.8357 1462.5913 3432.5212 4084841
1065.4392 1465.6215 3439.6326 4019048
1085.8307 1465.5522 3439.47 3953255
1105.4402 1464.4492 3436.8813 3953511
1128.1296 1467.3926 3443.7893 4019302
1147.6461 1466.1775 3440.9375 3887973
1169.8713 1468.4049 3446.1648 3822180
1191.2166 1469.4701 3448.6648 3756387
1211.2719 1468.9348 3447.4087 3558751
1234.3705 1472.0469 3454.7122 3624800
1258.1434 1475.848 3463.6328 3624799
1276.1108 1472.8262 3456.541 3624287
1296.8489 1473.0474 3457.0601 3426909
1315.9397 1471.4197 3453.24 3295066
1345.0961 1480.9238 3475.5454 3492444
1353.6678 1467.8202 3444.7927 3492700
1372.4974 1466.0642 3440.6716 3559007
1395.5975 1468.8542 3447.2195 3756130
1407.7312 1460.1886 3426.8823 3821923
1424.327 1456.3325 3417.8325 3953510
1442.637 1454.3129 3413.0928 3888486
1459.2277 1450.6403 3404.4734 3953507
1478.4612 1449.6593 3402.1711 4085093
1495.0201 1446.1176 3393.8594 3953507
1511.9889 1443.0616 3386.6873 3822179
1529.3951 1440.4978 3380.6704 4085095
1546.9221 1438.1127 3375.0728 4150888
1570.9492 1441.7543 3383.6191 4216682
1580.6635 1432.334 3361.5107 4282475
1599.7324 1431.5201 3359.6008 4282221
1617.1697 1429.2841 3354.353 4413807
1638.675 1430.6541 3357.5684 4413806
1657.7467 1429.892 3355.7798 4479600
1679.5503 1431.4763 3359.498 4479856
1700.4287 1432.2444 3361.3005 4545392
1721.5529 1433.199 3363.541 4545649
1741.537 1433.1936 3363.5283 4676978
1761.6448 1433.2889 3363.7522 4611186
1787.5099 1438.0138 3374.8406 4676979
1805.6023 1436.4502 3371.1711 4611442
1820.3457 1432.2859 3361.3979 4742772
1841.4689 1433.1772 3363.49 4742771
1861.8568 1433.4833 3364.208 4742771
1884.5199 1435.516 3368.9785 4676979
1904.9332 1435.8101 3369.6689 4676979
1930.6105 1440.0245 3379.5598 4874357
1945.225 1435.9855 3370.0806 4808564
1964.0786 1435.1263 3368.0642 4742771
1984.3669 1435.3221 3368.5237 4676979
2003.7998 1434.9016 3367.5366 4742772
2024.9755 1435.7247 3369.4685 4677235
2047.9738 1437.8116 3374.3662 4808564
2070.2551 1439.3595 3377.9988 4742772
2094.894 1442.501 3385.3716 4742772
2116.0725 1443.2227 3387.0652 4808564
2141.0117 1446.4714 3394.6897 4742771
2162.1597 1447.1221 3396.2166 4742771
2186.9561 1450.1799 3403.3933 4874100
2209.0466 1451.4041 3406.2659 4874100
2235.3149 1455.3259 3415.47 4808308
2265.231 1461.5304 3430.0312 4544622
2294.4685 1467.1908 3443.3154 3886948
2330.2231 1476.8812 3466.0576 3887205
2391.3787 1502.36 3525.8533 4413549
2386.1067 1486.026 3487.5193 4544878
2442.8701 1508.2753 3539.7358 3558240
2460.4963 1506.1868 3534.8342 3426911
2490.5403 1511.6708 3547.7046 3690082
2466.2983 1484.3898 3483.6794 3887205
2506.5459 1496.0541 3511.0542 3952998
2509.8723 1485.6711 3486.6865 4216427
2555.5991 1500.3507 3521.1377 4216171
2587.4861 1506.7325 3536.1152 4347756
2611.0557 1508.2073 3539.5762 4347756
2639.2092 1512.2853 3549.1467 4413550
2666.9297 1516.0522 3557.9873 4479343
2700.6841 1523.1631 3574.6755 4545137
2727.0344 1526.0197 3581.3796 4479342
2760.6343 1532.8574 3597.427 4413806
2795.554 1540.3171 3614.9341 4346986
2836.9773 1551.2192 3640.52 3228249
2896.1506 1571.5883 3688.3237 1319738
2919.7144 1572.4731 3690.4001 2108485
2942.6567 1573.0125 3691.666 3029070
2967.6443 1574.629 3695.46 3555155
2990.1223 1574.9 3696.0959 659491
3038.5881 1588.7552 3728.6123 857126
3022.2251 1568.7587 3681.6829 724507
3077.4783 1585.9565 3722.0442 723735
3111.7461 1592.1714 3736.6296 526098
3102.6375 1576.2612 3699.2905 1252143
3139.385 1583.7081 3716.7671 2767183
3145.0388 1575.4744 3697.4436 2570319
3161.6111 1572.7866 3691.1357 3030867
3210.5452 1586.1239 3722.4365 4478313
3256.9741 1598.0492 3750.4241 4280934
3289.6184 1603.0951 3762.2661 4216169
3314.1116 1604.1273 3764.6887 4216169
3347.7881 1609.561 3777.4409 4215913
3375.3113 1611.9838 3783.1265 4150377
3408.9814 1617.2904 3795.5808 4150120
3443.6074 1622.9778 3808.9282 4149864
3484.9167 1631.7202 3829.4458 3886435
3507.4761 1631.6271 3829.2271 3754849
3558.0452 1644.4806 3859.3931 3557470
3595.9656 1651.3612 3875.5405 3360348
3629.8904 1656.3309 3887.2041 3491164
3661.5266 1660.2001 3896.2842 3425372
3699.636 1666.9371 3912.0955 3425372
3725.8945 1668.2837 3915.2556 3294043
3784.49 1684.0028 3952.1462 3358809
3665.1802 1620.8529 3803.9414 2109255
3598.2786 1581.5116 3711.6125 2109254
0 0 0 0
0 0 0 0
0 0 0 0
0 0 0 0
0 0 0 0
0 0 0 0
0 0 0 0
-2687.3542 1312.1293 3037.0437 3954025
-2679.4741 1317.1287 3048.6152 3954282
-2669.7529 1321.2847 3058.2349 3888232
-2663.9316 1327.441 3072.4844 3954025
-2648.2515 1328.736 3075.4814 3822439
-2635.8938 1331.7274 3082.4055 3756903
-2624.3103 1335.1547 3090.3379 3690853
-2602.9268 1333.609 3086.7605 3756646
-2592.6162 1337.7551 3096.3569 3822696
-2586.3037 1344.0381 3110.8997 3888489
-2573.9668 1347.2583 3118.353 3954025
-2562.8662 1351.1769 3127.4231 3954026
-2547.2666 1352.7637 3131.0957 4217197
-2532.3643 1354.7467 3135.6858 4151404
-2517.6943 1356.8844 3140.6335 4019818
-2507.1226 1361.2793 3150.8059 3954025
-2481.7825 1357.6611 3142.4314 3954026
-2466.9446 1359.7771 3147.3289 3888232
-2447.5837 1359.413 3146.4863 3756903
-2426.2632 1357.9468 3143.0925 3559267
-2407.3916 1357.839 3142.843 3361888
-2389.8059 1358.4606 3144.2817 3361888
-2371.7798 1358.8395 3145.1587 3559267
-2351.2861 1357.7994 3142.7515 3625060
-2332.9402 1357.9932 3143.1997 3690853
-2312.2732 1356.8278 3140.5024 3756903
-2290.386 1354.9215 3136.0903 3822439
-2267.7832 1352.5575 3130.6184 3822439
-2245.9316 1350.606 3126.1016 3888232
-2222.7522 1347.8167 3119.6453 3822696
-2201.0261 1345.8693 3115.1379 3822439
-2176.8596 1342.3837 3107.0703 3888233
-2154.2427 1339.8022 3101.0955 3888745
-2136.9004 1340.4852 3102.6763 4020332
-2111.6943 1336.2041 3092.7671 4151917
-2095.4885 1337.5929 3095.9814 4086381
-2074.9683 1336.2277 3092.8215 4086381
-2055.8696 1335.762 3091.7437 4020332
-2039.2018 1336.8812 3094.3345 3954538
-2018.7074 1335.4896 3091.1133 4020331
-2001.9875 1336.5923 3093.6655 3954795
-1981.0381 1334.8655 3089.6687 4020331
-1962.5104 1334.7533 3089.4092 3954539
-1946.0786 1336.0782 3092.4758 3954795
-1925.7086 1334.6987 3089.2827 3889002
-1907.6663 1334.9215 3089.7983 3954539
-1886.1272 1332.6779 3084.6052 3888489
-1867.3971 1332.3944 3083.9492 3823209
-1841.6796 1327.0703 3071.6262 3823209
-1816.4725 1322.0112 3059.9165 3822952
-1793.3209 1318.361 3051.4675 3822952
-1768.579 1313.4548 3040.1121 3954538
-1741.1606 1306.4395 3023.874 4086123
-1708.3081 1295.1577 2997.7615 4217708
-1676.71 1284.599 2973.3225 4349038
-1638.3558 1268.5845 2936.2554 4151657
-1534.3987 1200.8816 2779.5505 1980229
-1536.8394 1215.8822 2814.2712 1037
-1517.8058 1214.0366 2809.9993 134936
-1501.5697 1214.4125 2810.8691 1186849
-1480.6675 1210.9805 2802.9255 660502
-1462.1558 1209.4478 2799.3779 132874
-1449.8237 1213.0503 2807.7163 260
-1432.3007 1212.3428 2806.0786 5
-1415.4573 1212.2007 2805.75 7
-1397.9349 1211.4669 2804.0515 7
-1381.6213 1211.7755 2804.7656 7
-1367.037 1213.6268 2809.0508 262
-1354.6943 1217.5386 2818.105 330511
-1341.6638 1220.9224 2825.937 331027
-1334.1873 1229.5103 2845.8145 1294
-1338.821 1249.6222 2892.3652 2767175
-1350.9978 1277.3892 2956.6345 3953507
-1359.6602 1302.5212 3014.8052 3691880
-1351.2018 1311.7043 3036.0603 3757418
-1343.207 1321.5924 3058.9468 3757161
-1330.6539 1327.205 3071.9377 3822954
-1317.1293 1331.9913 3083.0164 3822954
-1304.1207 1337.4421 3095.6326 3823211
-1291.3632 1343.3097 3109.2136 3888747
-1276.8024 1347.4448 3118.7849 3889004
-1265.6437 1355.3451 3137.0706 3954795
-1250.5024 1359.153 3145.8843 4020332
-1234.9868 1362.6633 3154.0095 3954538
-1219.7242 1366.5653 3163.041 4020331
-1207.439 1373.9775 3180.1973 4217710
-1188.3827 1373.7981 3179.7817 4086381
-1165.605 1369.2412 3169.2346 4151917
-1145.4878 1367.7113 3165.6934 4086124
-1129.2772 1370.8727 3173.0107 4217710
-1112.1846 1373.0525 3178.0559 4085867
-1093.892 1373.8005 3179.7876 4152174
-1074.7289 1373.4626 3179.0054 4020331
-1059.6056 1378.3673 3190.3579 4086124
-1041.1744 1379.0698 3191.9836 4086124
-1023.4625 1380.7684 3195.9155 4021101
-1008.235 1385.9467 3207.9009 4020845
-967.22748 1355.2034 3136.7427 4283503
-964.48175 1377.9148 3189.3103 4283246
-968.50983 1411.4083 3266.8342 3954538
-941.7478 1400.4838 3241.5483 4217710
-931.4837 1414.1498 3273.1794 4217711
-909.44434 1410.1404 3263.8994 4349040
-890.47681 1410.8231 3265.4797 4217710
-871.69092 1411.8304 3267.8113 4217710
-855.67853 1417.4781 3280.8835 4152174
-843.00238 1429.0449 3307.6558 4020331
-818.57941 1420.7756 3288.5156 3888489
-796.37415 1416.045 3277.5662 3757416
-775.81427 1414.076 3273.009 3757159
-756.62927 1414.5764 3274.167 3954538
-736.9751 1414.2029 3273.3025 4020588
-717.23798 1413.6456 3272.0127 4217711
-695.19153 1408.3788 3259.822 4217708
-676.63043 1410.0732 3263.7441 4283501
-657.6355 1410.9371 3265.7437 4217709
-638.24683 1410.983 3265.8499 4283501
-619.17108 1411.7454 3267.6143 4151915
-600.9021 1414.4561 3273.8884 3889000
-582.90765 1418.0161 3282.1284 3822952
-563.06866 1417.1799 3280.1931 3691364
-542.43909 1414.2228 3273.3484 3954536
-523.33801 1415.1788 3275.5615 3889001
-503.99374 1415.5258 3276.3645 3757415
-484.4577 1415.3403 3275.9353 3822952
-464.61444 1414.2042 3273.3057 4020329
-445.8273 1416.324 3278.2119 4217708
-426.98071 1418.4399 3283.1096 4415087
-407.64804 1419.0665 3284.5598 4415087
-388.85175 1421.7172 3290.6951 4415087
-369.88745 1424.0017 3295.9829 4283501
-351.05127 1427.0629 3303.0681 4217965
-331.77594 1428.5955 3306.6155 4283501
-312.03116 1428.1724 3305.6362 4217708
-292.60767 1429.2618 3308.158 4152172
-273.03427 1429.7234 3309.2261 4348783
-253.40057 1429.9163 3309.6724 4283245
-233.87183 1430.7837 3311.6802 4546416
-214.5571 1433.24 3317.3655 4480623
-194.75597 1432.6156 3315.9204 4414830
-175.28716 1434.5703 3320.4448 4480624
-155.68491 1435.7905 3323.269 4349294
-136.18704 1438.4677 3329.4656 4283244
-116.0781 1434.5034 3320.29 4349039
-96.361862 1434.7626 3320.8896 4414575
-76.593536 1434.1796 3319.5403 4348783
-56.885155 1434.7037 3320.7537 4414576
-37.14212 1434.447 3320.1594 4414576
-17.44356 1437.2725 3326.6992 4217710
2.3289652 1437.7689 3327.8481 4283503
22.128321 1439.1221 3330.9802 4415089
41.93515 1439.4539 3331.748 4480880
61.95163 1444.4609 3343.3374 4415087
81.453743 1437.9557 3328.2805 4415087
101.12237 1436.3578 3324.582 4415087
121.08134 1438.7323 3330.0781 4414830
140.8849 1438.8524 3330.356 4480880
160.71164 1439.1504 3331.0459 4415089
180.67487 1440.4712 3334.103 4415089
200.6792 1441.8263 3337.2395 4415090
221.05737 1445.382 3345.4695 4612466
241.20943 1446.9944 3349.2014 4612211
260.81613 1445.3389 3345.3694 4611441
281.24332 1448.1425 3351.8589 3295324
295.76746 1422.1907 3291.7908 923944
318.24078 1435.311 3322.1592 1582905
341.67838 1450.9933 3358.4573 4348526
360.63757 1446.976 3349.1587 4217197
381.02475 1448.8086 3353.4006 4217198
401.07321 1449.2351 3354.3877 4217198
421.67773 1451.5353 3359.7119 4282990
441.67532 1451.6328 3359.9375 4348783
461.59592 1451.4799 3359.5835 4348784
481.63434 1451.6945 3360.0803 4217197
502.9465 1455.5786 3369.0703 4217198
526.43756 1465.2297 3391.4087 4020331
546.94098 1466.1602 3393.5623 4085868
570.58765 1475.1509 3414.3721 4151404
591.21912 1475.9962 3416.3289 4151660
603.82043 1457.4038 3373.2949 4151917
623.89783 1457.4708 3373.4502 4151661
643.54254 1456.5546 3371.3293 4217454
663.88824 1457.2323 3372.8979 4348783
683.68494 1456.7004 3371.667 4282990
703.7608 1456.7769 3371.8438 4348783
723.44067 1456.052 3370.166 4349040
742.80933 1454.7566 3367.1677 4348783
764.11005 1457.2139 3372.8552 4282990
784.72565 1458.2723 3375.3052 4217198
805.4342 1459.4464 3378.0227 4217197
824.35345 1457.4 3373.2861 4217197
844.7771 1458.0472 3374.7844 4217197
864.90729 1458.1699 3375.0681 4085611
884.44177 1457.3053 3373.0669 4085611
903.74707 1456.1097 3370.2998 3954025
923.29852 1455.354 3368.5505 4084585
945.11749 1458.1288 3374.9731 4019048
963.25842 1455.2316 3368.2673 4019305
979.89099 1450.2202 3356.6677 3229532
1003.9559 1456.1887 3370.4827 4084841
1023.6796 1455.7506 3369.4683 4019303
1045.4146 1458.1343 3374.9858 4085096
1063.4412 1455.3533 3368.5488 4150634
1083.9535 1456.0139 3370.0779 4019305
1106.0583 1458.7511 3376.4133 3953510
1126.6023 1459.3688 3377.843 4019303
1146.6565 1459.3413 3377.7795 4019303
1168.0505 1460.9908 3381.5974 3756132
1190.2009 1463.5145 3387.4387 3887973
1209.8197 1462.8931 3386.0002 3953512
1230.2042 1463.2026 3386.717 3756390
1248.7159 1461.3107 3382.3376 3756389
1268.1376 1460.5266 3380.5229 3756133
1289.8165 1462.3264 3384.6887 3822182
1306.943 1458.9886 3376.9631 3953255
1323.6469 1455.2872 3368.396 3953512
1341.6738 1453.129 3363.4006 4019048
1359.1 1450.3931 3357.0681 4019048
1380.8231 1452.2557 3361.3792 4019305
1396.5656 1447.8646 3351.2158 4085098
1411.6685 1442.9436 3339.8254 4150634
1426.9075 1438.296 3329.0684 4150635
1446.098 1437.7042 3327.6985 4216428
1463.9519 1435.8174 3323.3313 4282220
1480.5823 1432.7968 3316.3398 4150891
1500.6639 1433.1516 3317.1611 4084841
1520.9769 1433.7152 3318.4656 4150889
1531.7091 1425.349 3299.1011 4282475
1555.994 1429.6464 3309.0479 4479853
1574.0499 1428.1848 3305.665 4479855
1592.473 1427.0883 3303.127 4479856
1611.1711 1426.2618 3301.2141 4479600
1633.4167 1428.558 3306.5286 4545393
1651.3213 1427.0479 3303.0334 4545649
1674.3795 1429.9749 3309.8081 4676978
1691.6571 1427.9542 3305.1313 4676978
1711.1097 1427.795 3304.7627 4742771
1726.5137 1424.2992 3296.6714 4742771
1751.0779 1428.3541 3306.0569 4742771
1770.5673 1428.2252 3305.7585 4742772
1794.1879 1431.3954 3313.0959 4742772
1815.2877 1432.5072 3315.6694 4742772
1842.2389 1438.1631 3328.7605 4742771
1853.3257 1431.4456 3313.2122 4808564
1874.3918 1432.4962 3315.644 4808564
1894.5195 1432.8151 3316.3821 4808564
1913.6598 1432.3883 3315.3943 4808564
1935.8999 1434.2668 3319.7424 4808564
1955.7297 1434.3397 3319.9111 4874357
1977.0095 1435.464 3322.5132 4808564
1999.1346 1437.1738 3326.4707 4874357
2020.8301 1438.5443 3329.6428 4874357
2041.9425 1439.4771 3331.8018 4808565
2066.5776 1442.8513 3339.6121 4808565
2087.4373 1443.5505 3341.2302 4742772
2109.5417 1445.0896 3344.7925 4742771
2130.7019 1445.9587 3346.8044 4611442
2151.3093 1446.4403 3347.9189 4874100
2180.3193 1452.5107 3361.9695 4874101
2198.6274 1451.406 3359.4126 4874100
2226.033 1456.2731 3370.6777 4741487
2263.0342 1467.2747 3396.1418 4018022
2307.8674 1483.1149 3432.8054 3096919
2343.7402 1492.9694 3455.6147 3492448
2357.6189 1488.7644 3445.8818 4413550
2393.377 1498.3289 3468.0198 4413549
2425.2861 1505.3409 3484.25 4150378
2436.9602 1499.7814 3471.3816 3952998
2454.2026 1497.713 3466.5942 3887206
2476.6958 1498.8568 3469.2417 4281963
2499.6475 1500.257 3472.4824 3096918
2516.5901 1498.057 3467.3904 4281963
2538.2952 1498.7048 3468.8899 4413549
2563.9468 1501.6536 3475.7151 4479599
2591.5854 1505.7097 3485.1035 4479342
2618.5181 1509.2946 3493.4009 4413549
2649.0723 1514.894 3506.3613 4479342
2676.9099 1518.8647 3515.552 4479342
2706.0183 1523.4894 3526.2561 4479342
2741.8987 1531.8262 3545.5525 4479342
2797.1997 1550.803 3589.4761 4413036
2837.0759 1561.0054 3613.0906 3820899
2892.4604 1579.5236 3655.9524 2570320
2921.3694 1583.4154 3664.9604 791853
2939.0078 1581.186 3659.8003 856614
2978.3274 1590.5684 3681.5164 726312
3012.7302 1597.207 3696.8823 1056305
2992.3599 1574.9218 3645.301 2372422
3019.5232 1577.7947 3651.9507 4479341
3006.6946 1559.8787 3610.4822 4807792
3048.7917 1570.5101 3635.0901 4347754
3095.845 1583.5272 3665.219 3688540
3099.7727 1574.4576 3644.2268 2965076
3130.5842 1579.0743 3654.9124 2702417
3137.5142 1571.6643 3637.7612 4412781
3182.5471 1583.3119 3664.7209 4019048
3215.0923 1588.631 3677.0322 3953255
3250.6687 1595.3657 3692.6204 4216426
3281.3965 1599.6465 3702.5286 4281450
3311.5139 1603.5748 3711.6211 4346987
3339.7903 1606.5653 3718.5427 3820900
3369.1426 1610.0306 3726.5637 3491680
3413.7271 1620.6821 3751.2178 3622750
3443.5947 1624.2543 3759.4858 3359834
3470.9692 1626.6118 3764.9424 2570319
3524.408 1641.0754 3798.4199 2964820
3531.0845 1633.7196 3781.394 3491166
3610.8328 1660.0509 3842.3401 3754592
3614.3403 1651.2206 3821.9016 3688800
3650.0325 1657.1121 3835.5381 3491677
3687.0884 1663.5461 3850.4302 3359835
3624.1912 1625.0815 3761.4006 3359835
3572.2927 1591.9905 3684.8083 3031383
0 0 0 0
0 0 0 0
0 0 0 0
0 0 0 0
0 0 0 0
0 0 0 0
0 0 0 0
-2648.6357 1311.0148 2993.2871 4019818
-2641.7192 1316.4335 3005.6589 4085611
-2632.3779 1320.7091 3015.4211 4020075
-2624.324 1325.6938 3026.8022 4019818
-2614.4785 1329.8362 3036.26 3888232
-2603.728 1333.5726 3044.791 3888232
-2587.0254 1334.2914 3046.4321 3888232
-2573.6995 1336.7742 3052.1006 3954025
-2551.8806 1334.8496 3047.7065 3888489
-2545.5374 1341.0505 3061.8643 3888232
-2530.012 1342.4685 3065.1018 4020075
-2517.0676 1345.2865 3071.5359 4085611
-2503.2593 1347.6805 3077.002 3954282
-2485.8391 1348.151 3078.0762 3888489
-2475.7275 1352.6216 3088.283 3954026
-2456.9963 1352.4143 3087.8101 3888232
-2440.3865 1353.3805 3090.0159 3691110
-2419.9958 1352.2485 3087.4316 3690853
-2401.9541 1352.4221 3087.8276 3690853
-2380.6584 1350.7518 3084.0142 3822439
-2359.8147 1349.3142 3080.7317 3888232
-2338.9485 1347.8411 3077.3684 3822440
-2317.9106 1346.245 3073.7241 3822696
-2301.2346 1347.177 3075.8523 3954025
-2281.7551 1346.4697 3074.2373 3888489
-2262.6997 1346.0033 3073.1724 4019818
-2244.4534 1346.0144 3073.1978 4151661
-2222.8674 1344.0065 3068.6133 4085611
-2202.6289 1342.7867 3065.8286 3954025
-2180.0962 1340.1366 3059.7776 4085611
-2160.322 1339.1516 3057.5288 4217197
-2137.0229 1335.9464 3050.2107 4348527
-2116.4272 1334.3909 3046.6592 4217710
-2097.1873 1333.6705 3045.0144 4086381
-2075.1238 1331.1265 3039.2061 4086124
-2056.8784 1331.0085 3038.9368 4020331
-2038.9325 1331.084 3039.1089 4020331
-2020.6954 1330.969 3038.8464 4086124
-2004.696 1332.339 3041.9744 4020588
-1985.6555 1331.6947 3040.5032 3889002
-1967.5317 1331.6587 3040.4211 3888746
-1950.673 1332.4865 3042.3108 3954538
-1932.5297 1332.4436 3042.2131 3822952
-1914.0531 1332.1682 3041.5845 3822952
-1897.8419 1333.4794 3044.5781 3822953
-1875.8256 1330.6975 3038.2266 3823209
-1858.1049 1330.9386 3038.7771 4020075
-1838.0994 1329.5319 3035.5649 4086381
-1812.6049 1324.0874 3023.1343 4086124
-1791.3763 1321.6814 3017.6411 4086125
-1769.2543 1318.5609 3010.5164 4086124
-1745.132 1313.8706 2999.8076 4086123
-1717.4067 1306.343 2982.6208 4086378
-1683.9697 1294.2683 2955.052 4086122
-1653.0184 1283.8699 2931.3103 4020329
-1621.0543 1272.4548 2905.2478 4085864
-1558.0435 1236.1611 2822.3826 2703691
-1540.3507 1235.4247 2820.7012 1035
-1517.813 1230.7433 2810.0127 1056548
-1501.3169 1230.9113 2810.396 1187103
-1483.2589 1229.788 2807.8313 1253151
-1462.4773 1226.3551 2799.9937 1121308
-1446.1824 1226.649 2800.6646 791574
-1429.3186 1226.4614 2800.2363 516
-1411.4789 1225.4222 2797.8638 5
-1395.4777 1225.9735 2799.1223 4
-1378.8789 1226.0067 2799.1982 132102
-1361.1301 1225.0059 2796.9131 1120027
-1353.4701 1233.1722 2815.5583 922391
-1349.7651 1245.1915 2843.0007 66570
-1339.5516 1251.4354 2857.2566 265
-1339.535 1267.488 2893.9077 3820892
-1341.447 1285.8068 2935.7327 3624800
-1340.3905 1301.7255 2972.0781 3493989
-1332.4542 1311.2988 2993.9358 3625575
-1321.9728 1318.5927 3010.5889 3757161
-1312.4436 1327.0497 3029.8977 3888747
-1300.3657 1333.1289 3043.7776 3823211
-1286.3004 1337.3135 3053.3318 4020589
-1272.2736 1341.6582 3063.2517 4086380
-1258.5422 1346.4454 3074.1819 4217710
-1245.2739 1351.8763 3086.5815 4151918
-1229.8469 1355.0909 3093.9211 4020331
-1214.9329 1358.9771 3102.7937 4020331
-1203.6364 1367.0918 3121.3213 4151918
-1192.519 1375.6672 3140.9006 1980748
-1176.589 1378.8752 3148.2251 3296094
