# .PCD v0.7 - Point Cloud Data file format
VERSION 0.7
FIELDS x y z rgb
SIZE 4 4 4 4
TYPE F F F U
COUNT 1 1 1 1
WIDTH 1622
HEIGHT 1
VIEWPOINT 0 0 0 1 0 0 0
POINTS 1622
DATA ascii
-8213.7559 745.34143 9879.8027 0
-8162.1851 745.99469 9888.4619 0
-8114.1836 746.98608 9901.6035 0
-8067.3799 748.10303 9916.4092 0
-8013.002 748.52887 9922.0537 0
-7962.5664 749.33215 9932.7012 0
-7914.7798 750.39844 9946.835 0
-8185.7368 781.92816 10364.775 0
-8140.5703 783.51007 10385.743 0
-8088.4355 784.44019 10398.072 0
-8031.71 784.9361 10404.646 0
-8480.1396 835.19122 11070.799 0
-8300.083 823.8501 10920.468 0
-8364.6045 836.79791 11092.096 0
-8319.0342 838.85028 11119.301 0
-8268.4141 840.4223 11140.139 0
-8209.9443 841.21539 11150.65 0
-8154.5679 842.34082 11165.569 0
-8095.667 843.11774 11175.867 0
-8035.7568 843.80157 11184.932 0
-7974.5767 844.3623 11192.364 0
-7915.6787 845.17603 11203.151 0
-7860.709 846.42664 11219.729 0
-7799.9077 847.06537 11228.195 0
-7733.4023 847.09039 11228.526 0
-7671.5239 847.62701 11235.64 0
-7611.3159 848.35919 11245.345 0
-7561.3462 850.25568 11270.483 0
-7506.1089 851.58838 11288.149 0
-7449.4648 852.78418 11304 0
-7399.8301 854.81134 11330.87 0
-7341.0786 855.81299 11344.147 0
-7282.0322 856.79834 11357.21 0
-7221.5205 857.6283 11368.211 0
-7164.0527 858.83887 11384.257 0
-7114.2568 861.00098 11412.916 0
-7062.9136 863.01544 11439.62 65536
-7009.3003 864.78931 11463.132 65536
-6951.002 866.0141 11479.367 65536
-6897.0527 867.81042 11503.179 65536
-6842.6523 869.58539 11526.707 65536
-6788.6733 871.45038 11551.428 0
-6737.3105 873.69269 11581.15 0
-6683.6963 875.68628 11607.577 0
-6632.2769 878.01208 11638.406 0
-6580.6357 880.35724 11669.492 0
-6527.0161 882.48486 11697.694 0
-6475.1792 884.90192 11729.733 0
-6421.6133 887.13275 11759.304 0
-6370.2051 889.71393 11793.519 0
-6319.3545 892.43134 11829.539 0
-6271.46 895.6322 11871.968 0
-6222.1597 898.70276 11912.669 0
-6166.231 900.87561 11941.471 0
-6117.7168 904.19476 11985.469 65536
-6059.9204 906.20428 12012.105 65536
-6009.4277 909.36688 12054.026 65536
-5960.4233 912.83362 12099.979 65536
-5909.8867 916.14764 12143.908 65536
-5857.2563 919.2149 12184.566 0
-5798.207 921.33911 12212.723 0
-5736.479 923.08606 12235.88 0
-5676.188 925.11212 12262.735 0
-5621.186 928.06396 12301.864 0
-5569.8037 931.69928 12350.052 0
-5522.4155 936.1087 12408.5 0
-5478.5732 941.24658 12476.605 0
-5437.9961 947.09418 12554.117 0
-5392.2993 952.20044 12621.803 0
-5341.1909 956.48169 12678.553 0
-5294.9248 961.76508 12748.586 0
-5251.1533 967.66144 12826.744 65536
-5206.7441 973.61237 12905.627 65536
-5165.5674 980.35468 12994.998 65536
-5121.1558 986.67847 13078.823 65536
-5084.166 994.64905 13184.477 65536
-5041.4258 1001.7266 13278.293 65536
-4992.1299 1007.706 13357.552 65536
-4943.7651 1014.0698 13441.905 65536
-4893.4194 1020.2294 13523.554 65536
-4845.5825 1027.1266 13614.979 0
-4793.4404 1033.3298 13697.206 0
-4740.9282 1039.6665 13781.201 0
-4696.7759 1048.0914 13892.876 0
-4634.8511 1052.7809 13955.037 0
-4573.8521 1057.8553 14022.302 0
-4521.3779 1065.1263 14118.682 0
-4478.3018 1074.9283 14248.61 0
-4422.7578 1082.0577 14343.114 0
-4368.6226 1089.8187 14445.989 0
-4315.9365 1098.2599 14557.88 0
-4261.439 1106.5758 14668.11 0
-4193.3506 1111.6362 14735.189 0
-4124.4165 1116.6836 14802.094 0
-4065.0422 1124.5957 14906.972 0
-4031.167 1140.0718 15112.114 0
-3966.8997 1147.4623 15210.077 0
-3885.4343 1150.1066 15245.129 0
-3790.4224 1148.7716 15227.434 0
-3713.9971 1153.1421 15285.366 0
-3648.011 1161.0543 15390.246 0
-3581.0847 1169.0668 15496.453 0
-3517.8384 1178.7351 15624.611 0
-3456.8496 1189.7046 15770.017 0
-3384.0239 1197.0983 15868.023 0
-3301.4746 1201.3776 15924.747 0
-3221.301 1206.7996 15996.617 0
-3134.2173 1209.8838 16037.501 0
-3054.1021 1215.9358 16117.723 0
-2968.9375 1220.3044 16175.63 0
-2896.7686 1230.4858 16310.588 0
-2817.0684 1238.0621 16411.016 0
-2735.7251 1245.434 16508.732 0
-2667.0535 1259.3376 16693.031 0
-2591.8376 1271.1063 16849.029 0
-2497.5894 1274.1116 16888.865 0
-2406.1372 1278.8547 16951.738 256
-2313.6199 1283.4218 17012.275 256
-2217.0999 1286.0841 17047.566 256
-2131.5225 1295.6531 17174.406 256
-2035.5017 1299.5172 17225.627 256
-1959.569 1317.2946 17461.273 256
-1860.4336 1320.5902 17504.959 256
-1791.4644 1346.9578 17854.471 0
-1672.8141 1336.9393 17721.674 0
-1595.4479 1360.787 18037.783 0
-1487.1233 1359.7631 18024.211 0
-1375.6239 1355.4519 17967.064 0
-1243.2897 1328.1581 17605.273 0
-1240.0094 1446.38 19172.354 0
-1160.8077 1491.0103 19763.945 131584
0 0 0 0
0 0 0 0
0 0 0 0
-688.3808 1485.4617 19690.396 65793
-579.27802 1506.0634 19963.48 0
0 0 0 0
0 0 0 0
0 0 0 0
0 0 0 0
0 0 0 0
0 0 0 0
0 0 0 0
0 0 0 0
0 0 0 0
0 0 0 0
0 0 0 0
0 0 0 0
0 0 0 0
0 0 0 0
0 0 0 0
0 0 0 0
0 0 0 0
0 0 0 0
0 0 0 0
0 0 0 0
0 0 0 0
0 0 0 0
0 0 0 0
0 0 0 0
0 0 0 0
0 0 0 0
0 0 0 0
0 0 0 0
0 0 0 0
0 0 0 0
0 0 0 0
0 0 0 0
0 0 0 0
0 0 0 0
0 0 0 0
0 0 0 0
3809.3835 1505.5168 19956.236 65536
3902.1392 1495.6086 19824.898 65536
3991.6428 1485.0714 19685.223 65536
4053.0098 1464.9641 19418.693 65536
4113.8755 1445.7942 19164.588 65536
4209.2158 1439.4467 19080.449 65536
4302.4019 1432.7148 18991.215 65536
4386.8867 1423.5038 18869.119 65536
4464.7217 1412.6477 18725.217 65536
4514.8403 1393.7635 18474.9 65536
4563.1816 1375.2405 18229.369 65536
4626.5791 1362.0088 18053.979 65536
4660.251 1340.8247 17773.174 196608
4708.9072 1324.7952 17560.697 196608
4741.6089 1305.0696 17299.227 196608
4567.4521 1230.4545 16310.172 262144
4544.5811 1198.8492 15891.233 196608
4508.7529 1165.1826 15444.969 262144
4479.083 1134.4192 15037.187 262144
4523.228 1123.1888 14888.323 262144
4549.8843 1108.13 14688.713 262144
4624.2178 1105.0315 14647.64 393216
4676.1074 1096.7832 14538.306 393216
4771.9277 1098.9513 14567.045 458752
4893.4277 1106.8505 14671.752 458752
4961.9082 1102.6906 14616.61 589824
5028.8843 1098.3452 14559.012 720896
5116.4639 1098.5708 14562.001 917504
5245.2603 1107.4915 14680.248 917504
5345.2349 1110.1342 14715.278 983040
5464.4458 1116.6227 14801.286 917504
5572.2588 1120.6134 14854.185 786432
6247.1123 1236.7362 16393.439 589824
6073.2427 1183.8516 15692.434 393216
6273.1592 1204.3265 15963.836 196608
6327.7173 1196.7012 15862.759 65536
6566.8975 1223.703 16220.679 0
6907.8125 1268.6066 16815.895 256
6665.4077 1206.632 15994.395 256
6824.9028 1218.1323 16146.839 256
6905.5161 1215.4302 16111.02 256
7023.521 1219.2931 16162.225 0
7153.3696 1225.0802 16238.934 0
7299.6274 1233.4858 16350.354 0
7374.4585 1229.7596 16300.963 0
7462.6118 1228.3229 16281.918 0
7624.9668 1238.98 16423.182 0
7740.7134 1241.8899 16461.754 256
7749.4648 1227.7756 16274.664 256
7830.5532 1225.3286 16242.228 256
7933.8945 1226.3811 16256.178 2
9026.5225 1378.4872 18272.406 65795
9122.3721 1376.5632 18246.904 2
0 0 0 0
8251.7812 1216.2731 16122.192 0
8330.8115 1213.8268 16089.766 0
8540.2676 1230.2239 16307.115 0
8564.165 1219.8231 16169.249 0
8701.9541 1225.6953 16247.088 0
8767.7061 1221.4032 16190.194 0
8887.7422 1224.6843 16233.688 256
8926.4883 1216.8141 16129.363 256
9204.8213 1241.4232 16455.568 256
9242.4795 1233.3972 16349.18 0
9197.8652 1214.6732 16100.986 197636
9197.3809 1202.1028 15934.359 3357497
9259.0244 1197.8258 15877.667 66051
9260.5127 1185.9316 15720.005 1844003
9290.4238 1177.8785 15613.258 4801351
9217.2256 1157.0413 15337.052 2
9376.5225 1165.5117 15449.329 1
9383.3652 1155.0511 15310.671 2
9207.1064 1122.4692 14878.784 2
9248.7715 1116.8223 14803.932 256
9289.0498 1111.1157 14728.29 256
9330.5234 1105.6575 14655.938 256
9395.625 1103.0741 14621.695 256
9519.9033 1107.4221 14679.329 0
9528.6035 1098.3683 14559.317 0
9635.2041 1100.6608 14589.705 0
9686.2139 1096.6189 14536.128 0
9991.1914 1121.147 14861.258 0
9795.6797 1089.5758 14442.769 0
9865.7529 1087.8374 14419.726 0
9969.7363 1089.8358 14446.216 0
10053.102 1089.5657 14442.635 0
10113.667 1086.8497 14406.634 0
10167.979 1083.5133 14362.408 0
10316.812 1090.2206 14451.315 0
10302.855 1079.7566 14312.611 0
10247.715 1065.1832 14119.435 0
10308.311 1062.7788 14087.563 0
10383.712 1061.9272 14076.276 0
10479.089 1063.116 14092.033 0
9122.9434 918.1947 12171.043 0
9107.5576 909.4353 12054.934 0
9128.0781 904.36981 11987.789 0
9518.7949 935.77631 12404.095 256
10536.646 1027.8788 13624.95 256
10580.993 1024.3326 13577.944 256
10533.265 1011.9938 13414.389 256
10604.78 1011.2109 13404.011 256
10755.184 1017.9059 13492.755 256
10918.621 1025.7262 13596.416 0
11054.317 1030.8446 13664.264 0
11171.854 1034.2074 13708.838 0
11367.964 1044.7426 13848.485 0
11633.706 1061.4795 14070.341 0
11896.228 1077.6858 14285.162 0
12051.675 1084.0312 14369.273 256
12585.018 1124.0396 14899.6 256
12984.565 1151.6221 15265.217 256
13405.287 1180.6868 15650.481 256
12179.964 1065.3726 14121.944 256
14895.008 1293.939 17151.686 1579802
16817.844 1451.0465 19234.209 395785
0 0 0 0
0 0 0 0
0 0 0 0
0 0 0 0
0 0 0 0
0 0 0 0
0 0 0 0
0 0 0 0
0 0 0 0
0 0 0 0
0 0 0 0
0 0 0 0
0 0 0 0
0 0 0 0
0 0 0 0
0 0 0 0
0 0 0 0
0 0 0 0
-11060.825 984.25702 12093.947 0
-11280.26 1010.3493 12414.554 0
-11095.774 1000.3688 12291.919 0
-10979.251 996.42377 12243.445 0
-11455.951 1046.6234 12860.268 0
-10982.701 1010.1265 12411.815 0
-10588.396 980.44592 12047.119 0
-10525 981.21088 12056.518 0
-10456.597 981.51599 12060.268 0
-10387.958 981.80341 12063.799 0
-9752.6143 928.16113 11404.675 0
-10209.658 978.45862 12022.7 0
-8294.5986 800.52856 9836.4043 0
-8265.1211 803.3457 9871.0195 0
-8216.3984 804.31909 9882.9805 0
-8167.2012 805.25983 9894.5391 0
-8129.7358 807.37927 9920.582 0
-8419.0088 842.2157 10348.631 0
-8162.564 822.57098 10107.248 0
-8194.7314 831.93512 10222.309 0
-8141.2554 832.6795 10231.456 0
-8190.7812 844.04944 10371.162 0
-8149.0352 846.11493 10396.542 0
-8089.2549 846.32526 10399.126 0
-8036.3228 847.2608 10410.621 0
-7982.0371 848.06696 10420.527 0
-8328.877 891.83752 10958.353 0
-8366.4688 902.92334 11094.568 0
-8308.4707 903.78711 11105.182 0
-8261.873 905.91479 11131.326 0
-8208.126 907.28662 11148.182 0
-8152.2588 908.44446 11162.408 0
-8093.1182 909.25342 11172.349 0
-8036.0845 910.31445 11185.387 0
-7974.8491 910.91351 11192.747 0
-7917.2197 911.93781 11205.333 0
-7860.0015 913.02734 11218.72 0
-7800.1646 913.82855 11228.565 0
-7741.4272 914.77362 11240.178 0
-7682.3818 915.69849 11251.542 0
-7623.7393 916.68799 11263.7 0
-7564.8306 917.66266 11275.677 0
-7515.6841 919.84961 11302.549 0
-7459.4609 921.20221 11319.168 0
-7405.6089 922.87482 11339.72 0
-7356.8706 925.22119 11368.551 0
-7289.6538 925.26569 11369.098 0
-7231.3628 926.45447 11383.705 0
-7172.1084 927.54126 11397.059 0
-7119.3511 929.49689 11421.088 0
-7073.1704 932.35712 11456.233 65536
-7016.9507 933.93683 11475.644 65536
-6962.0557 935.72552 11497.622 65536
-6906.0205 937.39502 11518.136 65536
-6850.5771 939.17896 11540.056 65536
-6793.2227 940.73444 11559.168 0
-6740.3276 942.9455 11586.336 0
-6688.8252 945.39905 11616.484 0
-6634.4395 947.49194 11642.2 0
-6578.8296 949.45239 11666.289 0
-6528.7266 952.25775 11700.76 0
-6477.2261 954.91748 11733.441 0
-6424.2231 957.41132 11764.083 0
-6370.8384 959.90228 11794.691 0
-6322.9448 963.28534 11836.261 0
-6273.0444 966.43542 11874.967 0
-6223.5352 969.71808 11915.302 0
-6166.9941 971.96814 11942.948 0
-6112.8447 974.65179 11975.924 65536
-6065.4258 978.48444 12023.018 65536
-6010.0967 981.11737 12055.368 65536
-5958.6113 984.44867 12096.302 65536
-5908.749 988.13281 12141.57 65536
-5859.4219 991.9986 12189.071 0
-5799.2007 994.09381 12214.815 0
-5739.6685 996.36176 12242.683 0
-5680.4736 998.74725 12271.994 0
-5620.8618 1001.1205 12301.155 0
-5570.4941 1005.2245 12351.583 0
-5522.2095 1009.819 12408.037 0
-5478.895 1015.459 12477.338 0
-5436.124 1021.356 12549.796 0
-5393.6313 1027.47 12624.921 0
-5342.3403 1032.0568 12681.281 0
-5295.5059 1037.6481 12749.984 0
-5246.0366 1042.8779 12814.246 65536
-5204.9912 1049.9613 12901.281 65536
-5164.7319 1057.4174 12992.896 65536
-5124.7871 1065.165 13088.096 65536
-5077.2036 1071.5396 13166.422 65536
-5032.1074 1078.6467 13253.75 65536
-4986.3433 1085.8346 13342.069 65536
-4938.0737 1092.7002 13426.431 65536
-4890.5308 1099.9548 13515.57 65536
-4842.5078 1107.3419 13606.339 0
-4791.7563 1114.3455 13692.395 0
-4737.4644 1120.7534 13771.132 0
-4688.2612 1128.6118 13867.689 0
-4623.4858 1132.9355 13920.817 0
-4571.3184 1140.5624 14014.532 0
-4521.4038 1149.0452 14118.763 0
-4465.3716 1156.2645 14207.471 0
-4406.2646 1162.9507 14289.626 0
-4357.021 1172.554 14407.625 0
-4308.7153 1182.8 14533.521 0
-4248.1646 1190.0348 14622.418 0
-4180.77 1195.6147 14690.98 0
-4110.8379 1200.6915 14753.361 0
-4056.958 1210.7804 14877.327 0
-4021.2769 1226.871 15075.038 0
-3970.7219 1239.0538 15224.733 0
-3882.5154 1239.7816 15233.676 0
-3778.7791 1235.4668 15180.658 0
-3704.8379 1240.9205 15247.671 0
-3638.2761 1249.1816 15349.178 0
-3568.2261 1256.6389 15440.809 0
-3518.293 1271.7618 15626.63 0
-3463.4026 1285.8643 15799.911 0
-3384.8154 1291.7096 15871.735 0
-3299.5464 1295.267 15915.446 0
-3217.5857 1300.3715 15978.168 0
-3132.4827 1304.4778 16028.623 0
-3055.4338 1312.301 16124.751 0
-2971.9587 1317.7815 16192.091 0
-2894.0598 1326.1838 16295.335 0
-2816.1174 1335.1477 16405.477 0
-2728.0427 1339.7782 16462.373 0
-2648.7417 1349.2224 16578.418 0
-2572.1597 1360.8348 16721.105 0
-2488.9646 1369.7416 16830.545 0
-2413.8525 1384.0287 17006.096 0
-2329.2341 1393.8755 17127.088 256
-2239.9009 1401.672 17222.887 256
-2144.2151 1406.0496 17276.676 256
-2062.1526 1420.25 17451.162 256
-1976.1763 1433.1166 17609.258 0
-1891.5353 1448.4445 17797.598 0
-1824.5208 1479.8853 18183.924 0
-1728.4921 1490.2699 18311.523 0
-1637.2615 1506.465 18510.518 0
-1532.3556 1511.5039 18572.434 0
-1410.9728 1499.811 18428.758 394757
-1327.4838 1529.8193 18797.482 256
-1234.0509 1552.8302 19080.227 921100
-1147.4166 1589.9185 19535.945 1250321
-1052.4199 1622.4664 19935.873 1184787
0 0 0 0
0 0 0 0
0 0 0 0
-554.11713 1554.144 19096.369 0
0 0 0 0
0 0 0 0
0 0 0 0
0 0 0 0
0 0 0 0
0 0 0 0
0 0 0 0
0 0 0 0
0 0 0 0
0 0 0 0
0 0 0 0
0 0 0 0
0 0 0 0
0 0 0 0
0 0 0 0
0 0 0 0
0 0 0 0
0 0 0 0
0 0 0 0
0 0 0 0
0 0 0 0
0 0 0 0
0 0 0 0
0 0 0 0
0 0 0 0
0 0 0 0
0 0 0 0
0 0 0 0
0 0 0 0
0 0 0 0
0 0 0 0
0 0 0 0
0 0 0 0
0 0 0 0
0 0 0 0
3687.1729 1622.5376 19936.748 65536
3771.3982 1607.9287 19757.242 65536
3854.3035 1593.6559 19581.867 65536
3939.3181 1581.0667 19427.178 65536
4008.5708 1563.0481 19205.777 65536
4100.2871 1554.5443 19101.287 65536
4185.3032 1544.0266 18972.053 65536
4279.2852 1537.2817 18889.176 65536
4361.5396 1526.7765 18760.094 65536
4460.3535 1522.447 18706.896 65536
4554.9136 1516.9116 18638.881 65536
4590.7598 1492.55 18339.541 131072
4615.0435 1465.6464 18008.965 196608
4629.2344 1436.8297 17654.883 196608
4630.8145 1405.463 17269.469 196608
4645.7539 1379.4235 16949.51 262144
4713.7158 1369.8984 16832.473 262144
4609.8706 1311.8765 16119.534 262144
4479.229 1248.7466 15343.833 393216
4442.2349 1213.7227 14913.48 393216
4463.3643 1195.6392 14691.281 393216
4528.1665 1189.724 14618.6 393216
4557.8721 1174.984 14437.484 393216
4619.9517 1168.9802 14363.713 393216
4724.0586 1173.6357 14420.917 458752
4960.8418 1210.4995 14873.876 458752
4917.4429 1178.9021 14485.627 589824
4991.6934 1176.1119 14451.342 655360
5266.6172 1219.8976 14989.354 851968
5254.2822 1196.7961 14705.497 917504
5634.9282 1262.4974 15512.796 983040
5745.626 1266.5757 15562.905 917504
5806.0278 1259.613 15477.353 983040
5899.1489 1259.8551 15480.328 917504
5998.2305 1261.3431 15498.612 720896
6090.8882 1261.4559 15499.997 458752
6208.686 1266.6943 15564.363 196608
6271.5288 1260.7317 15491.098 0
6384.4854 1264.8696 15541.943 256
6506.938 1270.7444 15614.129 256
6629.4292 1276.4612 15684.373 256
6716.3838 1275.2721 15669.762 256
6849.6372 1282.7863 15762.091 256
6963.8818 1286.5856 15808.775 0
7123.0024 1298.4644 15954.734 0
7217.2705 1298.3641 15953.504 0
7280.3589 1292.7303 15884.278 0
7398.439 1296.8802 15935.271 0
7456.4775 1290.5336 15857.285 256
7484.8872 1279.2812 15719.023 256
7594.2124 1281.9656 15752.007 256
7665.0991 1278.1748 15705.429 256
7733.4917 1274.0642 15654.921 256
8517.8359 1386.5997 17037.688 256
7909.1724 1272.3905 15634.354 256
8016.5078 1274.6825 15662.519 256
8133.5591 1278.4492 15708.801 0
8272.4414 1285.5229 15795.718 0
8347.5127 1282.6329 15760.207 0
8459.4482 1285.4086 15794.312 0
8476.9717 1273.9349 15653.333 0
8613.2949 1280.3701 15732.403 256
8736.9033 1284.7972 15786.801 256
8795.71 1279.702 15724.194 256
9438.8076 1358.8298 16696.469 0
8961.9639 1276.7595 15688.039 5463900
9041.6152 1274.8436 15664.497 7964033
9333.1914 1302.5431 16004.852 6515049
9076.8594 1253.9889 15408.248 9344149
8953.2656 1224.5596 15046.638 0
9147.252 1238.7189 15220.619 0
9088.0029 1218.6437 14973.946 0
9128.916 1212.2587 14895.491 0
9209.7344 1211.2446 14883.031 0
9262.1084 1206.5446 14825.279 256
9470.96 1222.1246 15016.719 256
9490.5234 1213.2163 14907.258 256
9589.5264 1214.5339 14923.449 256
9619.0664 1207.1105 14832.233 0
9669.9658 1202.478 14775.312 0
9801.5859 1207.8762 14841.643 0
9844.6514 1202.3627 14773.896 0
9890.499 1197.2834 14711.484 0
9734.7119 1168.0984 14352.878 0
9845.377 1171.115 14389.944 0
9955.6592 1174.0347 14425.818 0
10041.636 1174.0625 14426.161 0
10106.317 1171.6215 14396.166 0
10118.661 1163.2046 14292.745 0
10147.028 1156.7545 14213.49 0
10177.462 1150.6447 14138.416 0
10213.682 1145.2837 14072.544 0
10312.046 1146.9214 14092.668 0
10374.502 1144.5714 14063.792 0
9086.0508 994.41058 12218.708 256
8988.7881 975.96539 11992.064 256
8993.7412 968.82141 11904.283 256
9880.5312 1056.0403 12975.976 256
9704.1631 1029.157 12645.65 256
10313.386 1085.3611 13336.252 256
10585.217 1105.4722 13583.364 256
10598.776 1098.5103 13497.82 256
10706.165 1101.3046 13532.156 256
10847.863 1107.5604 13609.024 256
10976.183 1112.3678 13668.095 0
11094.598 1116.1082 13714.054 0
11157.212 1114.2214 13690.87 0
11348.481 1125.1173 13824.751 0
11602.218 1142.0049 14032.257 0
11873.157 1160.3328 14257.458 0
12117.673 1175.8369 14447.964 256
12381.627 1192.9957 14658.801 256
12694.237 1214.5702 14923.895 256
13493.184 1282.0543 15753.099 256
13554.031 1278.9614 15715.095 256
16201.206 1518.2871 18655.781 256
16651.523 1549.8811 19043.99 256
16814.291 1554.4651 19100.314 256
0 0 0 0
0 0 0 0
0 0 0 0
0 0 0 0
0 0 0 0
0 0 0 0
0 0 0 0
0 0 0 0
0 0 0 0
0 0 0 0
0 0 0 0
0 0 0 0
0 0 0 0
0 0 0 0
0 0 0 0
0 0 0 0
0 0 0 0
-10199.174 973.86139 11151.814 0
-11262.376 1082.4146 12394.871 0
-10959.291 1060.2202 12140.722 0
-11430.16 1113.1016 12746.273 0
-11052.366 1083.4921 12407.21 0
-10975.712 1083.2045 12403.917 0
-10571.137 1050.3312 12027.481 0
-10496.324 1049.9982 12023.668 0
-10430.281 1050.5438 12029.917 0
-10358.34 1050.4989 12029.402 0
-10282.927 1050.0989 12024.82 0
-10216.849 1050.6531 12031.167 0
-8311.1416 860.70288 9856.0225 0
-8264.1768 861.91412 9869.8916 0
-8219.0996 863.34088 9886.2305 0
-8172.2358 864.59912 9900.6387 0
-8117.3403 865.01984 9905.4561 0
-8068.9219 866.14185 9918.3047 0
-8015.1689 866.70361 9924.7373 0
-7962.3325 867.3736 9932.4092 0
-7903.668 867.41382 9932.8701 0
-7870.3042 870.25244 9965.375 0
-7812.5894 870.4209 9967.3047 0
-7765.3354 871.76642 9982.7119 0
-8524.1631 964.32312 11042.592 0
-8464.0605 964.95331 11049.808 0
-8405.3926 965.75818 11059.024 0
-8271.0117 957.80798 10967.985 0
-8102.085 945.6991 10829.325 0
-8221.7354 967.34961 11077.248 0
-8197.042 972.22937 11133.127 0
-8140.563 973.38794 11146.394 0
-8080.729 974.16101 11155.246 0
-8024.4131 975.37451 11169.142 0
-7967.8516 976.57819 11182.926 0
-7907.6226 977.34882 11191.75 0
-7848.9521 978.32678 11202.948 0
-7794.791 979.88831 11220.83 0
-7741.6904 981.61127 11240.561 0
-7681.7051 982.48364 11250.55 0
-7625.5718 983.86847 11266.407 0
-7569.1475 985.23981 11282.111 0
-7515.0386 986.93976 11301.578 0
-7462.3711 988.86145 11323.583 0
-7410.9761 990.98834 11347.938 0
-7349.1226 991.74286 11356.578 0
-7290.3193 992.9267 11370.135 0
-7234.4458 994.53564 11388.559 0
-7176.3013 995.8598 11403.722 0
-7119.8945 997.45245 11421.96 0
-7062.1045 998.88031 11438.311 65536
-7007.7646 1000.8286 11460.62 65536
-6954.6177 1002.9872 11485.339 65536
-6899.4536 1004.8948 11507.183 65536
-6844.0884 1006.8111 11529.126 65536
-6789.4434 1008.8729 11552.737 0
-6735.2524 1011.0452 11577.612 0
-6682.6323 1013.5006 11605.729 0
-6633.4756 1016.5379 11640.51 0
-6579.582 1018.9058 11667.624 0
-6526.0156 1021.3751 11695.901 0
-6472.3784 1023.8866 11724.66 0
-6421.2446 1026.8529 11758.629 0
-6373.2144 1030.3865 11799.091 0
-6322.7578 1033.6017 11835.91 0
-6270.0664 1036.5201 11869.328 0
-6223.4248 1040.5165 11915.091 0
-6170.165 1043.4855 11949.089 0
-6115.0273 1046.2023 11980.2 65536
-6061.9321 1049.3368 12016.093 65536
-6014.4219 1053.524 12064.043 65536
-5961.2524 1056.8093 12101.663 65536
-5906.6177 1059.9119 12137.19 65536
-5852.4302 1063.1724 12174.527 0
-5796.1768 1066.1345 12208.446 0
-5735.8037 1068.4044 12234.439 0
-5680.3555 1071.6616 12271.738 0
-5621.4727 1074.3473 12302.492 0
-5564.8848 1077.548 12339.145 0
-5515.6938 1082.2858 12393.396 0
-5471.5142 1088.1483 12460.529 0
-5428.9219 1094.4917 12533.169 0
-5383.1206 1100.3558 12600.319 0
-5342.6016 1107.4802 12681.901 0
-5295.2954 1113.3813 12749.478 0
-5246.1777 1119.0676 12814.591 65536
-5202.6182 1126.1245 12895.399 65536
-5165.8301 1134.8799 12995.659 65536
-5116.3984 1141.0814 13066.673 65536
-5068.2212 1147.7579 13143.128 65536
-5021.5093 1154.9807 13225.837 65536
-4976.8872 1162.9215 13316.768 65536
-4929.6636 1170.5012 13403.563 65536
-4883.1934 1178.5117 13495.293 65536
-4841.6255 1187.9927 13603.86 0
-4794.0928 1196.3073 13699.071 0
-4743.7422 1204.1936 13789.38 0
-4695.0771 1212.793 13887.852 0
-4631.793 1217.856 13945.829 0
-4572.4302 1224.1533 14017.941 0
-4519.9326 1232.5566 14114.168 0
-4461.9536 1239.7548 14196.596 65536
-4403.021 1246.9603 14279.106 65536
-4354.5552 1257.4714 14399.472 65536
-4296.8301 1265.6768 14493.432 65536
-4238.3862 1274.0017 14588.763 0
-4169.4702 1279.4607 14651.273 0
-4102.8794 1285.8816 14724.8 0
-4049.2158 1296.7219 14848.935 0
-4011.2651 1313.1897 15037.508 0
-3975.4099 1331.1093 15242.707 0
-3881.5369 1329.9852 15229.837 0
-3779.8787 1326.0763 15185.075 0
-3712.7263 1334.3778 15280.136 0
-3643.4692 1342.3202 15371.086 0
-3575.9324 1351.3212 15474.157 0
-3523.7925 1366.7693 15651.056 0
-3474.1169 1384.037 15848.79 0
-3392.0342 1388.9967 15905.585 0
-3302.5759 1391.134 15930.06 0
-3220.5552 1396.6229 15992.913 0
-3147.2722 1406.3501 16104.301 0
-3071.2534 1415.4266 16208.237 0
-2986.6912 1421.0261 16272.357 0
-2908.7688 1430.2653 16378.156 0
-2827.7031 1438.545 16472.969 0
-2740.1411 1443.9954 16535.381 0
-2660.3867 1454.1187 16651.305 0
-2590.6021 1470.684 16840.996 0
-2502.7808 1477.9299 16923.971 0
-2454.249 1509.9553 17290.697 0
-2327.9883 1494.8678 17117.928 0
-2240.437 1504.3934 17227.008 0
-2148.459 1511.7169 17310.869 0
-2054.7466 1518.4952 17388.488 0
-2011.1078 1564.9564 17920.523 0
-1908.4623 1568.1302 17956.865 0
-1794.1425 1561.5189 17881.16 0
-1689.1952 1562.7465 17895.215 0
-1602.9167 1582.5707 18122.225 0
-1531.6504 1621.1398 18563.887 0
-1419.783 1619.3881 18543.826 0
-1341.9944 1659.4828 19002.955 0
-1216.0835 1641.9707 18802.424 0
-1128.2683 1677.5573 19209.928 0
-1032.9136 1708.684 19566.365 0
-927.91681 1729.735 19807.424 0
-816.34436 1742.8649 19957.775 0
-684.96704 1710.9882 19592.75 0
-546.76294 1645.5076 18842.924 197378
-432.43741 1636.6681 18741.703 0
0 0 0 0
0 0 0 0
0 0 0 0
0 0 0 0
0 0 0 0
0 0 0 0
0 0 0 0
0 0 0 0
0 0 0 0
0 0 0 0
0 0 0 0
0 0 0 0
0 0 0 0
0 0 0 0
0 0 0 0
0 0 0 0
0 0 0 0
0 0 0 0
0 0 0 0
0 0 0 0
0 0 0 0
0 0 0 0
0 0 0 0
0 0 0 0
0 0 0 0
0 0 0 0
0 0 0 0
0 0 0 0
0 0 0 0
0 0 0 0
0 0 0 0
0 0 0 0
3451.353 1741.6151 19943.465 65536
3540.4094 1727.2356 19778.803 65536
3644.0457 1720.6647 19703.559 65536
3745.7891 1713.6368 19623.082 65536
3821.345 1695.415 19414.422 65536
3887.9502 1674.4066 19173.852 65536
3969.9617 1661.0406 19020.795 65536
4094.9895 1665.9146 19076.607 65536
4214.8359 1668.4749 19105.926 65536
4322.8813 1666.3519 19081.615 65536
4358.1914 1637.0165 18745.691 65536
4452.6758 1630.8167 18674.697 65536
4530.3794 1618.9216 18538.486 65536
4551.3452 1587.798 18182.084 131072
4557.9194 1553.2135 17786.053 196608
4557.7549 1517.9526 17382.275 196608
4621.4878 1505.0641 17234.688 262144
4638.2139 1477.7578 16922 262144
4499.1226 1403.0201 16066.169 262144
4525.8774 1382.032 15825.831 262144
4520.1206 1352.1729 15483.909 393216
4538.7808 1330.6636 15237.604 393216
4463.1006 1282.8787 14690.413 393216
4503.0415 1269.524 14537.486 393216
4561.1729 1261.7041 14447.939 393216
4661.103 1265.5217 14491.656 393216
4768.9375 1271.308 14557.916 458752
4737.1802 1240.3387 14203.282 524288
4800.4224 1234.8921 14140.912 524288
4900.4409 1238.9307 14187.158 589824
4596.9409 1142.5406 13083.384 655360
5093.7456 1244.9594 14256.193 589824
5332.2485 1281.9281 14679.527 655360
5546.4741 1311.964 15023.472 655360
5536.5527 1288.8684 14759.002 655360
5799.769 1329.0859 15219.538 458752
5905.8188 1332.6049 15259.834 524288
6855.8784 1523.5814 17446.732 393216
6387.396 1398.3215 16012.365 196608
6298.938 1358.7129 15558.801 65536
6332.9966 1346.2952 15416.604 0
6408.5259 1342.9222 15377.979 0
6482.0073 1339.2206 15335.592 0
6593.5215 1343.3707 15383.115 0
6703.7803 1347.155 15426.45 0
6776.6152 1343.4182 15383.659 0
6905.1587 1350.6777 15466.788 0
7016.918 1354.5065 15510.633 0
7124.9961 1357.5347 15545.309 0
7240.9448 1361.9657 15596.049 0
7290.0757 1353.8756 15503.408 256
7350.7573 1348.1058 15437.337 256
7425.2896 1344.9872 15401.625 256
7478.8613 1338.1941 15323.837 256
7554.9243 1335.5403 15293.447 256
7605.1006 1328.4277 15212.002 256
7692.2476 1327.8645 15205.552 256
7814.1621 1333.2462 15267.179 256
7900.6206 1332.5244 15258.913 0
8108.5708 1352.0774 15482.816 0
8187.0571 1349.8461 15457.266 0
8283.1748 1350.5391 15465.201 0
8287.7832 1336.4603 15303.982 0
8370.1885 1335.0962 15288.362 256
8583.9502 1354.4885 15510.428 256
8610.3535 1344.2191 15392.83 256
8688.8125 1342.2068 15369.788 2
8701.6895 1330.2113 15232.425 2
8720.4316 1319.35 15108.051 2
8343.8281 1249.5062 14308.261 2
8698.7793 1289.5183 14766.444 2
8789.1914 1289.9072 14770.898 2
8969.749 1303.3873 14925.261 256
9084.3467 1307.1129 14967.922 256
9111.7441 1298.3408 14867.473 256
9216.8271 1300.7004 14894.493 256
9417.9229 1316.4359 15074.682 526601
9497.7803 1315.0878 15059.243 855822
9408.3525 1290.5439 14778.188 263429
9648.1787 1311.2002 15014.726 197379
9817.8154 1322.0264 15138.697 258
9792.4629 1306.6379 14962.483 395015
9701.7734 1282.8868 14690.506 6975084
9510.4844 1246.3755 14272.41 2895402
9604.4189 1247.5586 14285.958 256
9718.3906 1251.301 14328.812 0
9764.8818 1246.3654 14272.294 0
9876.8369 1249.7982 14311.604 0
9958.8389 1249.4147 14307.213 0
10008.709 1245.0408 14257.126 0
10046.569 1239.2587 14190.914 0
10074.912 1232.4087 14112.474 0
10096.635 1224.8685 14026.131 0
10161.576 1222.6522 14000.751 0
10271.646 1225.8575 14037.456 0
10346.878 1224.8872 14026.345 0
10473.516 1229.9691 14084.538 0
10279.027 1197.5577 13713.392 0
9923.9922 1147.0989 13135.581 0
10116.206 1160.1897 13285.485 0
10158.728 1156.0431 13238.002 0
10531.583 1189.2627 13618.403 0
10625.026 1190.6638 13634.448 0
10625.12 1181.6621 13531.369 0
10719.407 1183.1925 13548.895 0
10861.227 1189.9076 13625.789 256
11028.663 1199.3091 13733.446 0
11056.63 1193.5172 13667.122 0
11099.184 1189.3727 13619.664 0
11345.707 1206.9873 13821.371 0
11574.691 1222.4962 13998.966 0
11845.062 1242.1235 14223.721 0
12072.779 1257.0317 14394.437 256
12357.104 1277.5826 14629.768 256
12663.575 1300.1201 14887.847 256
12936.075 1318.8812 15102.684 256
0 0 0 0
0 0 0 0
15622.276 1560.2705 17866.863 256
16365.939 1623.5081 18591.006 256
15529.118 1530.1643 17522.113 256
15584.948 1525.4358 17467.967 256
16766.057 1630.182 18667.43 256
0 0 0 0
0 0 0 0
0 0 0 0
0 0 0 0
0 0 0 0
0 0 0 0
0 0 0 0
0 0 0 0
0 0 0 0
0 0 0 0
0 0 0 0
0 0 0 0
0 0 0 0
0 0 0 0
-10524.01 1073.2681 11506.991 0
-11562.752 1186.915 12725.451 0
-11001.16 1136.7029 12187.104 0
-11505.372 1196.6799 12830.146 0
-11034.331 1155.344 12386.964 0
-10955.714 1154.8173 12381.316 0
-10874.422 1153.9996 12372.55 0
-10792.866 1153.1426 12363.361 0
-10717.118 1152.8984 12360.745 0
-10638.838 1152.3768 12355.151 0
-10562.48 1152.0576 12351.729 0
-10155.805 1115.4536 11959.282 0
-8317.7783 920.01465 9863.8926 0
-8278.3145 922.14905 9886.7764 0
-8207.1094 920.75293 9871.8076 0
-8154.6665 921.45673 9879.3535 0
-8113.2646 923.42743 9900.4824 0
-8064.3984 924.57117 9912.7441 0
-8014.2876 925.58801 9923.6465 0
-7969.4966 927.23877 9941.3457 0
-7916.0317 927.89758 9948.4082 0
-7865.9487 928.96564 9959.8594 0
-7991.7754 950.98224 10195.91 0
-8026.5469 962.41742 10318.512 0
-8028.6616 970.08289 10400.696 0
-7997.6494 973.83362 10440.909 0
-7937.7471 974.0976 10443.74 0
-7882.2993 974.91687 10452.523 0
-7835.5156 976.8291 10473.025 0
-7785.0449 978.30865 10488.889 0
-8178.7432 1036.0792 11108.273 0
-8134.397 1038.8473 11137.95 0
-7612.022 980.1106 10508.208 0
-8025.5737 1041.9072 11170.757 0
-7967.541 1043.0015 11182.489 0
-7907.4229 1043.8389 11191.467 0
-7849.0405 1044.9215 11203.074 0
-7792.5923 1046.2823 11217.665 0
-7735.8252 1047.6234 11232.044 0
-7679.335 1049.0259 11247.079 0
-7623.0107 1050.4756 11262.623 0
-7571.1484 1052.5715 11285.094 0
-7518.0566 1054.5323 11306.117 0
-7462.2598 1056.1456 11323.414 0
-7413.4111 1058.7808 11351.667 0
-7351.9585 1059.6476 11360.96 0
-7292.2041 1060.7775 11373.074 0
-7233.5405 1062.0887 11387.133 0
-7181.5244 1064.41 11412.021 0
-7122.1846 1065.6798 11425.634 0
-7064.0601 1067.1576 11441.478 65536
-7009.167 1069.157 11462.914 65536
-6959.0425 1071.9302 11492.646 65536
-6904.04 1073.9994 11514.832 65536
-6847.3945 1075.8521 11534.695 65536
-6790.7129 1077.7363 11554.897 0
-6737.5176 1080.2183 11581.507 0
-6683.2676 1082.5803 11606.832 0
-6632.585 1085.5757 11638.946 0
-6583.3228 1088.869 11674.257 0
-6528.748 1091.3446 11700.798 0
-6473.7715 1093.8057 11727.184 0
-6419.522 1096.4442 11755.474 0
-6367.5186 1099.5288 11788.545 0
-6321.436 1103.7159 11833.437 0
-6266.7031 1106.47 11862.963 0
-6217.21 1110.2222 11903.192 0
-6168.416 1114.1871 11945.702 0
-6112.7075 1116.9808 11975.655 65536
-6061.1914 1120.6155 12014.624 65536
-6009.7754 1124.3556 12054.724 65536
-5960.4492 1128.5815 12100.032 65536
-5906.7705 1132.0767 12137.504 65536
-5853.0791 1135.6558 12175.877 0
-5794.0469 1138.275 12203.961 0
-5734.4683 1140.8522 12231.591 0
-5678.8091 1144.2852 12268.397 0
-5621.1099 1147.3911 12301.698 0
-5567.5078 1151.4263 12344.961 0
-5514.6992 1155.7355 12391.161 0
-5469.0742 1161.6873 12454.973 0
-5427.7524 1168.7288 12530.469 0
-5383.7339 1175.3776 12601.754 0
-5337.396 1181.7006 12669.545 0
-5292.1924 1188.4592 12742.007 0
-5244.4463 1194.8346 12810.361 65536
-5199.8911 1202.1359 12888.641 65536
-5162.04 1211.2283 12986.124 65536
-5115.4385 1218.5123 13064.221 65536
-5069.5952 1226.2045 13146.691 65536
-5019.7065 1233.1436 13221.088 65536
-4969.9912 1240.3467 13298.316 65536
-4928.5566 1249.8824 13400.554 65536
-4884.9282 1259.166 13500.087 65536
-4839.7261 1268.3474 13598.524 0
-4794.457 1277.8225 13700.111 0
-4749.3657 1287.6733 13805.727 0
-4693.5146 1294.9021 13883.229 0
-4629.5962 1300.1238 13939.214 0
-4567.7778 1306.1365 14003.679 65536
-4524.8115 1317.863 14129.404 65536
-4466.0791 1325.3542 14209.721 65536
-4399.5659 1330.7809 14267.901 65536
-4348.2695 1341.1139 14378.688 0
-4296.4233 1351.6882 14492.06 65536
-4235.915 1359.9144 14580.256 0
-4171.6328 1367.2471 14658.873 0
-4097.1025 1371.4623 14704.066 0
-4047.1921 1384.2822 14841.514 0
-4014.1675 1403.5775 15048.387 0
-3976.0105 1421.9166 15245.01 0
-3881.157 1420.3624 15228.346 0
-3776.9893 1415.2439 15173.468 0
-3705.3159 1422.3483 15249.638 0
-3637.8186 1431.4523 15347.246 0
-3586.8745 1447.7058 15521.507 0
-3537.5837 1465.5022 15712.31 0
-3477.1301 1479.514 15862.537 0
-3392.0474 1483.5349 15905.646 0
-3301.5935 1485.3699 15925.32 0
-3222.9312 1492.7749 16004.713 0
-3152.0464 1504.342 16128.729 0
-3075.1667 1513.6841 16228.89 0
-2994.6882 1521.8022 16315.928 0
-2912.9763 1529.816 16401.848 0
-2829.604 1537.4825 16484.043 0
-2745.1438 1545.0867 16565.57 0
-2669.1343 1558.1898 16706.055 0
-2590.8127 1570.9036 16842.365 0
-2521.7268 1590.4641 17052.084 0
-2435.5579 1600.4376 17159.014 0
-2338.6946 1603.948 17196.65 0
-2308.8799 1655.8649 17753.275 0
-2238.957 1682.6121 18040.043 0
-2160.761 1705.5197 18285.646 0
-2053.616 1706.7936 18299.305 0
-1962.0853 1721.9133 18461.41 0
-1877.0343 1744.8474 18707.295 0
-1774.1549 1753.0531 18795.273 0
-1669.2552 1760.2312 18872.232 0
-1533.8206 1733.9248 18590.189 0
-1471.5796 1792.6998 19220.344 0
-1399.8813 1848.8774 19822.648 0
-1202.1407 1733.6132 18586.85 0
0 0 0 0
-994.70428 1757.4647 18842.572 328963
0 0 0 0
0 0 0 0
0 0 0 0
0 0 0 0
0 0 0 0
0 0 0 0
0 0 0 0
0 0 0 0
0 0 0 0
0 0 0 0
0 0 0 0
0 0 0 0
0 0 0 0
0 0 0 0
0 0 0 0
0 0 0 0
0 0 0 0
0 0 0 0
0 0 0 0
0 0 0 0
0 0 0 0
0 0 0 0
0 0 0 0
0 0 0 0
0 0 0 0
0 0 0 0
0 0 0 0
0 0 0 0
0 0 0 0
0 0 0 0
0 0 0 0
0 0 0 0
0 0 0 0
0 0 0 0
0 0 0 0
3222.4548 1864.8705 19994.117 65536
3305.0684 1844.656 19777.389 65536
3404.7839 1835.0471 19674.367 65536
3505.3247 1826.5063 19582.799 65536
3610.7834 1820.9949 19523.707 65536
3692.7871 1804.3661 19345.422 65536
3779.0554 1790.7621 19199.568 65536
3862.3875 1776.6051 19047.785 65536
3933.7729 1757.9159 18847.408 65536
4022.1353 1747.6379 18737.215 65536
4108.8408 1737.2134 18625.447 65536
4204.3066 1730.9421 18558.213 65536
4287.4204 1720.0367 18441.289 65536
4347.6899 1700.7383 18234.383 65536
4409.396 1682.9269 18043.418 65536
4462.2354 1662.6575 17826.1 131072
4500.145 1637.8945 17560.605 196608
4544.4912 1616.5433 17331.691 196608
4567.356 1588.667 17032.816 262144
4608.8394 1568.3352 16814.83 262144
4649.3838 1548.5538 16602.744 262144
4681.7769 1526.9363 16370.972 262144
4655.0273 1487.3022 15946.038 393216
4644.8486 1454.439 15593.695 393216
4672.3018 1434.4144 15379.004 393216
4614.936 1389.6182 14898.724 393216
4676.5186 1381.6515 14813.309 393216
4726.4438 1370.5985 14694.805 393216
5309.6128 1511.7739 16208.41 458752
5372.1294 1502.3174 16107.022 524288
5459.4214 1499.9991 16082.167 524288
5496.0942 1484.0923 15911.622 524288
5607.4009 1488.5355 15959.261 524288
5265.9434 1374.6399 14738.134 589824
5457.7183 1401.3907 15024.942 655360
5434.8511 1373.0533 14721.124 589824
5952.1938 1479.9296 15866.992 458752
5768.1455 1411.8008 15136.553 458752
5839.4287 1407.2994 15088.291 458752
5909.2832 1402.5947 15037.852 393216
6110.6152 1428.7723 15318.513 262144
6084.5811 1401.7994 15029.324 196608
6300.8711 1430.6272 15338.399 65536
6573.1685 1471.1681 15773.057 0
6379.377 1407.7183 15092.782 0
6483.7939 1410.9205 15127.115 0
6624.8936 1421.9083 15244.92 0
6672.4761 1412.7987 15147.252 0
6813.9946 1423.5564 15262.59 0
6921.3184 1426.9817 15299.314 0
7001.0967 1424.7124 15274.985 0
7083.7173 1423.0725 15257.401 0
7195.0288 1427.1647 15301.277 256
7222.9053 1414.8118 15168.835 256
7318.9062 1415.943 15180.963 256
7397.8862 1413.7939 15157.923 256
7476.1387 1411.559 15133.961 256
7467.8276 1393.2278 14937.424 256
7567.8369 1395.2986 14959.625 256
7636.3447 1391.5804 14919.762 256
7747.7739 1395.6798 14963.712 0
7851.3267 1398.2832 14991.625 0
7992.1177 1407.3856 15089.217 0
8090.4688 1408.8958 15105.406 0
8120.9473 1398.6826 14995.907 0
8211.3896 1398.9069 14998.312 256
8271.9756 1394.0946 14946.718 256
8500.1641 1417.3309 15195.844 256
8602.5117 1419.3164 15217.131 257
8607.5459 1405.3718 15067.625 2
7520.4585 1215.2375 13029.109 2
7509.9282 1201.168 12878.263 2
8823.8232 1397.0787 14978.711 2
8788.2109 1377.5421 14769.25 2
8886.9951 1379.2502 14787.563 0
8985.3887 1380.8646 14804.873 0
9063.5615 1379.3705 14788.854 0
8785.1973 1324.1654 14196.974 0
9293.3594 1387.4336 14875.301 0
9401.3398 1390.3278 14906.331 0
9358.2207 1371.0312 14699.444 0
9353.1875 1357.6198 14555.653 0
9511.6113 1367.9624 14666.542 0
9696.7109 1381.9189 14816.177 0
8943.6641 1263.1285 13542.57 0
9151.791 1280.9944 13734.118 0
9378.8848 1301.1755 13950.49 0
9706.207 1334.7866 14310.85 0
9720.3281 1325.1167 14207.174 0
9819.8936 1327.1611 14229.093 0
9905.8975 1327.3536 14231.156 0
9956.6045 1322.853 14182.904 0
9991.8994 1316.3975 14113.691 0
10014.36 1308.3729 14027.655 0
10041.883 1301.1365 13950.071 0
10039.152 1290.1307 13832.073 0
10119.139 1289.8475 13829.037 0
10192.106 1288.6814 13816.534 0
9180.5049 1151.4979 12345.729 0
9214.8291 1146.6387 12293.63 0
9131.7646 1127.3635 12086.974 0
9300.5225 1139.2356 12214.259 0
10262.201 1247.2976 13372.84 0
10407.046 1255.1812 13457.363 0
10576.435 1265.8821 13572.094 0
10649.19 1264.9429 13562.023 0
10794.837 1272.6108 13644.234 256
10932.821 1279.2678 13715.607 256
11117.114 1291.2048 13843.59 0
11163.143 1287.0256 13798.782 0
11371.822 1301.5231 13954.216 0
11533.809 1310.5052 14050.518 0
11724.339 1322.578 14179.955 0
11907.876 1333.6953 14299.149 0
12062.458 1341.4351 14382.13 256
12267.246 1354.6099 14523.384 256
12599.163 1381.5408 14812.122 0
13144.966 1431.3883 15346.56 395014
15115.553 1634.6283 17525.586 592392
16083.795 1727.4325 18520.582 0
16511.49 1761.3136 18883.838 65793
15376.816 1629.2015 17467.404 256
0 0 0 0
0 0 0 0
0 0 0 0
0 0 0 0
0 0 0 0
0 0 0 0
0 0 0 0
0 0 0 0
0 0 0 0
0 0 0 0
0 0 0 0
0 0 0 0
0 0 0 0
0 0 0 0
0 0 0 0
0 0 0 0
0 0 0 0
-10967.109 1189.7262 11991.479 0
-11196.856 1222.5945 12322.764 0
-10950.107 1203.5238 12130.548 0
-11484.014 1270.5709 12806.328 0
-11003.87 1225.5713 12352.769 0
-10929.474 1225.4615 12351.662 0
-10852.614 1225.0721 12347.737 0
-10774.35 1224.5178 12342.15 0
-10700.933 1224.5105 12342.076 0
-9765 1125.1241 11340.342 0
-10534.775 1222.2538 12319.331 0
-10454.238 1221.3987 12310.712 0
-8332.4561 980.36615 9881.2988 0
-8339.3584 988.14276 9959.6807 0
-8319.6279 992.85229 10007.149 0
-8262.7891 993.16925 10010.344 0
-8146.4829 986.29114 9941.0176 0
-8200.7383 1000.1132 10080.333 0
-8376.2725 1029.0381 10371.872 0
-8323.0117 1030.0756 10382.329 0
-8270.5859 1031.2327 10393.992 0
-8212.6846 1031.7191 10398.896 0
-8151.3354 1031.7769 10399.477 0
-8101.8853 1033.353 10415.363 0
-8049.4106 1034.5647 10427.576 0
-8002.1714 1036.4733 10446.813 0
-7954.5015 1038.3555 10465.784 0
-7900.2085 1039.3959 10476.271 0
-7841.4717 1039.8638 10480.986 0
-7784.8032 1040.6155 10488.563 0
-7724.4175 1040.8784 10491.214 0
-7665.3652 1041.3268 10495.732 0
-7615.2383 1043.0049 10512.647 0
-8022.2451 1107.8394 11166.125 0
-7966.3628 1109.2988 11180.836 0
-7905.7808 1110.123 11189.144 0
-7847.3882 1111.2714 11200.717 0
-7789.0962 1112.4535 11212.632 0
-7732.8281 1113.9476 11227.692 0
-7676.5742 1115.47 11243.036 0
-7623.749 1117.5216 11263.715 0
-7566.8262 1119.0035 11278.651 0
-7517.5469 1121.6525 11305.351 0
-7462.6538 1123.504 11324.013 0
-7409.6841 1125.6814 11345.959 0
-7344.0093 1125.951 11348.677 0
-7283.1724 1126.9741 11358.988 0
-7230.2954 1129.2596 11382.024 0
-7175 1131.2069 11401.652 0
-7121.5127 1133.4795 11424.557 0
-7062.6553 1134.9324 11439.202 65536
-7006.3291 1136.8246 11458.272 65536
-6957.7422 1140.0219 11490.499 65536
-6901.5664 1142.0267 11510.707 65536
-6846.0244 1144.1776 11532.387 65536
-6792.9512 1146.7891 11558.707 0
-6738.4019 1149.2018 11583.026 0
-6686.1738 1152.0646 11611.88 0
-6634.793 1155.1344 11642.821 0
-6584.4448 1158.4506 11676.246 0
-6531.103 1161.3053 11705.019 0
-6474.1084 1163.5648 11727.794 0
-6420.3921 1166.4692 11757.067 0
-6367.7466 1169.6342 11788.968 0
-6317.0171 1173.2255 11825.165 0
-6265.4194 1176.7345 11860.532 0
-6213.1763 1180.2007 11895.469 0
-6163.4058 1184.2218 11935.999 0
-6112.6782 1188.1505 11975.598 65536
-6058.3457 1191.4629 12008.983 65536
-6005.9897 1195.2476 12047.13 65536
-5955.3135 1199.4618 12089.606 65536
-5905.6987 1203.9955 12135.302 0
-5847.0811 1206.7832 12163.399 0
-5790.4023 1210.0458 12196.284 0
-5732.3521 1213.101 12227.077 0
-5674.9834 1216.3805 12260.133 0
-5618.2935 1219.8928 12295.534 0
-5563.8896 1224.0007 12336.938 0
-5514.127 1229.2529 12389.876 0
-5466.2998 1235.0846 12448.654 0
-5424.0991 1242.365 12522.035 0
-5380.5605 1249.5372 12594.326 0
-5330.1836 1255.3014 12652.424 0
-5288.2207 1263.2406 12732.444 0
-5242.9648 1270.6121 12806.743 65536
-5195.2578 1277.598 12877.156 65536
-5148.9751 1285.1484 12953.258 65536
-5105.6074 1293.6665 13039.113 65536
-5063.6665 1302.8143 13131.316 65536
-5011.5088 1309.5789 13199.497 65536
-4970.1821 1319.4338 13298.827 65536
-4932.1099 1330.485 13410.214 65536
-4886.4194 1339.8105 13504.208 65536
-4840.3555 1349.3435 13600.292 0
-4795.3999 1359.5144 13702.807 0
-4748.3022 1369.4191 13802.637 0
-4693.7539 1377.4851 13883.937 0
-4631.5151 1383.5426 13944.992 0
-4576.4404 1392 14030.235 0
-4521.855 1400.9231 14120.173 0
-4470.4614 1411.1909 14223.665 65536
-4414.2959 1420.3193 14315.672 0
-4348.9028 1426.7792 14380.781 0
-4281.6494 1432.8754 14442.226 65536
-4224.1499 1442.552 14539.759 65536
-4158.0713 1449.6421 14611.221 65536
-4088.241 1455.6984 14672.264 65536
-4039.7786 1469.7931 14814.327 65536
-4008.7661 1491.0062 15028.138 0
-3977.03 1512.9109 15248.92 0
-3881.0752 1510.8379 15228.024 0
-3771.0718 1503.0664 15149.694 0
-3700.0405 1510.8281 15227.927 0
-3629.3018 1519.1016 15311.316 0
-3579.4609 1536.7726 15489.426 0
-3527.7188 1554.5388 15668.495 0
-3475.3103 1572.9668 15854.234 0
-3390.05 1577.1384 15896.281 0
-3297.6025 1578.1099 15906.071 0
-3221.9429 1587.4094 15999.806 0
-3154.7698 1601.5834 16142.666 0
-3075.0396 1610.0714 16228.219 0
-3004.9141 1624.3009 16371.642 0
-2926.9878 1635.1251 16480.74 0
-2844.4111 1644.0111 16570.303 0
-2753.4131 1648.4924 16615.471 0
-2681.0308 1664.8671 16780.516 0
-2613.6592 1685.739 16990.887 0
-2552.4224 1712.4042 17259.65 0
-2476.7568 1731.2169 17449.268 0
-2409.7537 1757.9937 17719.156 0
-2332.7981 1779.6254 17937.186 0
-2251.7563 1800.0621 18143.172 0
-2167.3779 1819.7532 18341.643 0
-2065.2542 1825.842 18403.012 0
-1976.6635 1845.2448 18598.576 0
-1870.9863 1850.0511 18647.02 0
-1776.2206 1866.9309 18817.156 0
-1682.9794 1887.7897 19027.395 0
-1577.9532 1897.4822 19125.086 0
-1476.4841 1913.2885 19284.402 0
-1393.391 1957.5719 19730.744 0
-1268.9608 1946.5831 19619.984 0
-1105.3888 1867.2507 18820.379 0
-997.0896 1873.9355 18887.756 460550
-892.03674 1889.1915 19041.523 328963
-793.65039 1925.0513 19402.961 65793
-664.98438 1887.1719 19021.168 65792
0 0 0 0
0 0 0 0
0 0 0 0
0 0 0 0
0 0 0 0
0 0 0 0
125.9902 1881.6316 18965.326 262914
0 0 0 0
0 0 0 0
0 0 0 0
0 0 0 0
0 0 0 0
0 0 0 0
0 0 0 0
0 0 0 0
0 0 0 0
0 0 0 0
0 0 0 0
0 0 0 0
0 0 0 0
0 0 0 0
0 0 0 0
0 0 0 0
0 0 0 0
0 0 0 0
0 0 0 0
0 0 0 0
0 0 0 0
0 0 0 0
0 0 0 0
0 0 0 0
3101.3037 1982.22 19979.176 65536
3197.6919 1968.4586 19840.473 65536
3282.6538 1948.8922 19643.26 65536
3381.3049 1938.5179 19538.695 65536
3491.678 1935.3297 19506.561 65536
3586.8499 1924.1915 19394.297 65536
3678.4304 1911.8805 19270.211 65536
3751.8293 1891.1482 19061.246 65536
3819.8369 1868.9934 18837.943 65536
3883.4915 1846.0311 18606.502 65536
3978.1501 1838.6702 18532.309 65536
4057.5056 1824.8232 18392.744 65536
4167.0234 1824.9122 18393.641 65536
4287.4888 1829.6687 18441.582 65536
4281.5474 1781.589 17956.977 131072
4336.4448 1760.5476 17744.898 131072
4395.749 1742.2522 17560.494 65536
4438.4849 1718.391 17319.992 262144
4498.6445 1702.2041 17156.842 196608
4560.8945 1687.5084 17008.721 262144
4553.6499 1648.2946 16613.479 262144
4582.1309 1623.4027 16362.588 327680
4656.563 1615.4869 16282.804 327680
4664.2847 1585.2214 15977.75 393216
4688.2979 1561.5897 15739.563 327680
4744.6772 1549.4525 15617.229 327680
4800.1772 1537.4994 15496.752 327680
4786.6353 1504.2983 15162.112 393216
4330.231 1335.7175 13462.954 393216
5047.1177 1528.605 15407.104 458752
5163.5381 1535.9974 15481.613 458752
5096.7793 1489.5946 15013.909 458752
5222.1362 1499.9706 15118.492 458752
5551.8926 1567.7126 15801.277 458752
5270.5244 1463.5057 14750.956 393216
5473.4756 1494.9929 15068.321 458752
4722.8662 1269.2094 12792.604 393216
5930.3193 1568.4473 15808.681 458752
5825.8008 1516.7733 15287.85 458752
5748.2524 1473.6006 14852.703 458752
5764.7124 1455.4689 14669.95 393216
5861.5698 1457.8737 14694.189 262144
5924.7495 1451.9546 14634.529 131072
6171.4663 1490.5347 15023.386 0
6601.3896 1571.6316 15840.776 0
6276.4351 1473.2566 14849.236 0
6376.5703 1476.0067 14876.955 0
6472.9829 1477.8318 14895.35 0
6562.3682 1478.0247 14897.294 0
6685.5552 1485.7244 14974.901 0
6766.7915 1484.0216 14957.738 0
6832.4404 1478.9885 14907.01 0
6941.48 1483.3569 14951.039 0
7022.9312 1481.7941 14935.286 256
7241.5771 1508.8558 15208.048 256
7202.623 1482.2386 14939.768 256
7261.9883 1476.2565 14879.473 256
7360.1401 1478.2084 14899.146 256
7602.457 1508.7235 15206.714 256
7415.457 1454.324 14658.41 256
7499.8481 1453.7948 14653.077 256
7610.8623 1458.3796 14699.288 0
7720.3931 1462.5791 14741.615 0
7819.9619 1464.8182 14764.185 0
7929.9219 1468.9327 14805.655 0
7984.0093 1462.7207 14743.043 0
8096.9521 1467.309 14789.289 256
8176.1592 1465.751 14773.586 256
8306.082 1473.2213 14848.88 256
8330.6992 1462.0533 14736.316 256
8058.4097 1399.5521 14106.354 2
7326.7051 1259.3704 12693.436 2
8552.4053 1455.0706 14665.935 2
8680.6523 1461.9895 14735.673 2
8637.8809 1440.2552 14516.609 2
8761.8047 1446.4702 14579.251 256
8911.8379 1456.8315 14683.686 256
8956.7266 1449.9707 14614.532 256
9033.9561 1448.4268 14598.972 256
9128.7539 1449.7021 14611.826 256
9242.1494 1453.8792 14653.927 256
9248.6855 1441.3251 14527.392 256
9193.7109 1419.5059 14307.473 256
9482.5859 1450.6904 14621.787 256
9569.3955 1450.6763 14621.645 0
9359.0791 1406.025 14171.596 4540484
8936.2285 1330.5255 13410.623 657929
9199.5352 1357.6207 13683.72 0
9324.9131 1364.0646 13748.669 592136
9794.4004 1420.2961 14315.438 0
9729.5898 1398.7473 14098.243 0
9829.9199 1401.1046 14122.003 0
9911.1895 1400.7285 14118.211 0
9938.3994 1392.7826 14038.123 0
9989.165 1388.2426 13992.363 0
10032.355 1382.7333 13936.835 0
10068.941 1376.4117 13873.118 0
10199.896 1382.988 13939.402 0
10276.121 1382.0974 13930.425 0
8545.6084 1140.1642 11491.934 0
8300.293 1098.653 11073.534 0
10114.378 1328.2393 13387.578 0
9797.6387 1276.6019 12867.115 0
9168.2041 1185.3365 11947.234 0
10434.339 1338.6644 13492.656 0
10619.052 1351.9717 13626.782 0
10704.94 1352.5908 13633.022 0
10797.11 1353.9883 13647.108 0
11008.341 1370.1842 13810.35 0
11161.74 1378.9956 13899.161 0
11288.049 1384.3549 13953.179 0
11425.673 1391.0138 14020.295 0
11576.443 1399.1653 14102.455 0
11867.058 1423.9799 14352.566 0
12010.252 1430.877 14422.084 0
12582.11 1488.3846 15001.715 0
12732.991 1495.6345 15074.787 256
12884.329 1502.8362 15147.375 256
13039.358 1510.3657 15223.266 256
13355.56 1536.3313 15484.978 263939
13309.659 1520.573 15326.147 4147780
13281.421 1507.0331 15189.676 5855062
0 0 0 0
0 0 0 0
0 0 0 0
0 0 0 0
0 0 0 0
0 0 0 0
0 0 0 0
0 0 0 0
0 0 0 0
0 0 0 0
0 0 0 0
0 0 0 0
0 0 0 0
0 0 0 0
0 0 0 0
0 0 0 0
0 0 0 0
0 0 0 0
-10524.94 1210.1552 11508.009 0
-11186.332 1294.6147 12311.181 0
-10945.794 1275.1176 12125.771 0
-11472.131 1345.2899 12793.077 0
-10978.076 1295.9431 12323.812 0
-10905.89 1296.069 12325.009 0
-10829.41 1295.6829 12321.337 0
-10757.313 1295.8193 12322.635 0
-10687.627 1296.2499 12326.73 0
-10602.979 1294.8595 12313.508 0
-10515.124 1293.0553 12296.351 0
-10012.175 1239.8241 11790.146 0
-8344.3584 1040.5784 9895.4131 0
-8328.792 1046.0095 9947.0615 0
-8292.0371 1048.8384 9973.9619 0
-8214.1875 1046.4725 9951.4639 0
-8494.8164 1090.0729 10366.083 0
-8441.2715 1091.1155 10375.997 0
-8387.2812 1092.1151 10385.503 0
-8330.2324 1092.7284 10391.336 0
-8281.1689 1094.4064 10407.292 0
-8221.1494 1094.6505 10409.614 0
-8163.0708 1095.1589 10414.448 0
-8110.7593 1096.4547 10426.771 0
-8058.1802 1097.734 10438.937 0
-8006.0518 1099.095 10451.879 0
-8286.4727 1146.4874 10902.56 0
-8374.0117 1167.7305 11104.57 0
-8319.9326 1169.4059 11120.502 0
-8260.0537 1170.2863 11128.874 0
-8198.6426 1170.962 11135.301 0
-8045.1548 1158.391 11015.756 0
-8078.4976 1172.7355 11152.165 0
-8021.6963 1174.123 11165.36 0
-7962.6499 1175.2024 11175.625 0
-7903.7998 1176.3291 11186.339 0
