# .PCD v0.7 - Point Cloud Data file format
VERSION 0.7
FIELDS x y z rgb
SIZE 4 4 4 4
TYPE F F F U
COUNT 1 1 1 1
WIDTH 1393
HEIGHT 1
VIEWPOINT 0 0 0 1 0 0 0
POINTS 1393
DATA ascii
-2314.5535 4901.5488 15651.164 0
-2218.9045 4895.7495 15632.646 0
-2121.8491 4886.2041 15602.166 0
-2047.3969 4930.2153 15742.698 0
-1957.6523 4939.854 15773.476 65536
-1844.4836 4888.3813 15609.119 65536
-1776.7957 4958.3774 15832.623 65536
-1685.1362 4965.5649 15855.575 131072
-1597.1379 4985.0317 15917.733 196608
-1582.97 5251.9004 16769.873 131072
-1523.0999 5392.8164 17219.832 196608
-1406.5131 5338.752 17047.199 196608
-1315.031 5378.9819 17175.658 196608
-1235.9974 5481.188 17502.014 196608
-1126.4329 5454.3433 17416.295 196608
-999.91803 5331.6841 17024.631 196608
-876.25177 5198.3052 16598.738 196608
-760.99738 5087.3174 16244.343 196608
-639.39587 4895.48 15631.785 262144
-540.57928 4842.5249 15462.694 196608
-445.61346 4809.437 15357.042 393216
-351.48087 4770.6128 15233.072 393216
-259.59128 4745.8555 15154.02 393216
-166.65904 4665.6035 14897.765 327680
-76.471245 4567.3389 14583.997 262144
9.9864235 4468.8647 14269.557 196608
92.463249 4358.9248 13918.509 196608
170.72803 4248.0093 13564.343 65536
250.07819 4226.5889 13495.945 65536
326.53897 4178.5981 13342.705 65536
401.18408 4130.667 13189.657 65536
469.59634 4044.7214 12915.224 65536
538.7663 3988.5342 12735.812 0
604.27972 3922.4553 12524.814 196608
661.08502 3820.5452 12199.404 196608
727.89398 3790.8787 12104.676 196608
778.40381 3689.2979 11780.318 196608
824.71899 3586.2429 11451.253 196608
890.40076 3576.6946 11420.764 328193
976.74481 3645.6196 11640.849 262912
1072.3191 3737.5979 11934.546 131072
1205.7085 3941.7913 12586.557 196864
1389.7566 4278.0688 13660.326 460032
1537.6061 4471.9458 14279.396 919808
1609.629 4436.543 14166.352 393216
1697.9927 4447.4609 14201.212 458752
1781.9761 4446.4146 14197.871 458752
1877.1405 4472.1001 14279.89 458752
1974.9739 4501.6479 14374.238 458752
2047.5634 4473.5908 14284.648 458752
2106.4241 4418.9678 14110.23 458752
2188.6189 4415.604 14099.49 327680
2265.5237 4402.209 14056.72 131072
2332.5828 4371.3164 13958.075 131072
2407.5083 4356.7803 13911.661 131072
2485.7686 4349.0449 13886.96 65536
2550.2288 4318.438 13789.229 256
2596.9521 4260.6377 13604.666 65536
2650.7366 4217.562 13467.122 65536
2709.4097 4184.5625 13361.75 196608
2778.9492 4169.7466 13314.442 196608
2844.8713 4150.4741 13252.902 262144
2905.0979 4124.1538 13168.859 393216
2946.2502 4072.8469 13005.031 393216
3023.3894 4072.6392 13004.368 458752
3065.6982 4026.6934 12857.658 458752
3158.2478 4047.3674 12923.672 327680
3391.1917 4242.7056 13547.408 591110
3543.4875 4330.4253 13827.506 920333
3486.9019 4164.6841 13298.277 131075
3542.1841 4136.9424 13209.694 262146
3606.1917 4120.3721 13156.784 393218
3711.2676 4150.4336 13252.773 458752
3747.9094 4104.3037 13105.477 524288
3833.5945 4112.666 13132.178 458752
4000.4094 4205.9937 13430.183 327682
4533.249 4672.9766 14921.308 196610
4668.501 4720.0601 15071.651 131074
4424.8535 4389.499 14016.135 65537
4385.1631 4269.7432 13633.741 1
4503.085 4305.0122 13746.359 0
5118.2622 4805.9365 15345.864 263430
5423.7871 5003.6543 15977.198 66051
5684.3608 5153.8125 16456.668 197636
5443.6704 4852.0991 15493.266 1052945
5233.8516 4587.4824 14648.317 0
4895.4736 4220.6865 13477.098 65536
5001.6714 4242.8257 13547.791 131072
5103.4175 4260.5464 13604.376 0
5056.1074 4155.2178 13268.05 263172
5162.4287 4177.4424 13339.015 258
5208.2534 4150.7808 13253.882 2
5045.6279 3961.262 12648.729 1
5202.313 4024.3147 12850.062 2
5253.1831 4004.8726 12787.981 0
5249.5938 3945.0591 12596.99 0
5188.7852 3844.5317 12275.996 0
5091.8955 3720.4294 11879.725 0
4983.7593 3591.6167 11468.412 0
4937.2432 3510.0881 11208.083 0
4880.7368 3423.7224 10932.309 65536
4878.0474 3376.8811 10782.739 65536
4889.4561 3340.8882 10667.81 65536
4779.4136 3223.8931 10294.231 65536
4799.687 3196.6475 10207.233 0
4811.6011 3164.5842 10104.852 0
0 0 0 0
0 0 0 0
0 0 0 0
0 0 0 0
3216.8784 1991.454 6358.9233 1248776
3322.3503 2032.8649 6491.1523 196608
3876.3354 2344.6091 7486.585 196608
3891.2261 2326.9058 7430.0562 196608
3931.1682 2324.4124 7422.0942 65536
4025.6711 2353.8767 7516.1772 65536
4100.8525 2371.5208 7572.5166 65536
4202.5854 2403.9697 7676.1294 65536
4341.3545 2456.6797 7844.438 65536
4428.7852 2479.5269 7917.3916 65536
4593.3374 2544.6177 8125.2334 65536
4676.5977 2563.7883 8186.4473 65536
4761.2246 2583.3057 8248.7686 0
4723.6216 2536.7827 8100.2153 0
4790.0708 2546.5151 8131.292 0
4923.7246 2591.4238 8274.6904 0
5038.563 2625.6389 8383.9434 65536
5075.9258 2619.2068 8363.4043 65536
5166.9883 2640.3396 8430.8838 65536
5309.6816 2687.1968 8580.5029 65536
5392.1709 2702.9832 8630.9111 65536
5535.6685 2748.7661 8777.1006 65536
5660.2754 2784.4016 8890.8887 65536
5708.0615 2781.9377 8883.0215 65536
5804.21 2802.8733 8949.8711 65536
5916.5894 2831.1956 9040.3066 65536
6024.4224 2856.8521 9122.2305 65536
6126.4053 2879.3013 9193.9131 65536
6210.3633 2892.957 9237.5176 0
6287.229 2903.0991 9269.9023 196608
6360.0913 2911.2322 9295.8721 196608
6444.3784 2924.4097 9337.9492 196608
6581.2827 2961.0352 9454.8984 196608
6933.4878 3093.0884 9876.5586 0
7180.1646 3176.2427 10142.079 65536
7280.9614 3194.0173 10198.836 0
7397.1489 3218.1946 10276.036 0
7518.2197 3244.0835 10358.701 0
7933.3452 3395.4041 10841.884 0
8093.8745 3436.199 10972.147 0
8337.3008 3511.2546 11211.808 0
8756.4697 3658.5466 11682.126 0
8544.792 3542.02 11310.045 0
8987.6885 3696.532 11803.418 0
8786.0576 3585.6167 11449.253 0
9208.2861 3729.0486 11907.246 0
9646.8574 3876.8599 12379.224 0
9878.9385 3940.0784 12581.088 0
10082.836 3991.1904 12744.294 0
10454.507 4107.4575 13115.546 0
10389.924 4051.8721 12938.056 0
10536.513 4078.8516 13024.204 0
10633.787 4086.4861 13048.582 65536
10895.866 4156.8848 13273.373 0
11177.599 4233.7158 13518.702 65536
11355.642 4270.4565 13636.019 65536
11781.472 4399.1997 14047.109 65536
11781.662 4368.3154 13948.493 65536
11642.986 4286.7354 13687.999 65536
11323.448 4140.1587 13219.964 65536
12068.07 4382.0068 13992.211 65536
13233.971 4772.4668 15238.992 65536
12040.557 4312.5806 13770.526 65536
13778.125 4901.6099 15651.359 196608
14308.542 5056.1714 16144.891 196608
14603.509 5126.0273 16367.947 196608
15080.217 5258.3301 16790.404 196608
13641.843 4725.5127 15089.062 196608
13716.99 4720.5117 15073.093 196608
13244.003 4528.1665 14458.914 262144
13416.452 4557.5552 14552.756 262144
13518.389 4562.7681 14569.401 262144
13487.555 4523.3867 14443.652 262144
14115.009 4703.8804 15019.987 262144
14235.977 4714.3784 15053.508 262144
14518.373 4777.8691 15256.241 262144
14467.586 4731.6045 15108.514 196608
14828.024 4819.5723 15389.403 196608
13162.656 4252.0474 13577.236 196608
0 0 0 0
0 0 0 0
0 0 0 0
-8908.124 3128.5972 9803.8857 0
-9103.7383 3218.3496 10085.138 0
-7978.1963 2839.1414 8896.8369 0
-7886.0317 2825.0671 8852.7334 0
-7832.3311 2824.6753 8851.5059 0
-7805.4868 2834.0298 8880.8193 0
-7859.5684 2873.094 9003.2324 0
-7831.0562 2882.2942 9032.0625 0
-7822.2612 2898.9292 9084.1904 0
-7816.2876 2916.8479 9140.3408 0
-8326.0078 3128.8081 9804.5479 0
-8337.5967 3155.2463 9887.3955 0
-8287.6982 3158.6252 9897.9834 0
-8258.9004 3170.1519 9934.1035 0
-8204.4092 3171.9111 9939.6162 0
-8218.7646 3200.5056 10029.222 0
-8189.8589 3212.5488 10066.96 0
-8142.7705 3217.5842 10082.739 0
-8092.2573 3221.3308 10094.479 0
-8044.0127 3226.0435 10109.247 0
-7993.3755 3229.8599 10121.207 0
-7937.6211 3231.6511 10126.819 0
-7886.5771 3235.4021 10138.574 0
-7836.7065 3239.6958 10152.029 0
-7791.1455 3245.8516 10171.319 0
-7738.5825 3249.1638 10181.698 0
-7689.6279 3254.0552 10197.026 0
-7639.3027 3258.4397 10210.766 0
-7585.127 3261.239 10219.537 0
-7528.5024 3263.022 10225.124 0
-7477.1909 3267.155 10238.076 0
-7397.876 3259.0203 10212.585 0
-7351.2832 3265.2849 10232.216 0
-7305.8477 3272.1724 10253.799 0
-7267.3467 3282.3081 10285.561 0
-7209.0762 3283.6104 10289.642 0
-7157.7061 3288.1055 10303.728 0
-7105.8921 3292.4727 10317.412 0
-7054.5742 3297.1472 10332.061 0
-7003.3174 3301.9331 10347.058 0
-6951.2715 3306.4277 10361.143 0
-6902.1099 3312.3877 10379.818 0
-6852.8013 3318.3833 10398.607 0
-6803.8345 3324.6555 10418.262 0
-6754.4243 3330.824 10437.592 0
-6703.8086 3336.5073 10455.4 0
-6655.6509 3343.5315 10477.412 0
-6604.354 3349.0964 10494.851 0
-6558.2886 3357.4458 10521.014 0
-6528.4658 3374.3511 10573.989 0
-6474.7637 3379.1226 10588.941 0
-6415.8496 3381.241 10595.58 0
-6366.1914 3388.3276 10617.787 0
-6295.1777 3384.0759 10604.464 0
-6240.998 3388.8801 10619.518 0
-6192.0791 3396.6672 10643.921 0
-6142.6089 3404.3101 10667.87 65536
-6094.3301 3412.7793 10694.41 65536
-6048.0415 3422.5535 10725.038 65536
-5996.6914 3429.6414 10747.249 65536
-5946.9136 3437.79 10772.784 65536
-5895.3594 3445.0784 10795.624 0
-5842.085 3451.511 10815.781 0
-5789.9834 3458.7871 10838.582 0
-5738.8789 3466.8296 10863.783 0
-5688.8721 3475.7256 10891.66 0
-5635.835 3482.9536 10914.311 0
-5584.2778 3491.2749 10940.387 0
-5529.6724 3497.8643 10961.035 0
-5499.8599 3520.4812 11031.908 0
-5459.5913 3536.8696 11083.264 0
-5437.8682 3565.8198 11173.982 0
-5400.3462 3584.9973 11234.078 0
-5359.7896 3602.6157 11289.288 0
-5322.6426 3623.001 11353.168 0
-5276.6816 3637.8342 11399.649 0
-5241.9653 3660.9055 11471.947 0
-5205.6772 3683.4731 11542.666 0
-5153.375 3695.1611 11579.291 0
-5108.0186 3712.2124 11632.725 0
-5067.6182 3733.3831 11699.065 0
-5021.7188 3751.0356 11754.382 0
-4984.9165 3776.0771 11832.853 0
-4933.2319 3790.4006 11877.737 0
-4882.7705 3806.0935 11926.914 0
-4842.1641 3830.0437 12001.965 0
-4804.7041 3857.2361 12087.176 0
-4776.3828 3892.7021 12198.313 0
-4797.7241 3970.3594 12441.663 0
-4744.7437 3987.9807 12496.882 0
-4601.6997 3929.2593 12312.87 65536
-4558.9248 3955.6404 12395.539 65536
-4533.8506 3998.499 12529.842 65536
-4459.5283 3998.6309 12530.255 65536
-4423.6016 4033.7791 12640.396 65536
-4358.0913 4042.699 12668.349 65536
-4301.8833 4060.7131 12724.799 65536
-4226.229 4060.688 12724.72 65536
-4165.0781 4074.8508 12769.102 65536
-4101.624 4087.2441 12807.938 65536
-4110.2329 4173.2749 13077.526 65536
-4069.9993 4212.0737 13199.108 65536
-4011.2493 4232.8589 13264.241 65536
-3923.1663 4222.9033 13233.044 65536
-3841.3606 4219.4355 13222.178 0
-3789.1514 4249.0112 13314.856 0
-3749.032 4293.6948 13454.879 0
-3731.1477 4366.3467 13682.543 0
-3655.47 4373.0967 13703.695 256
-3627.0417 4437.9678 13906.978 256
-3560.7397 4458.4424 13971.137 256
-3426.7212 4393.0815 13766.32 0
-3458.8909 4542.7886 14235.448 0
-3430.1145 4617.9526 14470.984 0
-3370.6418 4654.5928 14585.801 0
-3242.9587 4596.4878 14403.722 0
-3167.8423 4611.7588 14451.576 0
-3157.7805 4725.2275 14807.146 0
-3014.9717 4640.8682 14542.794 0
-2971.0762 4708.2773 14754.029 0
-2893.6992 4725.1147 14806.792 0
-2769.1685 4663.5957 14614.014 0
-2755.73 4791.2432 15014.014 0
-2671.9756 4801.0879 15044.864 0
-2598.1392 4830.0527 15135.63 0
-2472.9304 4762.1665 14922.898 0
-2373.2505 4740.2192 14854.124 0
-2289.8835 4750.4185 14886.084 0
-2260.3857 4877.6807 15284.879 0
-2181.7854 4905.2065 15371.134 0
-2078.0862 4876.2432 15280.373 65536
-2024.4844 4967.5581 15566.521 65536
-1984.4923 5102.6133 15989.734 65536
-1887.3267 5096.8521 15971.682 65536
-1766.5553 5023.3564 15741.372 65536
-1658.168 4978.8247 15601.827 65536
-1589.2888 5054.6724 15839.506 65536
-1518.5634 5133.8291 16087.554 65536
-1428.5741 5154.1216 16151.145 65536
-1314.8204 5085.4229 15935.867 65536
-1204.8485 5021.8213 15736.562 65536
-1127.1461 5093.333 15960.654 65536
-1032.4974 5094.374 15963.917 65536
-925.474 5028.3896 15757.146 65536
-828.35815 5007.4399 15691.495 65536
-705.76379 4807.6157 15065.319 131072
-612.17444 4776.0112 14966.282 196608
-518.41144 4732.0757 14828.604 196608
-427.23572 4698.5967 14723.694 196608
-340.26904 4706.0835 14747.155 196608
-252.74091 4708.3062 14754.119 131072
-160.82707 4587.7817 14376.441 196608
-74.125832 4511.2759 14136.699 0
9.5910606 4373.3931 13704.624 0
87.725517 4214.062 13205.338 0
161.14101 4085.5581 12802.654 0
234.96777 4046.571 12680.482 0
308.86353 4027.4197 12620.469 0
373.12534 3914.677 12267.175 0
431.49319 3787.063 11867.278 0
491.23163 3705.6458 11612.146 0
557.25562 3685.8625 11550.153 0
634.45251 3736.2146 11707.938 328964
687.79059 3649.9983 11437.768 657928
713.0365 3443.6201 10791.054 1250065
770.78809 3415.3354 10702.42 0
814.35956 3333.3215 10445.418 460550
998.40125 3797.1697 11898.949 1974557
1052.0397 3736.5034 11708.843 1909278
1192.8357 3973.7141 12452.176 1645331
1322.2417 4147.4824 12996.703 460032
1469.9435 4356.29 13651.029 327680
1574.8438 4423.0425 13860.207 458752
1671.1392 4460.1924 13976.622 393216
1783.6372 4535.0205 14211.106 131072
1923.1488 4668.6611 14629.887 526087
2025.746 4705.0024 14743.768 2565669
2042.7152 4547.6958 14250.826 2
2141.2126 4577.1958 14343.268 1250582
2304.1389 4736.8901 14843.691 2041383
2417.9929 4787.6436 15002.734 1910823
2424.583 4629.9565 14508.602 1516579
2540.7449 4685.1519 14681.562 1450531
2590.9641 4619.1206 14474.645 1780009
2584.5676 4459.6436 13974.901 2108975
2651.0747 4431.9746 13888.197 1515809
2696.1267 4371.1924 13697.728 3159092
2679.7722 4217.3335 13215.59 0
2769.979 4235.1641 13271.465 65536
2949.0747 4384.1509 13738.336 2565154
3037.2695 4393.6162 13767.996 2104603
2945.7644 4149.4561 13002.888 131072
2987.8704 4101.1753 12851.592 196608
3062.4675 4098.7871 12844.109 393216
3137.0181 4096.4546 12836.799 458752
3186.1567 4061.8362 12728.317 524288
3480.9602 4334.7432 13583.51 589824
3447.4756 4195.7368 13147.915 458752
3384.5002 4027.7966 12621.65 458752
3428.9802 3992.2461 12510.248 458752
3517.0679 4007.8979 12559.295 393216
3604.8821 4022.5938 12605.347 196608
3724.6626 4071.636 12759.026 262658
3883.8826 4160.9741 13038.979 2434085
3933.5623 4131.7568 12947.424 2434086
3972.2588 4092.3455 12823.923 65793
4046.9219 4090.7749 12819.002 1
4229.4917 4196.3228 13149.75 198152
4336.8345 4224.7573 13238.854 3160122
4782.4995 4575.8848 14339.16 2107689
4983.7817 4684.9863 14681.045 1448733
5121.5215 4731.6289 14827.204 724752
5112.2344 4643.1562 14549.963 328966
5145.3931 4595.5371 14400.742 0
4949.8979 4348.5986 13626.928 131072
5016.5054 4336.167 13587.971 262144
5134.4458 4367.7979 13687.091 196608
5087.9629 4260.75 13351.643 0
5567.8032 4590.9751 14386.446 65536
5238.502 4254.1177 13330.858 0
4995.7344 3996.5234 12523.652 65536
5185.1562 4087.1636 12807.685 0
5177.1436 4021.8057 12602.877 0
5066.7061 3879.8787 12158.13 65536
5075.752 3832.1528 12008.574 262144
5065.4658 3771.3574 11818.062 524288
4981.0835 3657.8127 11462.255 786432
4935.0396 3575.1055 11203.081 917504
4831.3096 3453.3672 10821.598 851968
4809.5625 3392.6577 10631.356 655360
4746.5703 3304.8062 10356.062 393216
4768.8174 3277.7922 10271.409 196608
4728.873 3209.2546 10056.638 65536
4833.2192 3239.1287 10150.251 131072
0 0 0 0
0 0 0 0
0 0 0 0
0 0 0 0
0 0 0 0
3260.6565 2032.9785 6370.6157 328192
3806.1626 2345.855 7351.0566 262144
3961.8347 2414.0898 7564.8799 262144
4072.5452 2453.7039 7689.0156 196608
4006.1199 2386.8989 7479.6733 65536
4090.1445 2410.2168 7552.7437 65536
4173.729 2432.772 7623.4229 65536
4238.4688 2443.9761 7658.5327 65536
4504.2373 2569.6274 8052.2783 65536
4476.3545 2526.8726 7918.2998 65536
4678.5195 2613.5171 8189.812 65536
4678.6597 2586.6833 8105.7256 0
4674.4966 2558.0422 8015.9741 0
4759.4287 2578.2429 8079.2759 0
4820.5854 2585.2893 8101.3569 0
5093.8818 2704.8423 8475.9922 0
5162.1147 2714.2312 8505.4141 0
5227.1621 2721.7798 8529.0684 65536
5350.8804 2759.4397 8647.0811 65536
5390.2271 2753.2869 8627.7998 65536
5493.061 2779.373 8709.5449 65536
5592.2349 2803.1375 8784.0137 65536
5662.6372 2812.1741 8812.3311 65536
5810.9507 2859.3823 8960.2646 65536
5865.3843 2859.9575 8962.0674 65536
5962.752 2881.2686 9028.8486 65536
6059.6436 2901.9714 9093.7236 65536
6144.1313 2916.4204 9139.002 65536
6219.4331 2926.2947 9169.9434 65536
6309.4756 2942.8726 9221.8926 65536
6378.9165 2949.6382 9243.0938 196608
6460.6084 2961.905 9281.5342 131072
6649.187 3022.5522 9471.5801 0
7052.1367 3178.811 9961.2383 65536
7168.3008 3204.2729 10041.026 0
7284.957 3229.5322 10120.181 0
7520.1157 3306.4819 10361.312 0
7897.3726 3444.1528 10792.723 0
8240.6436 3564.9031 11171.109 0
8195.9424 3517.2271 11021.711 0
8406.2979 3578.8958 11214.958 0
8954.1699 3782.1575 11851.906 0
8879.1602 3721.2002 11660.889 0
9289.3311 3862.9487 12105.077 0
9321.2969 3846.4512 12053.38 0
9527.4092 3901.5195 12225.943 0
9519.3721 3868.7224 12123.169 0
9909.0605 3996.8418 12524.649 0
10186.851 4078.2527 12779.762 0
10408.992 4136.3447 12961.801 0
10369.682 4090.45 12817.983 0
10585.946 4145.3047 12989.878 0
10728.914 4170.8706 13069.992 65536
10922.689 4215.6787 13210.404 65536
11023.585 4224.2549 13237.279 65536
11514.226 4381.0029 13728.471 65536
11706.543 4422.8354 13859.559 65536
11974.768 4492.5615 14078.055 65536
11993.517 4468.374 14002.26 65536
12133.885 4489.5186 14068.52 65536
11175.44 4106.5972 12868.583 65536
11678.207 4262.1777 13356.115 65536
13357.588 4842.1846 15173.646 196608
13998.891 5040.6294 15795.499 196608
13858.73 4956.9189 15533.183 196608
12925.277 4592.4541 14391.082 196608
14785.106 5218.7324 16353.609 196608
13617.772 4775.3032 14964.064 196608
12564.26 4377.2837 13716.815 262144
13135.745 4546.8818 14248.274 262144
13274.663 4565.5352 14306.727 262144
12979.424 4435.582 13899.502 262144
13970.706 4744.1475 14866.434 262144
14110.311 4761.4409 14920.625 262144
14423.812 4836.832 15156.874 262144
14415.099 4803.9082 15053.701 196608
14188.812 4699.3296 14725.991 196608
13160.89 4332.1597 13575.414 196608
0 0 0 0
0 0 0 0
0 0 0 0
-7907.2183 2828.793 8702.334 0
-9000.6504 3241.1667 9970.9365 0
-7953.7725 2883.165 8869.6016 0
-7494.9414 2734.9697 8413.7012 0
-7681.3389 2821.8145 8680.8662 0
-7529.874 2784.8779 8567.2363 0
-7669.4663 2855.8167 8785.4678 0
-7799.8804 2924.2866 8996.1055 0
-8390.7705 3167.5327 9744.4141 0
-8357.4639 3176.887 9773.1904 0
-8309.8477 3180.8945 9785.5186 0
-8271.8125 3188.6521 9809.3838 0
-8233.2109 3196.2993 9832.9092 0
-8243.9688 3223.3552 9916.1426 0
-8195.3008 3227.3989 9928.582 0
-8138.9604 3228.4575 9931.8389 0
-8109.7515 3240.3721 9968.4922 0
-8064.7051 3246.0879 9986.0752 0
-8022.6328 3253.094 10007.629 0
-7972.1353 3256.7629 10018.916 0
-7923.8501 3261.3975 10033.174 0
-7885.3486 3270.1602 10060.131 0
-7839.5469 3276.0059 10078.114 0
-7787.7231 3279.4058 10088.573 0
-7729.1631 3280.0002 10090.401 0
-7674.624 3282.3232 10097.548 0
-7627.9873 3288.0891 10115.286 0
-7573.314 3290.4548 10122.564 0
-7518.6899 3292.8801 10130.025 0
-7462.4492 3294.6309 10135.411 0
-7408.374 3297.3745 10143.851 0
-7362.6685 3303.918 10163.981 0
-7317.6299 3310.8721 10185.374 0
-7261.4385 3312.854 10191.471 0
-7208.1201 3316.1904 10201.735 0
-7147.8594 3316.363 10202.267 0
-7098.4438 3321.6133 10218.418 0
-7052.6919 3328.6833 10240.168 0
-7001.0679 3333.0806 10253.695 0
-6949.3696 3337.5203 10267.353 0
-6897.147 3341.7834 10280.469 0
-6848.6621 3347.9504 10299.44 0
-6802.2051 3355.2288 10321.831 0
-6755.4961 3362.5149 10344.245 0
-6706.2207 3368.6453 10363.104 0
-6659.3369 3376.1016 10386.042 0
-6611.1821 3383.0471 10407.409 0
-6564.3481 3390.8057 10431.277 0
-6515.3027 3397.5596 10452.055 0
-6473.8145 3408.4221 10485.472 0
-6427.0654 3416.6995 10510.935 0
-6381.5508 3425.8015 10538.937 0
-6335.2407 3434.6526 10566.166 0
-6278.9766 3438.231 10577.174 0
-6213.3892 3436.7244 10572.539 0
-6162.6035 3443.4578 10593.253 0
-6112.4111 3450.6653 10615.426 0
-6055.46 3454.1677 10626.2 0
-5994.4092 3455.3806 10629.932 0
-5950.5132 3466.6135 10664.488 0
-5905.6812 3477.5374 10698.093 0
-5855.5625 3485.551 10722.747 0
-5804.4395 3493.1379 10746.086 0
-5747.418 3497.3037 10758.901 0
-5694.9805 3504.3838 10780.683 0
-5644.0776 3512.5808 10805.898 0
-5593.2349 3521.0037 10831.811 0
-5549.5312 3534.1697 10872.313 0
-5496.2266 3541.459 10894.738 0
-5455.3311 3557.0134 10942.59 0
-5418.9072 3575.894 11000.673 0
-5390.8149 3600.801 11077.295 0
-5347.3589 3615.9348 11123.852 0
-5305.832 3632.7681 11175.637 0
-5267.8984 3652.52 11236.4 0
-5231.4966 3673.8542 11302.031 0
-5194.3354 3695.2039 11367.71 0
-5151.4653 3713.001 11422.461 0
-5101.2373 3725.8992 11462.14 65536
-5045.3662 3734.9695 11490.043 0
-5003.1514 3754.5369 11550.239 0
-4964.0518 3777.0188 11619.4 0
-4923.251 3798.8223 11686.476 0
-4873.6782 3814.3845 11734.351 0
-4814.6885 3822.9211 11760.612 0
-4776.0649 3848.1189 11838.129 0
-4757.5469 3890.5112 11968.543 0
-4727.1294 3924.3123 12072.525 0
-4704.4478 3965.6758 12199.774 0
-4667.3145 3995.9619 12292.944 65536
-4554.1763 3961.1042 12185.71 65536
-4502.7041 3979.6218 12242.677 131072
-4451.2822 3998.7932 12301.654 131072
-4407.8281 4025.8821 12384.989 196608
-4363.2812 4052.8762 12468.032 131072
-4308.186 4070.8354 12523.281 196608
-4253.8789 4090.1843 12582.805 196608
-4165.5327 4076.9106 12541.971 196608
-4104.0405 4089.9143 12581.975 196608
-4061.3198 4122.4551 12682.081 196608
-4027.2461 4165.1704 12813.487 196608
-3977.7256 4193.2476 12899.862 196608
-3897.9924 4189.9536 12889.729 196608
-3810.0571 4177.5332 12851.521 65536
-3739.9534 4184.5571 12873.128 65536
-3691.342 4216.4233 12971.16 65536
-3672.9753 4284.9331 13181.919 0
-3639.1018 4337.9443 13345 0
-3567.9482 4347.8887 13375.592 0
-3513.6885 4379.3418 13472.353 0
-3428.0452 4372.2349 13450.488 0
-3311.4619 4324.3843 13303.284 0
-3359.4319 4494.3364 13826.114 0
-3292.9441 4515.8467 13892.288 0
-3255.4805 4579.2905 14087.463 0
-3150.6653 4548.8438 13993.798 0
-3081.5818 4569.7329 14058.06 0
-3101.2827 4727.1157 14542.223 0
-2958.583 4638.8867 14270.801 0
-2859.5559 4615.9473 14200.232 0
-2797.8489 4653.6875 14316.334 0
-2714.5269 4656.7153 14325.648 0
-2640.145 4675.7725 14384.274 0
-2563.6189 4692.1802 14434.75 0
-2497.5723 4729.5688 14549.77 0
-2412.1414 4731.6152 14556.066 0
-2314.1848 4708.3306 14484.434 65536
-2225.6338 4703.1221 14468.41 65536
-2278.1323 5007.5327 15404.882 0
-2188.3057 5011.4946 15417.07 0
-2102.3647 5025.0894 15458.894 0
-2000.1638 4999.2871 15379.517 0
-1932.0459 5060.2812 15567.155 65536
-1786.7201 4915.0229 15120.29 65536
-1618.5935 4688.3345 14422.919 65536
-1538.4401 4705.3608 14475.299 65536
-1495.6764 4845.5361 14906.525 0
-1352.2666 4656.7705 14325.817 0
-1275.1093 4686.1191 14416.104 0
-1164.8068 4589.1108 14117.674 0
-1084.8246 4605.771 14168.926 65536
-1008.7924 4643.4175 14284.738 65536
-931.07697 4679.5215 14395.808 65536
-861.02466 4765.3442 14659.828 0
-765.79559 4715.4639 14506.379 256
-670.24445 4650.6929 14307.12 0
-578.48102 4597.1987 14142.555 0
-484.40369 4504.0024 13855.851 256
-401.19421 4494.375 13826.233 0
-318.24017 4483.3867 13792.43 0
-238.22545 4520.5503 13906.758 0
-149.95984 4357.4526 13405.013 197377
-71.920013 4458.5493 13716.021 513
9.3500357 4342.8936 13360.225 264455
87.034607 4258.7383 13101.335 659469
162.72565 4202.5742 12928.555 1252632
234.62032 4115.8403 12661.731 1450270
313.71109 4166.8145 12818.546 1582115
383.42114 4097.6167 12605.669 2108973
429.39691 3838.8533 11809.625 2175024
511.01251 3926.6587 12079.744 2175026
553.94189 3732.1829 11481.47 1780269
605.72968 3633.5029 11177.897 2109490
649.11615 3508.9153 10794.622 1450789
684.8446 3369.0664 10364.399 2107178
713.18475 3218.9517 9902.5957 2
789.08722 3290.0315 10121.262 1
920.25171 3565.1318 10967.563 3160122
1027.5977 3717.6658 11436.812 2635832
1163.521 3948.2466 12146.155 3161147
1292.92 4131.04 12708.491 1645079
1440.3711 4348.1509 13376.397 65536
1552.7278 4442.1479 13665.564 196608
1672.3459 4546.5415 13986.716 526087
1822.7566 4720.7988 14522.791 1777696
1884.9672 4661.1953 14339.43 2501677
1882.1093 4452.8052 13698.352 1777440
2004.6167 4545.9956 13985.036 259
2092.6421 4556.6812 14017.909 1118997
2403.0083 5032.1548 15480.628 987669
2470.5593 4982.8301 15328.889 790803
2529.7695 4920.79 15138.032 988183
2584.3469 4854.3096 14933.515 726556
2635.6458 4786.2896 14724.263 1581094
2656.4009 4668.957 14363.308 1515557
2636.7927 4490.1963 13813.379 1383197
2629.9539 4343.3193 13361.535 1118739
2661.4524 4266.5103 13125.244 65537
2731.7368 4254.4814 13088.239 262144
2821.6521 4272.8462 13144.735 327682
2914.8589 4295.0713 13213.106 262145
2929.0317 4202.728 12929.027 196608
2974.4834 4158.8394 12794.011 262144
3144.8726 4287.4688 13189.72 196608
3085.6489 4104.4185 12626.594 262144
3207.2881 4164.9258 12812.735 524803
3305.3945 4192.7764 12898.413 327680
3281.855 4068.5576 12516.273 393216
3305.7114 4007.301 12327.828 524288
3350.7278 3973.7954 12224.753 458752
3408.5518 3956.5791 12171.789 458752
3493.9026 3971.3665 12217.28 393216
3588.4517 3995.7939 12292.428 196608
3748.8308 4091.0874 12585.583 394759
3750.6221 4012.9714 12345.271 657931
3686.5146 3868.6975 11901.436 2105637
3923.9363 4040.3293 12429.434 4
4020.3284 4063.0881 12499.448 395274
4350.2905 4316.793 13279.931 2962487
4529.0942 4414.1343 13579.387 2304814
4658.1172 4460.3999 13721.714 1515298
4717.585 4439.6157 13657.776 1054490
4596.8921 4252.8579 13083.244 1185304
4502.3867 4096.1377 12601.12 394760
4894.6143 4380.1157 13474.732 0
5009.708 4410.9399 13569.559 1184275
5032.5439 4360.8438 13415.446 790286
5303.2095 4523.7124 13916.485 526857
5434.9487 4564.8921 14043.169 66050
5210.9141 4310.5269 13260.653 0
5692.4009 4638.6602 14270.104 0
5728.0991 4599.2256 14148.79 0
5525.9209 4372.6987 13451.916 0
5014.2778 3911.2439 12032.323 0
4916.207 3780.8254 11631.111 196608
4843.2871 3673.0981 11299.705 458752
4849.5664 3627.5596 11159.613 851968
4844.5049 3574.8816 10997.558 1245184
4752.5161 3460.3135 10645.107 1507328
4695.3623 3373.7866 10378.921 1703936
4540.7739 3220.4011 9907.0547 1703936
4589.7969 3213.4993 9885.8223 1572864
4625.5161 3197.5752 9836.834 1376256
4652.5015 3176.0859 9770.7266 1179648
4650.6191 3135.6626 9646.3701 917504
4638.2725 3089.2544 9503.6025 655360
4491.2686 2955.3555 9091.6836 524288
0 0 0 0
0 0 0 0
3189.2156 2025.4695 6231.0361 788227
3465.6826 2175.7881 6693.4678 196608
3926.1042 2436.873 7496.6543 262144
4048.1997 2484.4612 7643.0518 196608
4088.3259 2481.2449 7633.1572 65536
4075.1641 2446.1133 7525.0806 65536
4166.4443 2473.7554 7610.1172 65536
4227.9849 2483.3357 7639.5894 0
4362.7563 2535.2678 7799.3506 0
4524.9224 2601.8606 8004.2129 0
4598.5166 2616.6682 8049.7656 0
4597.1304 2588.9441 7964.4771 0
4732.7158 2638.1365 8115.8101 0
4833.3413 2667.0459 8204.7451 65536
4801.4956 2623.01 8069.2754 65536
4952.0684 2678.5127 8240.0205 65536
5056.4902 2708.2104 8331.3809 65536
5220.394 2768.8813 8518.0254 65536
5307.7251 2788.1628 8577.3418 65536
5278.8511 2746.6152 8449.5273 65536
5461.2793 2814.7566 8659.1533 65536
5543.3071 2830.3618 8707.1602 65536
5631.7632 2848.9304 8764.2842 65536
5724.2896 2869.199 8826.6367 65536
5796.2046 2878.8618 8856.3633 65536
5938.9116 2923.1958 8992.749 65536
6035.1396 2944.0652 9056.9512 65536
6105.1177 2951.8735 9080.9717 65536
6179.4775 2961.6453 9111.0332 65536
6268.0098 2977.9805 9161.2861 65536
6339.9727 2986.23 9186.6641 131072
6400.6509 2989.0688 9195.3975 0
6454.0342 2988.4814 9193.5908 65536
6894.5771 3165.6699 9738.6826 65536
7014.9956 3194.1455 9826.2832 0
7118.0903 3214.3276 9888.3711 0
7252.9468 3248.405 9993.2041 0
7598.4214 3375.4929 10384.17 0
8352.6689 3680.6611 11322.972 0
8653.8115 3782.8833 11637.442 0
8613.7588 3735.519 11491.733 0
8858.6309 3811.491 11725.448 0
9041.7793 3859.927 11874.454 0
9151.1465 3876.3591 11925.006 0
9318.3145 3916.8354 12049.524 0
9523.9033 3972.72 12221.445 0
9705.4805 4017.8186 12360.184 0
9937.7559 4083.0701 12560.92 0
9865.7354 4023.2563 12376.911 0
9586.4619 3880.4351 11937.545 0
9718.0449 3904.7983 12012.494 0
10016.143 3995.2253 12290.679 65536
9944.9072 3938.0908 12114.913 65536
10066.206 3957.4709 12174.533 65536
10479.673 4090.6189 12584.143 65536
10721.062 4155.1875 12782.777 65536
10822.05 4164.8145 12812.394 65536
10981.936 4196.8154 12910.839 65536
11102.584 4213.4814 12962.108 65536
11339.394 4273.6973 13147.354 65536
11428.243 4277.7061 13159.687 0
12053.002 4480.894 13784.761 196608
13517.243 4991.3208 15355.01 196608
13704.231 5026.4321 15463.022 196608
13858.945 5049.3164 15533.424 196608
12934.6 4681.3594 14401.461 196608
13516.659 4859.8618 14950.597 196608
13392.07 4783.6201 14716.05 196608
13007.722 4616.1836 14200.958 262144
12945.432 4564.4609 14041.843 196608
13248.6 4641.4336 14278.637 196608
13152.114 4578.3057 14084.434 196608
13847.943 4790.04 14735.8 196608
13989.383 4808.5532 14792.753 196608
14245.921 4866.1504 14969.942 262144
14304.688 4855.897 14938.399 196608
14219.151 4797.0869 14757.479 196608
13148.644 4408.7373 13562.782 196608
0 0 0 0
0 0 0 0
0 0 0 0
-8127.1489 2960.6323 8944.3799 0
-8852.8682 3246.2371 9807.2227 0
-8826.7305 3258.1045 9843.0752 0
-7622.3354 2832.3123 8556.7119 0
-7863.6729 2941.615 8886.9268 0
-7843.208 2953.7991 8923.7363 0
-7824.6973 2966.8906 8963.2871 0
-7775.9038 2968.6003 8968.4521 0
-7755.9346 2981.4138 9007.1631 0
-8294.5889 3210.635 9699.6641 0
-8273.9062 3225.0439 9743.1953 0
-8272.4883 3247.2178 9810.1846 0
-8220.3477 3249.6545 9817.5469 0
-8146.5493 3243.5037 9798.9639 0
-8129.4551 3260.0027 9848.8096 0
-8079.6543 3263.5308 9859.4678 0
-8046.4673 3273.8701 9890.7041 0
-7996.1538 3277.3416 9901.1924 0
-7963.0205 3287.9583 9933.2666 0
-7917.5742 3293.6118 9950.3467 0
-7875.2847 3300.6738 9971.6807 0
-7829.8628 3306.5198 9989.3418 0
-7781.7544 3311.3115 10003.819 0
-7735.7871 3317.0959 10021.294 0
-7684.1543 3320.5215 10031.643 0
-7631.085 3323.3748 10040.263 0
-7578.2886 3326.3933 10049.382 0
-7520.6865 3327.333 10052.222 0
-7467.9404 3330.4541 10061.65 0
-7411.1587 3331.811 10065.749 0
-7362.8506 3337.0303 10081.518 0
-7318.6929 3344.2317 10103.274 0
-7271.5132 3350.1602 10121.185 0
-7220.332 3354.3284 10133.777 0
-7168.3599 3358.196 10145.462 0
-7113.3921 3360.7146 10153.07 0
-7063.7744 3365.8254 10168.511 0
-7013.3789 3370.6504 10183.087 0
-6960.229 3374.2241 10193.884 0
-6909.9585 3379.2686 10209.124 0
-6858.6401 3383.8855 10223.072 0
-6807.7739 3388.8103 10237.95 0
-6755.4868 3393.1099 10250.939 0
-6709.5195 3400.6909 10273.843 0
-6660.8691 3407.0391 10293.021 0
-6618.1836 3416.5842 10321.858 0
-6568.1367 3422.4722 10339.646 0
-6518.957 3428.927 10359.147 0
-6477.4854 3439.5984 10391.387 0
-6431.8262 3448.23 10417.464 0
-6383.5996 3455.6401 10439.851 0
-6334.7729 3462.8669 10461.684 0
-6291.6006 3473.3591 10493.381 0
-6232.8184 3475.3572 10499.418 0
-6177.9277 3479.5876 10512.198 0
-6110.8345 3476.9614 10504.265 0
-6066.4492 3487.335 10535.604 0
-6009.8086 3490.8062 10546.091 0
-5960.3682 3498.5767 10569.566 0
-5908.9116 3505.3171 10589.93 0
-5860.3682 3513.9492 10616.008 0
-5814.5088 3524.396 10647.569 0
-5762.709 3531.4326 10668.827 0
-5702.1079 3533.1721 10674.083 0
-5652.0518 3541.5583 10699.418 0
-5604.2056 3551.5361 10729.562 0
-5551.1055 3558.375 10750.224 0
-5498.3003 3565.5649 10771.944 0
-5457.1147 3580.5481 10817.21 0
-5407.4697 3590.2717 10846.587 0
-5366.8354 3606.2849 10894.965 0
-5334.2026 3628.1316 10960.966 0
-5285.1196 3639.1914 10994.378 0
-5244.4771 3656.4126 11046.405 0
-5203.9688 3674.1655 11100.038 0
-5160.5571 3690.2979 11148.776 0
-5123.1777 3711.2195 11211.982 0
-5081.7808 3729.7439 11267.946 0
-5038.4932 3747.3574 11321.158 65536
-4986.3975 3758.8076 11355.751 0
-4948.8701 3781.7043 11424.925 0
-4909.2188 3803.593 11491.053 0
-4871.248 3827.4194 11563.034 0
-4833.1943 3851.8618 11636.878 0
-4783.4453 3867.5579 11684.297 0
-4752.8481 3899.429 11780.583 0
-4720.002 3930.3809 11874.092 0
-4678.1953 3954.6973 11947.555 0
-4623.3896 3968.6055 11989.572 0
-4562.5601 3977.6968 12017.038 65536
-4493.5493 3979.8315 12023.488 65536
-4432.2725 3988.9963 12051.176 131072
-4377.6123 4004.5146 12098.059 196608
-4328.4565 4025.6711 12161.974 196608
-4288.4575 4056.2063 12254.224 196608
-4226.4468 4066.6172 12285.676 196608
-4168.3936 4081.2693 12329.941 196608
-4081.3989 4067.6023 12288.652 196608
-4013.6726 4072.9902 12304.93 196608
-3985.1812 4119.1313 12444.327 196608
-3946.2725 4156.0474 12555.854 196608
-3934.9453 4223.9932 12761.126 196608
-3833.9329 4196.4448 12677.898 196608
-3747.6697 4184.2593 12641.085 196608
-3679.0698 4191.6997 12663.563 65536
-3625.6228 4217.0757 12740.227 65536
-3568.3657 4239.0078 12806.486 0
-3466.905 4208.2407 12713.535 0
-3479.6118 4317.77 13044.435 0
-3448.6631 4376.8857 13223.029 0
-3374.4436 4382.561 13240.175 0
-3285.9202 4369.4858 13200.674 0
-3269.0354 4453.3638 13454.077 0
-3423.5835 4780.8442 14443.432 0
-3161.4363 4528.312 13680.505 0
-3050.3008 4484.4604 13548.024 0
-3011.1799 4546.9751 13736.889 0
-2942.3928 4566.9297 13797.173 0
-2855.0471 4558.3965 13771.394 0
-2795.2046 4594.5679 13880.67 0
-2703.0002 4578.1274 13831.002 0
-2634.082 4601.333 13901.108 0
-2555.8914 4609.3193 13925.235 0
-2475.8398 4614.3716 13940.5 0
-2422.5039 4671.2896 14112.454 0
-2307.125 4608.3623 13922.345 0
-2234.0476 4628.3921 13982.857 0
-2155.0603 4637.252 14009.624 0
-2140.9602 4792.0605 14477.315 0
-2013.3918 4695.2251 14184.766 0
-1890.7197 4601.8428 13902.648 0
-1804.6807 4593.1616 13876.423 0
-1720.2815 4588.0229 13860.897 0
-1626.2953 4555.5122 13762.68 0
-1555.9479 4589.2812 13864.698 0
-1481.8301 4615.084 13942.651 0
-1417.1669 4675.1333 14124.067 0
-1329.3616 4661.5938 14083.163 0
-1236.9824 4629.1187 13985.052 256
-1149.5416 4611.7754 13932.657 0
-1065.421 4606.0947 13915.495 256
-986.42316 4623.4688 13967.983 0
-871.42334 4459.7847 13473.476 198407
-804.42682 4533.5049 13696.192 395785
-714.62189 4480.812 13537.002 461834
-627.35309 4432.6685 13391.556 792084
-556.53015 4503.6191 13605.905 792084
-460.74881 4362.3867 13179.228 1186585
-373.3425 4258.8354 12866.389 1909794
-283.1489 4061.9531 12271.585 258
-214.41051 4143.0298 12516.526 987923
-140.35655 4152.9741 12546.568 2634549
-66.585861 4203.3418 12698.735 2504250
8.8671446 4193.9048 12670.225 2372410
86.55471 4312.6929 13029.097 2438717
168.04076 4419.1914 13350.839 2241339
243.34364 4346.9204 13132.502 2175546
310.99768 4206.3003 12707.673 2109753
391.4559 4259.9736 12869.825 2307389
464.36783 4227.4019 12771.424 2505025
517.86456 4052.0674 12241.72 2505023
556.14838 3815.5591 11527.203 2768452
596.06964 3640.9314 10999.635 3031881
630.70026 3471.7004 10488.371 3097673
652.88385 3270.5605 9880.7061 3162950
697.89478 3207.5334 9690.2939 461325
770.96362 3273.2393 9888.7988 262
813.047 3207.4019 9689.8965 4805206
1008.3939 3714.8926 11223.079 4345940
1196.0383 4132.7959 12485.608 3884618
1342.0388 4366.3809 13191.294 725264
1447.417 4449.3096 13441.83 460295
1533.733 4468.0312 13498.391 0
1635.958 4528.9341 13682.384 131072
1731.514 4566.4805 13795.816 131072
1784.7242 4494.0039 13576.855 0
1884.9419 4541.043 13718.967 65537
1965.4769 4538.731 13711.981 3
2076.6003 4604.4258 13910.452 921619
2336.3936 4982.1118 15051.481 2436661
2439.1812 5009.4922 15134.199 1714225
2487.479 4926.9951 14884.968 1582640
2517.7546 4815.6938 14548.715 1517104
2563.0015 4739.4683 14318.43 2109497
2592.0806 4639.2051 14015.523 1780274
2655.0876 4604.0181 13909.221 2305073
2599.9233 4372.23 13208.964 66051
2605.7808 4253.6406 12850.692 256
2721.563 4316.1348 13039.494 1973533
2808.5015 4330.6914 13083.472 1974302
2875.9902 4315.2803 13036.914 855309
2917.5337 4262.77 12878.273 1
3062.7966 4360.6133 13173.869 1972763
3118.9888 4329.9268 13081.161 460037
3048.1167 4128.626 12473.011 262144
3191.6467 4220.3936 12750.25 393216
3306.8987 4271.3789 12904.282 327680
3291.2217 4154.7705 12551.996 262144
3285.0725 4055.0925 12250.859 393216
3329.9893 4021.4067 12149.091 458752
3486.6455 4121.2266 12450.657 458752
3493.5413 4043.5596 12216.017 458752
3568.2759 4045.9756 12223.315 393216
3642.363 4047.5754 12228.148 131072
3456.5332 3765.9302 11377.27 65536
3634.4448 3883.7898 11733.335 460296
3687.5625 3866.3662 11680.697 1
3992.5645 4108.8047 12413.129 65540
4124.4453 4167.5161 12590.503 3
4289.7896 4257.3467 12861.89 260
4339.189 4230.9775 12782.227 856082
4383.6953 4200.8276 12691.14 1975849
4396.2505 4141.5967 12512.197 1580576
4467.2139 4138.4463 12502.679 131844
4725.0195 4305.6582 13007.844 1
4845.3237 4344.2056 13124.3 1052949
4862.8032 4290.8018 12962.962 1910313
5099.0469 4429.0845 13380.729 1779242
5003.8384 4279.6392 12929.238 1977649
5256.5752 4427.8013 13376.851 2438200
5293.2568 4392.2686 13269.503 2306356
5327.1479 4355.4976 13158.414 2306098
5147.9146 4148.0601 12531.723 1383969
5413.3066 4299.6978 12989.837 1054230
5028.3564 3937.7791 11896.442 527116
5009.4214 3868.554 11687.307 461322
4843.8408 3689.5237 11146.438 395015
4769.2607 3583.7041 10826.745 262915
4687.8594 3475.644 10500.284 196608
4615.2109 3376.8276 10201.75 327680
4561.0972 3293.9597 9951.3965 589824
4543.585 3239.3079 9786.2881 720896
4499.5332 3167.3557 9568.9131 917504
4528.7783 3148.1511 9510.8945 917504
4521.8057 3104.5542 9379.1836 983040
4273.0742 2898.0557 8755.3291 983040
4169.0527 2793.4883 8439.4209 851968
3779.4346 2502.3179 7559.7642 2430734
3329.4729 2178.5056 6581.4932 393216
3269.7463 2114.5828 6388.376 1051651
3375.0911 2157.6555 6518.5034 196608
4004.4641 2530.9543 7646.2778 262144
4027.4851 2516.9409 7603.9414 196608
4079.5283 2521.1746 7616.7319 196608
4047.5884 2473.9824 7474.1602 65536
4112.0493 2486.0981 7510.7627 65536
4339.7148 2595.5654 7841.4751 0
4266.2847 2524.5361 7626.8877 0
4471.1558 2617.9509 7909.104 0
4492.1831 2602.8977 7863.6265 0
4580.6445 2626.8259 7935.916 0
4558.0903 2587.2512 7816.3569 0
4747.6113 2667.6387 8059.2153 0
4693.7183 2611.0144 7888.1475 0
4744.5332 2613.1802 7894.6914 0
4889.0835 2666.4258 8055.5513 0
5089.4849 2748.8035 8304.4229 0
5243.4395 2804.7539 8473.4551 65536
5261.7368 2787.7661 8422.1338 65536
5305.7041 2784.571 8412.4805 65536
5389.3237 2802.0515 8465.291 65536
5535.9507 2851.6653 8615.1787 65536
5614.0537 2865.3948 8656.6572 65536
5679.0068 2872.2244 8677.29 65536
5769.7339 2891.8494 8736.5791 65536
5816.8315 2889.4512 8729.335 65536
5841.1724 2875.8918 8688.3701 65536
5939.7783 2898.814 8757.6201 65536
6023.1172 2913.9517 8803.3525 65536
6049.7549 2901.6328 8766.1367 65536
6067.3618 2885.23 8716.582 0
6231.4346 2938.165 8876.5039 65536
6454.7681 3017.918 9117.4463 65536
6656.9224 3086.5234 9324.71 0
6769.0767 3112.6116 9403.5254 0
7140.2642 3256.4077 9837.9482 256
7390.8384 3343.3071 10100.481 0
8236.9082 3696.0142 11166.046 0
8299.2979 3694.2451 11160.701 0
8058.4746 3558.606 10750.921 0
8569.8984 3754.6787 11343.277 0
8737.4775 3798.2197 11474.819 0
8305.9717 3582.678 10823.646 0
8447.8018 3615.8503 10923.862 0
8703.3818 3696.8333 11168.521 0
8829.3154 3721.9385 11244.365 0
8979.2324 3756.7 11349.384 0
9157.7314 3802.8127 11488.695 0
9248.7803 3812.1973 11517.047 0
9476.8574 3877.5095 11714.362 0
9471.7363 3847.1509 11622.646 65536
9562.9121 3856.0615 11649.565 65536
9884.8535 3957.2275 11955.198 65536
9941.2344 3951.3945 11937.577 65536
9938.0293 3922.1292 11849.163 65536
10373.716 4065.2695 12281.604 65536
10243.199 3986.0747 12042.349 65536
10471.692 4046.7158 12225.552 65536
10840.604 4160.4111 12569.037 65536
10787.245 4111.6001 12421.574 65536
11672.707 4418.856 13349.825 131072
11275.336 4239.6079 12808.299 196608
12274.403 4584.3135 13849.691 196608
11418.335 4236.1763 12797.932 196608
11593.566 4272.7241 12908.347 196608
11849.231 4338.2402 13106.277 196608
12025.596 4374.0562 13214.481 196608
12911.732 4665.897 14096.163 196608
12859.636 4617.1128 13948.78 196608
13247.211 4725.8013 14277.141 196608
13119.999 4650.6304 14050.042 196608
13671.173 4815.3564 14547.695 196608
13895.508 4863.6138 14693.486 196608
13482.542 4689.5977 14167.766 196608
14203.162 4909.5864 14832.375 196608
14245.84 4893.9644 14785.178 196608
13202.805 4507.8379 13618.649 196608
0 0 0 0
0 0 0 0
0 0 0 0
-8870.5215 3289.4568 9762.5029 0
-8839.5625 3299.5583 9792.4824 0
-8778.6025 3298.5215 9789.4053 0
-7694.0293 2910.2861 8637.1943 0
-7672.8945 2921.7859 8671.3232 0
-7883.2422 3022.1838 8969.2861 0
-7883.105 3042.7065 9030.1934 0
-7744.8706 3009.8428 8932.6602 0
-8159.6284 3192.9146 9475.9834 0
-8194.6797 3228.9167 9582.8311 0
-8176.3882 3244.2573 9628.3594 0
-8150.9106 3256.9429 9666.0078 0
-8102.7871 3260.6956 9677.1445 0
-8067.1221 3269.551 9703.4258 0
-7998.5283 3265.092 9690.1924 0
-7974.4985 3278.8921 9731.1484 0
-7965.2217 3299.0042 9790.8369 0
-7919.7515 3304.3108 9806.5869 0
-7879.856 3312.04 9829.5254 0
-7842.4536 3320.9402 9855.9395 0
-7804.6943 3329.8218 9882.2988 0
-7760.209 3335.947 9900.4775 0
-7708.5259 3339.0481 9909.6807 0
-7667.0938 3346.6716 9932.3057 0
-7618.7275 3351.3625 9946.2285 0
-7566.4194 3354.3801 9955.1826 0
-7523.4189 3361.603 9976.6201 0
-7472.6948 3365.4629 9988.0752 0
-7418.9854 3368.0298 9995.6924 0
-7350.8101 3364.0171 9983.7842 0
-7294.1875 3365.2693 9987.501 0
-7253.8213 3374.1042 10013.721 0
-7208.186 3380.6135 10033.039 0
-7167.4526 3389.5498 10059.561 0
-7114.415 3392.7686 10069.113 0
-7064.4702 3397.5295 10083.243 0
-7018.501 3404.3005 10103.338 0
-6959.1504 3404.6414 10104.35 0
-6908.3911 3409.2283 10117.962 0
-6856.7993 3413.481 10130.584 0
-6816.9185 3423.6909 10160.885 0
-6765.5117 3428.2424 10174.394 0
-6713.4478 3432.5405 10187.149 0
-6669.0249 3440.8591 10211.837 0
-6622.0249 3447.9885 10232.996 0
-6575.1655 3455.324 10254.767 0
-6527.2305 3462.2261 10275.25 0
-6478.8716 3469.0315 10295.448 0
-6436.0073 3478.9373 10324.847 0
-6392.2583 3488.551 10353.378 0
-6338.293 3492.7214 10365.755 0
-6283.7773 3496.6677 10377.467 0
-6242.397 3508.0735 10411.317 0
-6182.9199 3509.4368 10415.362 0
-6131.3833 3515.3796 10433 0
-6077.8208 3520.2708 10447.516 0
-6020.5459 3523.0901 10455.884 0
-5977.7642 3534.5376 10489.858 0
-5926.2676 3541.02 10509.097 0
-5877.6533 3549.3804 10533.908 0
-5831.1201 3559.1914 10563.025 0
-5786.7017 3570.521 10596.649 0
-5734.3032 3577.1213 10616.238 0
-5670.5039 3576.6777 10614.922 0
-5612.9375 3580.1997 10625.374 0
-5559.1836 3586.2615 10643.364 0
-5509.1235 3594.873 10668.922 0
-5458.7837 3603.5002 10694.526 0
-5420.4849 3620.3733 10744.603 0
-5368.8647 3628.645 10769.151 0
-5324.6001 3642.1475 10809.225 0
-5299.0449 3668.9341 10888.722 0
-5243.4673 3675.3391 10907.731 0
-5198.52 3689.4492 10949.606 0
-5155.1479 3705.0488 10995.904 0
-5106.7827 3717.4143 11032.603 0
-5062.3057 3732.969 11078.766 0
-5024.3213 3753.7839 11140.541 0
-4982.5024 3772.2524 11195.352 65536
-4942.3213 3792.4771 11255.374 0
-4887.5366 3801.8967 11283.331 0
-4853.6621 3828.0706 11361.01 0
-4812.0801 3848.8188 11422.586 0
-4787.4819 3883.9387 11526.816 0
-4743.3159 3903.9731 11586.274 0
-4715.8604 3938.5537 11688.903 0
-4681.5068 3968.3215 11777.249 0
-4639.0112 3991.9868 11847.483 0
-4582.4009 4004.0481 11883.278 0
-4511.7114 4003.9922 11883.112 0
-4442.0347 4004.8472 11885.65 0
-4384.7329 4017.0674 11921.918 65536
-4644.2231 4324.6851 12834.87 0
-4347.7915 4116.2588 12216.3 65536
-4229.5747 4072.3435 12085.967 65536
-4156.0312 4070.666 12080.988 196608
-4094.2844 4080.6875 12110.73 196608
-4015.2942 4073.5735 12089.617 196608
-3942.094 4072.1819 12085.487 196608
-3902.147 4105.7266 12185.041 196608
-3874.803 4154.0508 12328.459 196608
-3864.0647 4222.3838 12531.258 196608
-3773.8022 4204.7964 12479.062 196608
-3689.6299 4193.4253 12445.314 196608
-3592.2324 4166.25 12364.664 196608
-3546.0532 4198.5835 12460.624 196608
-3473.365 4200.2397 12465.539 196608
-3289.4951 4064.5889 12062.953 196608
-3305.6672 4175.5781 12392.348 65536
-3375.6956 4361.2046 12943.253 65536
-3318.1108 4386.7754 13019.143 65536
-3219.0913 4357.4795 12932.198 65536
-3162.0437 4384.9551 13013.741 65536
-3233.9292 4597.0898 13643.316 65536
-3031.2144 4419.7466 13116.995 65536
-2956.7859 4425.0298 13132.675 0
-2902.4519 4461.4883 13240.876 0
-2943.2097 4650.2217 13801.003 0
-2979.0391 4841.7661 14369.472 0
-2699.8513 4517.5161 13407.157 0
-2601.2275 4484.8599 13310.24 0
-2546.76 4528.6753 13440.275 0
-2467.72 4530.2173 13444.853 0
-2390.6418 4535.585 13460.782 0
-2322.4873 4558.8408 13529.802 0
-2239.1135 4552.8193 13511.93 0
-2161.0913 4557.6357 13526.226 0
-2079.6509 4555.3369 13519.402 0
-2017.2511 4596.2373 13640.786 0
-1929.0818 4579.3887 13590.784 0
-1818.7308 4506.1104 13373.307 0
-1737.5841 4501.7979 13360.508 0
-1649.136 4477.2495 13287.653 0
-1569.4041 4475.0859 13281.232 0
-1492.942 4482.5107 13303.268 256
-1432.036 4540.084 13474.135 256
-1317.5518 4424.5537 13131.263 132099
-1241.3334 4431.0698 13150.6 199176
-1186.8298 4521.1821 13418.037 660243
-1075.5879 4392.5645 13036.324 1318431
-1028.4679 4526.1733 13432.85 1385254
-931.67157 4445.2515 13192.688 924703
-855.50909 4456.9536 13227.419 1648685
-772.20447 4430.0503 13147.574 1714479
-682.10181 4353.6987 12920.978 2767425
-590.87048 4249.8569 12612.793 2636353
-510.44342 4204.8394 12479.189 2242363
-438.25427 4223.9126 12535.796 2964288
-350.76187 4073.0957 12088.199 2107178
-272.42822 3978.3306 11806.954 262
-203.48392 4002.4954 11878.671 2436403
-138.05283 4158.1538 12340.636 3293513
-66.544891 4276.1816 12690.921 3294542
8.9240665 4296.6138 12751.56 3097421
84.83284 4302.7939 12769.902 3229008
160.64284 4300.4937 12763.074 3097935
234.13185 4257.4639 12635.37 3426902
302.06107 4158.7866 12342.514 3295573
369.55966 4093.9016 12149.947 3558488
432.53671 4008.3274 11895.979 3426902
494.36224 3937.6262 11686.15 3426389
558.10187 3897.7124 11567.693 3426133
596.0556 3706.219 10999.376 3360595
657.59039 3684.7119 10935.547 3163728
697.77161 3558.1836 10560.035 3491662
713.64581 3338.8179 9908.9971 2766136
756.46729 3269.3606 9702.8613 517
789.27509 3169.53 9406.583 659219
998.41693 3744.1807 11112.04 3423556
1133.6251 3987.4666 11834.067 3227721
1285.1042 4256.2163 12631.667 3228232
1438.7024 4501.9297 13360.899 2832442
1517.342 4499.6504 13354.135 1120538
1612.5444 4544.272 13486.563 65795
1684.8235 4523.1274 13423.811 3
1769.7583 4536.3345 13463.007 3
1864.2084 4571.7334 13568.064 3
1934.6821 4547.8369 13497.144 3
2037.5161 4598.8828 13648.639 4
2210.2327 4797.7134 14238.73 131845
2288.7996 4785.0464 14201.138 659734
2351.5081 4741.3057 14071.323 1581350
2436.688 4744.3218 14080.275 2042674
2428.2515 4570.9155 13565.637 2108725
2527.0247 4603.9785 13663.763 1910830
2630.3232 4642.9717 13779.486 1580578
2532.6335 4335.5439 12867.097 4
2602.1533 4323.9888 12832.804 2
2697.4353 4354.6812 12923.894 1842207
2757.0796 4327.7349 12843.922 2040357
2846.5798 4347.8423 12903.596 65796
2904.0635 4319.2749 12818.814 3
3031.6367 4393.75 13039.842 1447448
3041.594 4298.3003 12756.564 328452
2992.4124 4125.9517 12245.066 196608
3026.7068 4074.1521 12091.334 196608
3167.4529 4164.7227 12360.132 1380884
3287.6711 4224.8091 12538.456 2039841
3376.5806 4242.8901 12592.117 328966
3452.6797 4244.4385 12596.713 131072
3411.0247 4104.2368 12180.619 327680
3451.1133 4066.1741 12067.656 458752
3551.7517 4099.5498 12166.711 393216
3142.739 3555.0752 10550.81 393216
3587.1987 3978.4668 11807.358 327681
3611.5706 3928.6423 11659.488 262146
3702.4995 3951.7312 11728.012 196609
3815.9907 3997.603 11864.15 65540
3667.1433 3771.9722 11194.52 4
3740.6821 3779.0498 11215.525 66053
3789.2554 3761.0994 11162.252 1033
3765.8516 3673.5544 10902.434 922905
3959.2632 3796.8948 11268.485 1975336
4267.8828 4024.7771 11944.799 723982
4575.7363 4244.4917 12596.871 257
4598.459 4196.9004 12455.629 2236708
4793.9946 4306.04 12779.535 1317663
5008.2334 4428.3135 13142.42 1054750
5156.8262 4489.6777 13324.538 1121057
5459.7017 4681.4771 13893.763 2371896
5390.7817 4553.5112 13513.984 2635068
5371.0771 4470.2637 13266.921 2503738
5332.8223 4374.2095 12981.85 2437945
5420.8564 4383.0054 13007.954 2306103
5121.9331 4083.0806 12117.832 2569533
4869.6509 3828.1394 11361.214 2701120
5002.2749 3878.6162 11511.02 2898756
4927.5889 3769.1575 11186.167 2899014
4781.312 3608.582 10709.608 2833478
4643.4644 3458.5037 10264.203 2965320
4478.4453 3292.3423 9771.0664 3162441
4307.7676 3126.3286 9278.3682 3162441
4091.01 2931.4919 8700.1289 3292999
3968.7493 2808.387 8334.7764 3358022
3879.825 2711.6165 8047.5796 3489092
3790.3496 2616.8225 7766.2485 3356219
4276.8608 2917.1812 8657.6572 3288877
3325.3987 2241.239 6651.585 2760988
3318.8708 2210.5598 6560.5352 458752
3247.1189 2137.655 6344.167 918529
3326.5266 2164.7932 6424.708 393216
