# .PCD v0.7 - Point Cloud Data file format
VERSION 0.7
FIELDS x y z rgb
SIZE 4 4 4 4
TYPE F F F U
COUNT 1 1 1 1
WIDTH 1414
HEIGHT 1
VIEWPOINT 0 0 0 1 0 0 0
POINTS 1414
DATA ascii
-7119.5947 3845.502 9152.5811 0
-7079.7739 3853.4355 9171.4639 0
-7026.6465 3854.1934 9173.2676 0
-6972.3252 3854.3035 9173.5293 0
-6943.3511 3868.5376 9207.4072 0
-6912.0835 3881.7092 9238.7568 0
-6875.5933 3892.1362 9263.5732 0
-6832.0293 3898.6943 9279.1826 0
-6787.8862 3905.0256 9294.252 0
-6743.1943 3911.1433 9308.8125 0
-6686.3501 3910.2551 9306.6982 0
-6637.6909 3914.179 9316.0371 0
-6588.7236 3917.9851 9325.0967 0
-6538.4326 3921.0627 9332.4209 0
-6486.2954 3923.0757 9337.2119 0
-6441.6069 3929.6675 9352.9014 0
-6391.9248 3933.3015 9361.5508 0
-6355.021 3944.9319 9389.2314 0
-6321.1069 3958.6404 9421.8584 0
-6299.2734 3980.2266 9473.2354 0
-6240.6602 3978.7537 9469.7295 0
-6251.4351 4021.895 9572.4092 0
-6172.3281 4007.4719 9538.0811 65536
-6104.0718 3999.8911 9520.0391 65536
-6086.1899 4025.4868 9580.959 0
-6027.4155 4024.2644 9578.0488 0
-5984.6045 4033.7783 9600.6924 0
-5944.6333 4045.4072 9628.3701 0
-5855.7725 4023.6694 9576.6328 0
-5798.6509 4023.5276 9576.2949 0
-5762.5664 4038.1248 9611.0371 0
-5696.7231 4031.9519 9596.3457 0
-5631.896 4026.3804 9583.085 0
-5612.667 4053.6279 9647.9365 0
-5575.1079 4068.062 9682.291 0
-5530.3813 4077.5132 9704.7852 0
-5491.5264 4091.5383 9738.166 0
-5423.6865 4084.0366 9720.3115 0
-5383.8677 4097.7002 9752.832 0
-5311.8149 4086.8608 9727.0332 0
-5266.0391 4096.2222 9749.3145 0
-5215.3418 4101.9219 9762.8789 0
-5168.2734 4110.6357 9783.6191 0
-5135.6445 4131.1631 9832.4756 1381653
-4934.335 4014.9126 9555.791 66049
-5066.0591 4170.0894 9925.123 0
-5026.0044 4185.8584 9962.6543 197379
-4981.0098 4197.8398 9991.1709 0
-4926.8809 4202.3193 10001.833 0
-4857.1538 4193.4414 9980.7031 0
-4809.8032 4203.9023 10005.601 0
-4756.4438 4209.3076 10018.465 0
-4705.8823 4217.3564 10037.623 0
-4648.0488 4219.0117 10041.562 0
-4602.645 4232.1392 10072.807 256
-4572.0747 4259.4316 10137.765 256
-4514.6445 4262.0962 10144.105 256
-4476.5938 4283.3755 10194.752 0
-4422.1743 4289.3608 10208.999 0
-4366.0669 4293.854 10219.692 0
-4300.9707 4289.5083 10209.35 0
-4256.7827 4306.1895 10249.052 0
-4192.7573 4302.9956 10241.45 0
-4133.3145 4304.4805 10244.984 0
-4083.3091 4315.9849 10272.365 0
-3999.5034 4291.5698 10214.256 0
-3914.6558 4265.2671 10151.653 0
-3864.8037 4276.8672 10179.263 0
-3786.3701 4256.7051 10131.274 65536
-3727.7405 4258.5142 10135.581 65536
-3681.3328 4274.5752 10173.807 0
-3626.5886 4281.3301 10189.885 0
-3563.8225 4278.6836 10183.586 0
-3504.7822 4280.4971 10187.901 0
-3459.9871 4300.0771 10234.504 256
-3405.4553 4308.0415 10253.459 0
-3356.4204 4323.3755 10289.956 256
-3314.9863 4349.252 10351.544 256
-3288.9019 4396.626 10464.297 512
-3184.7068 4339.395 10328.083 770
-3108.4971 4318.7959 10279.056 330249
-2897.9756 4107.0239 9775.0225 264458
-2796.4626 4044.2349 9625.5801 198409
-2717.1135 4011.5461 9547.7783 528146
-2699.6519 4070.7822 9688.7646 858140
-2630.1101 4052.3579 9644.9131 1582636
-2617.24 4122.3745 9811.5586 1188649
-2519.97 4059.6167 9662.1895 2110266
-2452.9172 4043.7463 9624.417 1781557
-2360.2632 3983.905 9481.9902 2110268
-2323.6692 4018.0752 9563.3184 2044218
-2228.554 3950.2268 9401.834 1254703
-2150.7522 3910.3669 9306.9648 1386035
-2015.6516 3761.4753 8952.5918 2241344
-1918.7043 3677.6401 8753.0566 2042933
0 0 0 0
0 0 0 0
-1325.1005 2764.7454 6580.2993 256
-1298.8678 2792.428 6646.1865 256
-1257.5215 2788.3352 6636.4458 256
-1200.012 2746.978 6538.0122 514
-1133.2208 2680.8948 6380.7295 516
0 0 0 0
0 0 0 0
-1474.1296 3876.5786 9226.5459 2570568
-1331.0509 3635.5593 8652.9014 2506058
-1278.9304 3633.5891 8648.2129 2506058
-1286.5865 3808.3982 9064.2705 2308422
-1230.4788 3801.4907 9047.8311 2834766
-1123.9635 3631.1047 8642.2998 2900561
-1098.4606 3718.6541 8850.6729 2768973
-1031.8267 3668.7639 8731.9316 2571851
-996.11084 3729.3445 8876.1172 2636617
-935.74835 3699.2656 8804.5273 2176322
-877.84485 3675.9199 8748.9629 1912635
-838.0929 3730.4285 8878.6973 1583925
-793.76233 3770.5134 8974.1025 1386290
-755.40039 3846.7676 9155.5928 1649206
-690.56885 3789.604 9019.54 925738
-633.67371 3770.0371 8972.9688 530724
-570.58453 3706.6355 8822.0684 1649464
-528.10699 3777.8501 8991.5645 2505285
-466.47049 3712.614 8836.2979 2045250
-425.49524 3816.1296 9082.6729 1913922
-367.54703 3775.384 8985.6943 3164246
-314.68448 3781.9038 9001.2129 2703952
-260.20862 3767.7351 8967.4902 3296088
-200.43007 3649.7083 8686.5771 3230038
-150.89496 3701.0242 8808.7129 1452856
-99.52198 3737.8401 8896.3379 3558491
-45.9067 3678.4424 8754.9668 3624796
6.1627851 3699.8745 8805.9766 3625310
58.681679 3711.3816 8833.3643 3428444
110.15949 3677.2686 8752.1729 3625824
163.51775 3707.6765 8824.5459 3559775
214.08974 3675.4807 8747.918 3428445
267.29047 3692.179 8787.6611 3098709
320.0433 3698.2427 8802.0928 3361624
385.26358 3826.4282 9107.1846 3360853
452.38071 3939.5518 9376.4268 2965324
493.8396 3828.9231 9113.1221 2504771
548.07513 3829.4346 9114.3389 2438723
589.12366 3746.002 8915.7637 2767947
631.79163 3685.7876 8772.4492 2571595
680.40283 3666.783 8727.2168 2505801
724.29675 3626.8496 8632.1719 3624283
793.34351 3709.8176 8829.6426 3624539
850.44659 3730.1057 8877.9287 3755868
929.21887 3837.5127 9133.5654 2572364
968.98688 3780.8733 8998.7598 2440009
1013.9068 3749.2097 8923.3984 2900560
1067.79 3752.1907 8930.4932 3361368
1113.2955 3726.8447 8870.168 2966610
1165.2391 3724.3682 8864.2734 3295575
1240.9501 3794.7856 9031.8721 3492697
1296.5725 3800.4805 9045.4268 3163732
1346.0807 3788.5134 9016.9443 3098196
1383.0223 3743.4492 8909.6875 3493466
1461.9923 3811.2717 9071.1104 3427160
1507.9553 3791.2849 9023.54 3098195
1615.6638 3922.5786 9336.0293 2702667
1678.0381 3938.7446 9374.5049 1584182
1761.8767 4002.6333 9526.5654 2636871
1812.4301 3989.2812 9494.7861 2307649
1806.5237 3856.2161 9178.0811 2307650
1842.6763 3818.0986 9087.3594 2110015
1909.8264 3844.5518 9150.3193 2636617
1960.3821 3837.0596 9132.4873 2702411
1997.8381 3805.022 9056.2354 2505801
0 0 0 0
0 0 0 0
0 0 0 0
0 0 0 0
0 0 0 0
0 0 0 0
984.29822 1577.2185 3753.8975 7
1080.3336 1692.7349 4028.835 259
1095.3505 1679.0496 3996.2627 1581345
1132.548 1699.2236 4044.2788 2437943
1160.6903 1705.256 4058.636 3097417
1225.0837 1763.2173 4196.5884 2636095
1243.8961 1754.5714 4176.0107 2831418
1264.6017 1748.8822 4162.4697 4
1301.2349 1765.0154 4200.8682 4
1335.5765 1777.4919 4230.563 4
1301.1793 1699.7144 4045.4465 658704
1307.2426 1676.6531 3990.5591 329483
1321.2457 1664.4159 3961.4336 260
1323.4969 1638.062 3898.7097 5
1336.9545 1626.2462 3870.5872 5
1365.7203 1633.1361 3886.9854 5
1387.0262 1631.0245 3881.9597 4
1470.0907 1700.4164 4047.1177 4
1506.9172 1714.9529 4081.7156 132361
1516.8442 1698.9006 4043.51 592653
1537.4337 1695.1051 4034.4766 131846
1636.1179 1776.2076 4227.5063 7
1587.2002 1697.0403 4039.082 5
1681.2374 1770.8027 4214.6421 1185310
1997.5077 2073.0352 4933.978 1251613
1815.8842 1857.2786 4420.4614 659475
0 0 0 0
0 0 0 0
0 0 0 0
0 0 0 0
0 0 0 0
4522.6836 4256.2993 10130.31 3
4388.834 4076.071 9701.3525 1
4562.7275 4182.6226 9954.9531 1
4814.7217 4357.1245 10370.28 1
5041.314 4504.5181 10721.089 461066
4414.4775 3895.1938 9270.8516 259
4612.6294 4019.8623 9567.5713 3
4207.6265 3622.2522 8621.2295 132101
3738.127 3179.3533 7567.0977 790547
3563.1111 2994.4719 7127.0659 1118994
3336.4583 2771.0481 6595.3008 328448
3277.6172 2690.5686 6403.7534 196608
3253.5457 2640.1511 6283.7559 262144
3256.1401 2612.271 6217.3994 525056
3205.8005 2543.0259 6052.5913 1577224
3373.7083 2646.5229 6298.9219 196608
3520.968 2731.729 6501.7183 196608
3753.2498 2880.3328 6855.4062 196608
3821.2986 2901.0618 6904.7432 65536
3884.5706 2917.7627 6944.4927 65536
3925.4812 2917.4934 6943.8511 65536
3987.1724 2932.5129 6979.5991 65536
4042.239 2942.4011 7003.1338 65536
4094.1782 2949.8347 7020.8262 65536
4159.4141 2966.6018 7060.7334 0
4222.2778 2981.3589 7095.856 0
4247.9141 2969.7976 7068.3394 0
4307.9233 2982.2583 7097.9966 0
4366.7266 2993.6504 7125.1108 0
4485.2891 3045.3989 7248.2759 0
4541.1953 3054.0254 7268.8081 0
4600.5088 3064.7593 7294.355 0
4645.0801 3065.5632 7296.2686 0
4716.2583 3083.7495 7339.5532 0
4787.3657 3101.5569 7381.936 0
4788.8091 3074.3176 7317.105 0
4899.8784 3117.3127 7419.4365 0
4942.6104 3116.4526 7417.3892 65536
4979.7598 3112.1187 7407.0742 65536
5049.7993 3128.2358 7445.4336 65536
5092.0801 3127.0256 7442.5537 65536
5153.0068 3137.1887 7466.7422 65536
5216.0635 3148.4631 7493.5771 65536
5341.2769 3196.748 7608.4985 0
5364.4009 3183.6348 7577.2881 0
5373.4351 3162.4475 7526.8604 0
5420.8628 3164.0195 7530.6016 0
5498.6685 3183.1511 7576.1367 0
5536.2705 3178.8875 7565.9893 0
5551.9453 3162.2034 7526.2793 65536
5839.5405 3299.4253 7852.8774 65536
5848.5376 3278.3066 7802.6138 65536
0 0 0 0
0 0 0 0
0 0 0 0
7408.5771 4025.1011 9580.04 0
7362.1318 3969.3613 9447.375 65536
7566.5942 4048.7202 9636.2559 65536
7783.9648 4133.7422 9838.6143 0
7796.3633 4109.4556 9780.8105 0
8091.2764 4233.3398 10075.664 0
7918.4155 4112.4639 9787.9697 0
7988.2886 4118.4956 9802.3262 0
8109.7158 4150.8267 9879.2773 0
8459.8896 4298.9326 10231.78 0
10345.587 5219.6396 12423.131 0
10595.287 5307.7393 12632.815 0
10914.252 5429.0537 12921.553 2
11395.366 5628.7676 13396.886 2
11754.587 5765.9175 13723.312 2
12666.702 6170.5166 14686.289 2
12922.485 6252.0376 14880.315 2
13321.388 6401.2227 15235.387 3
13206.799 6303.3149 15002.358 1
13549.034 6423.29 15287.908 2
14782.977 6961.5884 16569.1 257
16236.86 7595.6528 18078.219 197892
16680.48 7751.8823 18450.057 514
16963.109 7831.7441 18640.133 263428
16895.912 7750.103 18445.822 1184787
17105.787 7795.7891 18554.559 921615
17305.834 7836.439 18651.309 131843
17657.035 7944.582 18908.697 1316118
17444.318 7799.2324 18562.754 1777439
16985.219 7546.2466 17960.629 987925
16766.146 7402.395 17618.252 1118997
15892.438 6973.0962 16596.488 855566
15404.265 6717.21 15987.46 1381653
15056.778 6525.4331 15531.017 855307
0 0 0 0
0 0 0 0
0 0 0 0
-7641.9448 3583.6509 8410.3857 0
-7980.875 3767.2319 8841.2275 0
-7995.46 3799.1301 8916.0889 0
-7979.6216 3816.9016 8957.7959 0
-7941.4917 3824.177 8974.8711 0
-7903.9395 3831.8315 8992.835 0
-7853.8154 3833.4534 8996.6416 0
-7801.7778 3834.1577 8998.2939 0
-7738.9927 3829.553 8987.4883 0
-7686.311 3829.9189 8988.3467 0
-7629.3916 3828.1633 8984.2266 0
-7576.106 3828.2192 8984.3574 0
-7535.6748 3834.8174 8999.8428 0
-7493.2734 3840.5002 9013.1797 0
-7454.2451 3848.0061 9030.7949 0
-7397.0269 3846.1633 9026.4697 0
-7345.521 3847.2847 9029.1016 0
-7294.5806 3848.7212 9032.4727 0
-7248.4565 3852.7388 9041.9023 0
-7196.7612 3853.8335 9044.4707 0
-7163.6089 3864.9487 9070.5566 0
-7122.0112 3871.6416 9086.2646 0
-7072.7207 3874.2229 9092.3223 0
-7019.7993 3874.8396 9093.7695 0
-6975.1729 3880.0803 9106.0693 0
-6914.9487 3876.6589 9098.0391 0
-6891.7676 3894.1133 9139.0029 0
-6867.7295 3911.3579 9179.4736 0
-6834.21 3923.4353 9207.8174 0
-6795.002 3932.4148 9228.8916 0
-6749.9795 3938.1487 9242.3486 0
-6698.9478 3940.4424 9247.7314 0
-6647.999 3942.8228 9253.3184 0
-6597.0454 3945.24 9258.9902 65536
-6526.5669 3935.9233 9237.126 65536
-6479.7617 3940.8459 9248.6787 65536
-6436.7993 3948.21 9265.9609 65536
-6397.3154 3957.8533 9288.5928 65536
-6345.0029 3959.6584 9292.8291 65536
-6287.6895 3958.3472 9289.752 65536
-6237.8096 3961.7334 9297.6992 65536
-6198.0332 3971.6555 9320.9844 65536
-6151.0532 3977.0981 9333.7578 65536
-6123.6572 3995.4177 9376.752 65536
-6077.4121 4001.6624 9391.4072 0
-6036.4263 4011.5178 9414.5371 65536
-5976.856 4009.0923 9408.8438 0
-5930.5513 4015.6028 9424.124 0
-5873.7236 4015.0444 9422.8135 0
-5822.2778 4018.1897 9430.1943 0
-5761.5601 4014.9346 9422.5557 0
-5714.0156 4020.886 9436.5225 0
-5643.5161 4010.6416 9412.4805 0
-5572.8916 4000.103 9387.7471 0
-5514.3345 3998.0996 9383.0459 0
-5502.9087 4030.5767 9459.2656 0
-5460.77 4040.9968 9483.7207 0
-5421.2832 4053.6172 9513.3389 0
-5381.2568 4066.0957 9542.624 65536
-5328.3711 4069.02 9549.4873 65536
-5293.9468 4086.2568 9589.9404 65536
-5211.6294 4066.5 9543.5732 65536
-5170.4424 4078.7539 9572.3311 0
-5119.8843 4083.8057 9584.1875 0
-5084.5889 4101.2822 9625.2021 0
-4808.1094 3922.4011 9205.3906 256
-4878.4717 4025.6089 9447.6064 256
-4994.8188 4169.6074 9785.5537 0
-4806.6924 4059.8342 9527.9297 257
-4893.0425 4182.0361 9814.7217 0
-4831.0723 4178.8887 9807.3359 0
-4790.7393 4194.6099 9844.2314 0
-4736.3413 4198.2529 9852.7812 0
-4673.8184 4194.6948 9844.4307 256
-4605.606 4185.876 9823.7334 256
-4544.8228 4183.6685 9818.5537 256
-4492.7979 4189.5723 9832.4082 256
-4439.2163 4194.1597 9843.1748 0
-4384.9395 4198.2041 9852.667 256
-4338.6074 4210.0674 9880.5088 256
-4296.1294 4226.0479 9918.0127 0
-4243.2241 4232.0728 9932.1523 0
-4204.3569 4252.4668 9980.0137 0
-4137.3882 4244.6147 9961.5859 0
-4059.3838 4225.0479 9915.665 0
-4020.8276 4246.5684 9966.1709 0
-3967.3484 4252.7349 9980.6436 0
-3862.6162 4203.3154 9864.6621 0
-3777.606 4174.165 9796.249 0
-3722.175 4177.2979 9803.6016 0
-3668.5315 4182.5679 9815.9707 0
-3610.917 4183.4087 9817.9434 0
-3564.0144 4196.8906 9849.583 0
-3512.3745 4205.1504 9868.9688 0
-3447.9744 4198.1553 9852.5518 256
-3381.583 4188.4517 9829.7783 0
-3285.0911 4140.4683 9717.168 257
-3282.5339 4211.2808 9883.3555 0
-3216.1138 4201.2485 9859.8105 66562
-3185.8779 4238.9888 9948.3828 66821
-3140.6719 4257.8608 9992.6738 264202
-2956.1826 4084.9929 9586.9736 989210
-2893.6914 4077.2256 9568.7451 858139
-2775.9712 3989.769 9363.4951 1582380
-2665.1753 3908.8901 9173.6816 1977396
-2607.4565 3904.1042 9162.4502 1845811
-2518.5393 3851.4045 9038.7705 1450797
-2466.0269 3853.2922 9043.2012 1977913
-2447.8967 3910.1853 9176.7217 2241342
-2329.1775 3805.332 8930.6445 2307393
-2375.2407 3971.0828 9319.6406 2176577
-2275.1001 3894.4792 9139.8613 2110528
-2250.438 3946.491 9261.9268 1123374
-2055.6741 3695.3323 8672.4883 2044476
-2031.8857 3746.5085 8792.5928 2636869
-1928.4877 3649.7234 8565.4502 2175036
-1868.4 3631.8784 8523.5703 3030085
0 0 0 0
0 0 0 0
-1310.2896 2772.5151 6506.7505 0
-1340.5 2922.6992 6859.2144 256
-1225.5439 2755.8704 6467.687 256
-1185.5222 2752.198 6459.0684 257
-1109.9315 2662.9424 6249.5967 66052
0 0 0 0
0 0 0 0
0 0 0 0
-1078.6201 2987.7578 7011.8984 2242886
-1144.2416 3296.9089 7737.438 859692
-1118.5013 3357.6863 7880.0752 2505801
-1133.1228 3550.2356 8331.9639 2966352
-1087.9551 3564.4939 8365.4268 3163732
-1044.8171 3587.0864 8418.4492 3098195
-988.50018 3564.4302 8365.2773 2703181
-942.22186 3577.489 8395.9248 2768974
-895.7049 3591.0518 8427.7549 2571084
-847.92328 3600.8508 8450.752 2768720
-784.72223 3542.2793 8313.292 2768719
-732.54004 3528.9189 8281.9365 2702923
-698.01727 3604.8333 8460.0986 2702410
-646.9671 3600.5544 8450.0566 2636874
-606.49274 3659.3657 8588.0791 2307906
-547.12726 3604.5291 8459.3848 1781305
-506.62283 3675.4277 8625.7744 2373441
-442.54846 3572.0439 8383.1455 2242370
-400.58154 3643.5078 8550.8623 1584183
-349.12173 3636.8501 8535.2383 1781820
-296.40887 3612.657 8478.46 2110528
-240.82628 3536.4121 8299.5225 1518137
-196.27477 3624.5994 8506.4873 1057328
-142.78746 3551.7107 8335.4258 992048
-93.966858 3579.1235 8399.7607 2965840
-44.825165 3642.5884 8548.7051 2637645
5.8188858 3542.8284 8314.5801 1584700
56.712986 3637.6079 8537.0166 2637388
107.14279 3627.1599 8512.4961 2769232
156.15382 3590.7893 8427.1387 3624283
208.51898 3630.4819 8520.292 3163989
257.95953 3613.6921 8480.8896 2835023
307.33444 3601.6226 8452.5625 2439752
355.03372 3576.0664 8392.5859 3097682
405.97906 3585.4751 8414.667 3427160
460.47263 3620.7192 8497.3809 3558746
506.66956 3590.2078 8425.7744 3690076
561.49921 3620.854 8497.6973 3755868
617.67719 3654.4189 8576.4697 3624796
668.02496 3651.0024 8568.4512 3624796
719.09094 3651.717 8570.1289 3690589
781.89215 3707.989 8702.1924 3821918
834.77045 3713.1411 8714.2832 3756126
878.14716 3677.8955 8631.5664 3756127
938.41174 3713.3677 8714.8154 3821919
980.47028 3676.8545 8629.123 3887713
1036.2651 3692.9233 8666.835 3887712
1081.8677 3672.8674 8619.7666 3624539
1126.6222 3651.8772 8570.5049 3098453
1174.55 3642.5439 8548.6006 3690333
1236.1333 3674.5767 8623.7773 3690334
1289.4663 3680.5103 8637.7031 3756383
1337.7855 3672.2271 8618.2637 3624795
1387.6929 3668.7532 8610.1104 3887967
1439.2373 3669.7004 8612.334 3690589
1496.4923 3684.6436 8647.4033 3558746
1572.0349 3742.1265 8782.3086 3558748
1632.7557 3761.7666 8828.4014 3558491
1697.5699 3789.3208 8893.0674 3230038
1733.118 3751.8557 8805.1416 3492953
1753.9728 3685.7112 8649.9082 3031889
1795.1045 3664.7288 8600.666 2833996
1863.8986 3699.8184 8683.0166 3162705
0 0 0 0
0 0 0 0
0 0 0 0
0 0 0 0
0 0 0 0
0 0 0 0
0 0 0 0
1040.7008 1691.186 3969.0046 523
1069.8475 1700.0171 3989.7302 521
1087.5206 1690.6287 3967.6968 4150877
1142.3361 1738.1536 4079.2317 3492438
1183.8558 1763.8936 4139.6401 2834250
1223.7538 1786.2177 4192.0322 3754581
1250.2499 1788.4801 4197.3418 3489348
1284.3566 1801.3275 4227.4932 261
1330.7327 1830.5601 4296.0981 262
1327.7284 1792.0427 4205.7031 518
1331.9265 1764.4907 4141.0415 2569788
1344.2993 1748.5713 4103.6807 3095875
1313.0132 1677.4426 3936.7505 2107178
1289.0789 1618.0323 3797.3223 517
1320.3308 1628.7438 3822.4604 4
1341.4843 1626.8462 3818.0071 260
1360.9194 1622.9625 3808.8926 66567
1381.7936 1620.894 3804.0383 2635065
1412.9148 1630.7189 3827.0957 2569529
1483.4254 1684.9734 3954.4243 3226689
1529.7107 1710.4479 4014.21 1712163
1558.5973 1715.9845 4027.2036 263
1602.62 1737.7661 4078.3223 263
1580.0206 1687.7346 3960.9048 2436148
1638.3995 1724.4014 4046.9568 2437687
1692.0883 1755.142 4119.1016 2569533
0 0 0 0
0 0 0 0
0 0 0 0
0 0 0 0
3800.0173 3675.718 8626.4561 1121825
3998.7754 3816.4822 8956.8125 659474
3980.5713 3749.1973 8798.9023 659217
4006.1736 3724.3823 8740.665 131846
4060.1375 3726.2314 8745.0049 3
4171.9268 3780.4331 8872.21 3
3930.6323 3517.325 8254.7275 3
3925.2561 3469.2124 8141.8135 2
3693.1362 3224.3123 7567.0625 0
3630.8711 3131.8132 7349.979 0
3507.1599 2989.1436 7015.1504 256
3363.6294 2833.1321 6649.0112 196864
3251.4895 2706.877 6352.7056 131072
3259.5889 2682.4707 6295.4272 262144
3240.064 2636.1433 6186.7026 327680
3201.4414 2575.4919 6044.3613 1643276
3338.8799 2656.2522 6233.8955 262400
3486.5874 2743.3196 6438.2324 196608
3704.3665 2883.0322 6766.1201 196608
3738.6184 2878.4421 6755.3481 65536
3788.7361 2886.0354 6773.1685 65536
3838.7798 2893.4131 6790.4829 65536
3918.6753 2922.9038 6859.6938 65536
3980.708 2938.6006 6896.5322 65536
3998.5754 2921.7063 6856.8833 65536
4069.571 2943.5811 6908.2212 0
4148.7354 2970.8687 6972.2617 0
4216.9561 2989.8579 7016.8267 0
4273.1768 3000.0498 7040.7461 0
4323.9883 3006.2832 7055.375 0
4405.7598 3033.7161 7119.7563 0
4466.8462 3046.5183 7149.8022 0
4514.686 3050.1299 7158.2778 0
4583.1831 3067.5 7199.0435 0
4658.1245 3088.822 7249.084 0
4730.647 3108.1643 7294.4775 0
4774.6558 3108.5908 7295.4785 0
4817.3286 3108.1477 7294.439 0
4870.75 3114.5859 7309.5483 0
4932.3491 3126.0928 7336.5537 0
4988.9731 3134.2732 7355.7515 65536
5039.6973 3138.6362 7365.9912 65536
5099.2197 3148.3569 7388.8047 65536
5173.0322 3166.6592 7431.7573 65536
5256.2446 3190.3567 7487.373 65536
5307.9336 3194.6833 7497.5273 0
5354.0425 3195.6077 7499.6963 0
5417.2227 3206.6218 7525.5449 0
5431.3687 3188.668 7483.4097 0
5489.0264 3196.344 7501.4238 0
5536.9087 3198.249 7505.8955 0
5659.3398 3242.8413 7610.5479 65536
5675.6636 3226.408 7571.9805 65536
0 0 0 0
0 0 0 0
6014.0977 3339.3611 7837.0679 196608
7326.2261 4036.6641 9473.5518 196608
7667.3394 4192.3936 9839.0293 196608
7752.3208 4206.7764 9872.7842 131072
7812.7778 4207.7344 9875.0332 65536
8067.6836 4312.6221 10121.191 65536
8224.8271 4364.0854 10241.969 65536
8366.0176 4406.3887 10341.25 0
8550.291 4470.6021 10491.951 0
8862.4043 4600.2441 10796.204 0
8957.8477 4616.3628 10834.033 0
9040.5312 4625.7227 10856 0
9430.4707 4791.0479 11243.998 0
9217.791 4650.0474 10913.087 0
9503.1953 4760.5264 11172.367 256
10081.791 5015.3247 11770.348 256
11707.288 5783.8179 13573.905 1
12052.823 5913.7729 13878.895 256
12932.585 6302.2998 14790.72 2
13004.775 6294.6934 14772.867 256
12772.636 6140.8716 14411.867 256
13181.315 6295.1421 14773.921 256
13350.167 6333.5918 14864.157 256
13897.717 6550.0171 15372.08 2
13955.21 6534.1582 15334.862 2
14003.592 6514.2676 15288.183 257
14272.799 6596.6963 15481.631 1
14539.634 6676.9795 15670.046 2
14894.997 6796.6362 15950.865 2
15368.034 6968.1343 16353.35 2
17285.98 7788.5068 18278.664 0
17393.301 7787.9175 18277.281 395271
15800.384 7030.7729 16500.355 1382166
15822.448 6997.1631 16421.477 394758
14989.551 6588.1919 15461.673 525574
0 0 0 0
0 0 0 0
0 0 0 0
-7542.8223 3586.5051 8301.2959 0
-7968.3696 3813.7927 8827.374 0
-7927.1167 3819.1941 8839.876 0
-7883.043 3823.2998 8849.3789 0
-7834.646 3825.3494 8854.1221 0
-7788.5649 3828.5649 8861.5654 0
-7729.0229 3825.1628 8853.6904 0
-7676.5039 3825.2134 8853.8076 0
-7608.228 3817.3589 8835.6279 0
-7564.5439 3821.8193 8845.9521 0
-7513.5566 3822.627 8847.8213 0
-7464.0249 3824.1919 8851.4434 0
-7428.5327 3833.0229 8871.8838 0
-7382.8311 3836.6746 8880.3359 0
-7335.0513 3839.2913 8886.3926 0
-7282.0225 3839.1782 8886.1309 0
-7223.6489 3836.2258 8879.2969 0
-7167.9233 3834.6462 8875.6406 0
-7125.2051 3840.053 8888.1553 0
-7088.1611 3848.6216 8907.9883 0
-7053.2139 3858.4668 8930.7754 0
-7018.0884 3868.3623 8953.6797 0
-6976.666 3874.9119 8968.8398 0
-6926.2769 3876.5437 8972.6162 0
-6870.4468 3875.1318 8969.3486 0
-6833.3491 3884.3467 8990.6768 0
-6802.2861 3897.1638 9020.3438 0
-6772.4199 3910.8762 9052.082 0
-6725.9453 3915.1394 9061.9502 0
-6692.2822 3926.9905 9089.3799 0
-6642.4678 3929.479 9095.1396 0
-6595.6328 3933.7852 9105.1074 0
-6539.1543 3932.364 9101.8174 0
-6490.2061 3935.4854 9109.042 0
-6444.313 3940.5269 9120.7109 0
-6401.4253 3947.5068 9136.8672 65536
-6334.7432 3939.8083 9119.0488 65536
-6275.3848 3936.571 9111.5557 65536
-6223.9912 3938.3169 9115.5967 65536
-6164.9077 3935.1853 9108.3477 65536
-6133.5957 3949.8823 9142.3652 65536
-6090.5454 3957.2151 9159.3379 65536
-6054.3159 3969.1519 9186.9668 65536
-6012.0596 3977.3188 9205.8691 65536
-5967.0015 3983.7651 9220.79 65536
-5915.7993 3986.1909 9226.4053 65536
-5855.0059 3982.1392 9217.0264 65536
-5796.2324 3979.397 9210.6797 65536
-5747.832 3983.793 9220.8545 65536
-5701.3818 3989.6377 9234.3828 65536
-5642.1152 3986.5405 9227.2139 65536
-5611.5034 4003.8276 9267.2266 65536
-5560.7979 4006.9783 9274.5195 65536
-5507.1592 4008.0576 9277.0176 65536
-5452.8706 4008.6809 9278.46 65536
-5403.1719 4012.7258 9287.8223 0
-5356.7847 4019.3389 9303.1289 0
-5307.604 4023.9717 9313.8525 0
-5262.0298 4031.4661 9331.1982 0
-5205.3042 4030.4846 9328.9268 0
-5153.8521 4033.6096 9336.1602 0
-5102.4497 4036.842 9343.6416 0
-5051.5737 4040.5667 9352.2627 0
-5005.4653 4048.23 9370 0
-4989.4531 4080.6802 9445.1094 0
-4928.0762 4076.345 9435.0742 0
-4901.479 4101.0093 9492.1631 0
-4848.9302 4104.2817 9499.7373 0
-4813.5791 4122.3599 9541.5801 0
-4760.1377 4125.1919 9548.1348 0
-4717.2651 4137.3608 9576.3018 0
-4659.2993 4136.4282 9574.1436 0
-4598.7075 4133.1128 9566.4688 0
-4545.5479 4136.4771 9574.2559 256
-4475.8496 4124.686 9546.9639 256
-4422.7095 4128.0469 9554.7432 256
-4383.0635 4144.2534 9592.2559 256
-4329.0161 4147.0918 9598.8252 256
-4260.0825 4135.5552 9572.1221 256
-4224.0063 4156.0342 9619.5234 256
-4188.4443 4177.5879 9669.4111 256
-4135.2021 4181.8623 9679.3047 256
-4072.3105 4176.3608 9666.5713 0
-4024.7417 4186.6421 9690.3672 0
-3970.6521 4190.3389 9698.9248 0
-3910.4966 4187.6499 9692.7002 0
-3853.2974 4188.0928 9693.7256 0
-3746.9546 4134.3257 9569.2764 0
-3666.9124 4108.3677 9509.1943 0
-3613.5054 4111.9058 9517.3838 0
-3572.4893 4129.8809 9558.9883 256
-3511.5793 4125.0679 9547.8477 256
-3465.5559 4137.8701 9577.4805 256
-3368.9773 4089.73 9466.0557 330249
-3325.8899 4105.9922 9503.6963 396556
-3230.5854 4057.2378 9390.8496 67077
-3132.8374 4003.6467 9266.8076 858394
-3073.7556 3998.4358 9254.7471 1319716
-2925.9458 3875.5115 8970.2275 925217
-2942.4814 3969.7458 9188.3408 1319721
-2833.4502 3894.9363 9015.1875 1714479
-2746.3306 3847.9434 8906.418 1582894
-2650.0527 3786.0195 8763.0898 1517615
-2606.6853 3798.7197 8792.4854 2043702
-2523.8955 3753.3132 8687.3887 2570304
-2481.7153 3767.6631 8720.6025 2570561
-2402.759 3725.6018 8623.2471 1583411
-2380.1799 3771.0278 8728.3906 1781302
-2327.4011 3769.5657 8725.0059 2899783
-2257.7405 3740.0703 8656.7363 2505025
-2223.772 3769.7046 8725.3281 1386799
-2143.7954 3720.9001 8612.3652 1518386
-2063.46 3669.0691 8492.3975 1583666
-2042.0083 3721.9673 8614.835 1911860
-1927.3978 3603.4177 8340.4414 1186852
0 0 0 0
0 0 0 0
0 0 0 0
-1325.7417 2762.7976 6394.749 2
-1290.5038 2768.7373 6408.4966 1
-1250.9436 2765.4824 6400.9629 258
-1210.1261 2759.1567 6386.3213 2
-1160.8213 2732.4431 6324.4907 1647400
-1135.8999 2763.2581 6395.8145 2241082
-1058.2777 2663.5652 6165.0664 2175803
-1031.3259 2688.8269 6223.5366 3887453
-998.09235 2698.9807 6247.0391 4085088
-975.48511 2739.7649 6341.4375 3756382
-1018.2406 2974.7839 6885.4106 3821919
-946.91913 2882.2546 6671.2432 2768974
-958.19189 3044.0269 7045.6797 1650494
-1003.6922 3334.2893 7717.5186 1781309
-964.91663 3358.9783 7774.6636 1583929
-925.9693 3385.5232 7836.104 2241859
-880.96936 3391.5776 7850.1182 2636617
-835.20044 3395.1833 7858.4639 2044481
-799.25183 3441.502 7965.6724 1846844
-750.16656 3433.5264 7947.2119 1715257
-695.63721 3397.8867 7864.7212 1715257
-650.07971 3404.0935 7879.0869 2175807
-610.06232 3442.5254 7968.0415 2176064
-561.2113 3433.3845 7946.8838 1649720
-502.02783 3353.5427 7762.0825 1386290
-462.58981 3402.7886 7876.0669 1386289
-417.17703 3414.2251 7902.5371 1649461
-368.37466 3397.3032 7863.3706 2110014
-322.81561 3409.7212 7892.1128 2373186
-287.96201 3558.6602 8236.8457 1847100
-230.08646 3425.8301 7929.3989 1452085
-179.90669 3368.6719 7797.1006 1122606
-136.9157 3453.1587 7992.6533 662055
-88.261368 3408.6978 7889.7437 1451572
-42.311001 3486.2397 8069.2227 1912637
5.6840711 3509.0176 8121.9438 1781309
55.102833 3583.6296 8294.6396 1912896
103.26882 3544.7759 8204.709 1978689
148.54068 3463.3669 8016.2803 1254965
197.81047 3492.0762 8082.7314 2110531
246.77762 3505.2673 8113.2637 2834255
292.75653 3478.6389 8051.6294 2965843
330.65482 3376.9658 7816.2974 2768720
380.72113 3409.3052 7891.1494 2834513
437.92215 3491.4336 8081.2437 2900306
487.11575 3499.7966 8100.6006 3097941
529.08008 3459.3862 8007.0674 3163732
588.75372 3531.8826 8174.8667 3032146
637.92419 3535.1213 8182.3628 3426904
692.79834 3567.27 8256.7734 3163732
746.26282 3588.3867 8305.6504 3097939
806.70264 3638.343 8421.2793 3229525
840.62939 3569.8708 8262.7939 3295575
902.02209 3619.158 8376.873 3427161
945.4281 3594.896 8320.7168 3492955
989.28528 3574.6765 8273.917 3427161
1048.6489 3609.7495 8355.0967 3492954
1069.2809 3514.354 8134.2949 3624543
1134.9131 3568.7131 8260.1143 3756385
1186.5612 3576.4153 8277.9414 3756385
1234.2977 3572.1838 8268.1475 3427677
1282.7935 3570.3894 8263.9941 3493727
1345.657 3607.2427 8349.2939 3691362
1383.0651 3575.6638 8276.2021 3691106
1439.165 3592.9187 8316.1406 3691106
1485.1249 3584.5535 8296.7783 3625569
1550.8096 3622.8044 8385.3135 3888227
1683.3551 3810.0024 8818.6006 2505804
1678.9242 3685.2322 8529.8086 3163220
1666.28 3550.2771 8217.4424 3690590
1702.7494 3524.6716 8158.1763 3887714
1718.2468 3458.2749 8004.4946 3427163
1799.9125 3525.0425 8159.0347 3558748
0 0 0 0
0 0 0 0
0 0 0 0
0 0 0 0
0 0 0 0
0 0 0 0
1040.9778 1715.2316 3970.0608 523
1059.2267 1706.6172 3950.1221 522
1089.5848 1717.4637 3975.2278 5004906
1142.1196 1762.0641 4078.4592 3756126
1192.6172 1801.7328 4170.2759 3362138
1223.6686 1811.0065 4191.7407 3952730
1256.1127 1821.9298 4217.0239 2896954
1346.5665 1914.9203 4432.2588 262
1317.1132 1837.0968 4252.1294 262
1329.4617 1819.4108 4211.1934 519
1371.1509 1841.7902 4262.9927 3031112
1329.0814 1752.8903 4057.2256 4149849
1366.5272 1770.1606 4097.1992 3490378
1280.1278 1629.2092 3770.9543 263
1307.6587 1635.6118 3785.7739 4
1331.5446 1637.3158 3789.7178 262
1346.5879 1628.2708 3768.782 261
1419.9631 1688.9016 3909.1179 2899268
1444.9756 1690.9836 3913.937 2241853
1481.1112 1705.8105 3948.2551 2240313
1509.3229 1711.1912 3960.709 1120802
1538.3365 1717.3016 3974.8525 263
1574.5739 1731.1696 4006.9509 263
1585.8464 1717.5854 3975.5093 988189
1581.5831 1687.821 3906.6167 1449510
0 0 0 0
0 0 0 0
0 0 0 0
0 0 0 0
3662.5347 3641.2756 8428.0674 2636356
3681.228 3610.4814 8356.791 2504771
3699.9431 3580.5283 8287.4619 2833736
3929.8391 3753.0425 8686.7617 2242112
3936.4609 3710.6179 8588.5654 2307392
4011.6274 3733.0645 8640.5205 1912372
3666.3462 3368.6367 7797.019 462610
3926.9885 3563.0798 8247.0752 134158
3769.6082 3378.1191 7818.9668 1287
3645.9866 3227.5476 7470.4556 1030
3456.5232 3023.0151 6997.0464 197894
3447.7385 2979.4858 6896.2935 257
3374.408 2881.8547 6670.3174 131328
3247.5576 2741.3145 6345.0239 196608
3269.3745 2728.0522 6314.3271 262144
3228.3582 2663.2561 6164.3511 327680
3205.8804 2615.0364 6052.7417 393984
3223.9258 2600.5747 6019.269 985605
3396.7939 2709.9475 6272.4224 196608
3611.7224 2850.1367 6596.9033 196608
3709.1194 2895.5627 6702.0459 65536
3759.8008 2903.9419 6721.4404 65536
3815.4216 2915.9199 6749.1646 65536
3877.1389 2932.2595 6786.9839 65536
3930.4714 2941.9863 6809.4976 65536
4000.0137 2963.5247 6859.3501 65536
4035.8748 2959.9263 6851.021 0
4089.7505 2969.48 6873.1338 0
4137.0635 2974.1267 6883.8892 0
4190.3477 2982.9326 6904.2715 0
4253.0112 2998.1802 6939.5635 0
4314.8701 3012.573 6972.8765 0
4378.0317 3027.5928 7007.6416 0
4458.8135 3054.3999 7069.689 0
4532.6528 3075.9954 7119.6738 0
4605.8247 3096.7419 7167.6938 0
4631.4814 3085.4548 7141.5684 0
4654.4346 3072.5874 7111.7856 0
4684.6729 3064.7173 7093.5698 0
4715.8896 3057.6228 7077.1484 0
4730.8018 3040.1755 7036.7651 0
4778.7256 3044.0623 7045.7617 65536
4853.105 3064.5876 7093.2695 65536
4892.4805 3062.8457 7089.2378 65536
4950.8696 3072.9351 7112.5908 65536
5018.7334 3088.6846 7149.0444 65536
5118.4746 3123.6238 7229.9136 0
5270.0493 3189.3496 7382.0425 0
5316.2539 3190.7485 7385.2803 0
5366.3354 3194.4319 7393.8066 0
5211.8413 3077.2668 7122.6167 0
5448.1899 3190.8982 7385.6274 0
5336.4756 3100.4893 7176.3672 0
5557.1289 3203.0881 7413.8418 0
5621.1445 3214.4983 7440.251 131586
0 0 0 0
7088.519 3990.8386 9237.1631 0
7498.9492 4189.4644 9696.9004 65536
7422.3247 4115.0308 9524.6172 196608
7478.6069 4114.8521 9524.2021 196608
7550.3501 4123.1182 9543.3359 0
7735.3027 4192.6216 9704.208 0
7766.3003 4178.269 9670.9873 0
7803.7783 4167.5884 9646.2656 0
7981.4004 4231.3608 9793.873 0
8081.9404 4253.6406 9845.4414 65536
8400.7178 4389.6357 10160.215 65536
9279.7363 4814.3438 11143.241 0
8993.4102 4632.7339 10722.889 0
9237.4199 4724.9478 10936.325 0
9472.9551 4811.5684 11136.816 0
10611.601 5352.5176 12388.893 0
10839.551 5429.8193 12567.815 0
11083.104 5513.8262 12762.257 256
11345.574 5606.0381 12975.69 256
11478.383 5633.3691 13038.951 256
11503.452 5607.813 12979.798 0
12224.622 5919.6772 13701.637 264456
12325.452 5929.0083 13723.233 1316887
12682.135 6060.4814 14027.541 855823
13156.582 6246.1465 14457.28 395016
13549.35 6390.8765 14792.271 513
13814.004 6473.7017 14983.978 66307
14078.989 6555.6211 15173.587 256
14166.193 6554.2427 15170.397 256
14573.365 6699.9854 15507.731 256
14737.093 6732.6777 15583.4 1
15188.003 6895.3418 15959.902 2
14903.57 6724.2148 15563.812 2
14846.966 6657.356 15409.062 1
14732.132 6565.3672 15196.145 657931
0 0 0 0
0 0 0 0
0 0 0 0
-7391.2144 3562.7634 8134.4424 0
-7835.7603 3801.9146 8680.4688 0
-7798.2456 3808.79 8696.166 0
-7763.5962 3817.1655 8715.2891 0
-7735.1572 3828.7278 8741.6875 0
-7685.2783 3829.7622 8744.0498 0
-7635.4458 3830.8342 8746.4971 0
-7583.0322 3830.6169 8746.001 0
-7511.8901 3820.8706 8723.748 0
-7449.416 3815.4282 8711.3223 0
-7392.8667 3812.9651 8705.6992 0
-7349.7788 3817.4597 8715.9609 0
-7314.5474 3826.1274 8735.751 0
-7278.0249 3834.2395 8754.2715 0
-7220.8125 3831.489 8747.9922 0
-7162.4639 3828.092 8740.2363 0
-7093.3076 3818.8269 8719.082 0
-7032.9927 3814.22 8708.5635 0
-7005.124 3827.2715 8738.3633 0
-6988.4043 3846.6555 8782.6201 0
-6948.7271 3853.5991 8798.4736 0
-6904.79 3858.2681 8809.1338 0
-6857.5151 3861.1294 8815.666 0
-6799.165 3857.7498 8807.9502 0
-6747.2842 3858.0173 8808.5605 0
-6701.4727 3861.7864 8817.167 0
-6679.7031 3879.5786 8857.7891 0
-6645.1426 3890.165 8881.9609 0
-6606.0679 3898.2581 8900.4385 0
-6569.6035 3908.0342 8922.7588 0
-6523.0972 3911.9475 8931.6934 0
-6476.8306 3916.0693 8941.1045 0
-6424.4365 3916.5239 8942.1426 0
-6379.3774 3921.4956 8953.4932 0
-6338.0127 3928.8401 8970.2627 0
-6279.9634 3925.8794 8963.5029 65536
-6227.8218 3926.593 8965.1318 65536
-6154.6128 3913.9214 8936.2002 65536
-6103.7437 3915.3594 8939.4834 65536
-6047.6523 3913.4434 8935.1094 65536
-6012.6738 3925.2766 8962.126 65536
-5968.3706 3931.1794 8975.6035 65536
-5943.0713 3949.8188 9018.1611 65536
-5890.9727 3950.8245 9020.457 65536
-5838.9722 3951.9146 9022.9463 65536
-5790.6587 3955.5444 9031.2334 65536
-5727.8306 3949.2339 9016.8252 65536
-5671.9531 3947.6418 9013.1904 65536
-5628.7617 3954.9331 9029.8379 65536
-5572.3003 3952.9509 9025.3125 65536
-5520.6235 3954.3574 9028.5234 0
-5489.3218 3970.5295 9065.4473 0
-5440.3799 3974.136 9073.6816 0
-5392.667 3978.7217 9084.1514 0
-5373.7573 4004.8662 9143.8438 0
-5339.0073 4019.6187 9177.5264 0
-5280.9365 4016.9368 9171.4033 0
-5219.8228 4011.8599 9159.8125 0
-5159 4006.9028 9148.4941 0
-5118.6562 4017.9148 9173.6367 0
-5078.3291 4029.1777 9199.3516 0
-5020.6108 4026.7366 9193.7783 0
-4980.125 4038.2153 9219.9863 0
-4925.6045 4038.4419 9220.5039 0
-4874.8853 4041.8264 9228.2305 0
-4812.2388 4035.2856 9213.2969 0
-4748.6699 4027.812 9196.2334 0
-4726.5239 4055.7087 9259.9268 0
-4667.7139 4052.4312 9252.4434 0
-4628.9668 4066.7012 9285.0244 0
-4588.2988 4079.6077 9314.4932 0
-4537.8667 4084.0427 9324.6182 256
-4482.2124 4083.8284 9324.1289 256
-4428.1299 4085.0593 9326.9395 256
-4371.4834 4083.9255 9324.3516 256
-4318.9688 4086.6726 9330.623 256
-4277.4644 4100.0449 9361.1543 256
-4221.2817 4099.5142 9359.9434 256
-4162.2827 4096.1982 9352.3721 256
-4127.439 4116.8857 9399.6055 0
-4074.0251 4119.3643 9405.2646 0
-4008.9976 4110.0054 9383.8965 0
-3936.9514 4093.0857 9345.2656 0
-3887.5386 4099.5493 9360.0225 0
-3838.9888 4107.124 9377.3174 0
-3817.4692 4144.2656 9462.1182 0
-3780.2727 4165.2446 9510.0176 256
-3661.4763 4095.5862 9350.9746 256
-3577.8152 4063.6875 9278.1436 198150
-3410.2449 3933.9932 8982.0283 330250
-3384.7939 3966.7285 9056.7686 263686
-3387.1045 4033.5811 9209.4053 1798
-3307.4478 4003.4146 9140.5293 265228
-3102.8198 3818.4465 8718.2139 661015
-3077.9941 3852.2253 8795.3369 1845805
-2966.4375 3776.7488 8623.0098 1649711
-2900.2871 3757.4438 8578.9336 1386540
-2865.8904 3779.3225 8628.8867 1188649
-2814.571 3779.2761 8628.7803 1056294
-2687.8037 3676.0391 8393.0713 1517101
-2653.3057 3697.4785 8442.0215 1188136
-2623.9497 3727.0479 8509.5342 726815
-2442.9275 3538.1196 8078.1763 792350
-2455.9399 3628.2734 8284.0137 261
-2397.4819 3614.3687 8252.2666 1054493
-2304.2822 3546.4136 8097.1128 990245
-2226.2363 3499.3799 7989.7261 1319722
-2196.4639 3527.8298 8054.6826 1385518
-2092.2 3435.238 7843.2783 1254188
-2027.03 3404.0784 7772.1353 1319467
-2022.9537 3476.4553 7937.3853 463387
-1913.5076 3366.8862 7687.2192 133135
0 0 0 0
-1619.1439 2991.8108 6830.8525 517
-1502.5746 2847.8225 6502.1016 1054748
0 0 0 0
-1416.5187 2830.3047 6462.1045 261
-1373.4573 2820.7449 6440.2778 263945
-1329.186 2808.0808 6411.3633 774
-1284.059 2792.8076 6376.4922 857878
-1264.264 2833.3782 6469.1221 1714732
-1187.7777 2745.4558 6268.3794 3755861
-1111.709 2652.8364 6056.9121 3822428
-1088.4742 2684.313 6128.7788 3822172
-1049.2887 2677.2705 6112.6997 3755868
-1021.3845 2699.54 6163.5449 3623512
-985.94183 2702.8005 6170.9893 3360854
-977.14441 2782.1785 6352.2241 2044738
-914.10028 2707.2756 6181.207 3821919
-903.46948 2787.8315 6365.1309 3690333
-870.45392 2803.3374 6400.5337 3295574
-893.7204 3009.8022 6871.9307 1781822
-914.93182 3228.7893 7371.9185 990250
-847.20099 3140.1414 7169.519 594713
-831.11761 3243.6731 7405.9004 728362
-793.15118 3268.6028 7462.8193 1386036
-751.0968 3278.6414 7485.7393 1649719
-690.82611 3205.4204 7318.563 1123632
-654.01068 3238.5051 7394.1011 1978685
-625.62811 3321.1211 7582.7285 1978685
-590.16699 3376.0706 7708.1885 1518131
-541.04889 3355.5691 7661.3794 1056298
-495.2807 3353.9849 7657.7622 595488
-439.44696 3277.0193 7482.0361 660768
-394.50418 3273.0828 7473.0488 463902
-347.29953 3247.0005 7413.4976 726817
-317.10477 3395.4763 7752.4951 726560
-263.70328 3303.6992 7542.9512 726560
-219.33424 3310.6624 7558.8491 858659
-174.08411 3304.4875 7544.751 858145
-130.93309 3347.6982 7643.4092 1384489
-86.392189 3382.4075 7722.6562 529180
-40.450363 3378.7808 7714.3765 199703
5.4032197 3381.5229 7720.6367 331802
51.155373 3372.6714 7700.4272 661538
97.366257 3388.1423 7735.75 925484
145.09613 3429.5923 7830.3887 1649466
191.40054 3425.3997 7820.8154 1912895
239.59256 3450.0256 7877.0415 2439239
283.93588 3420.2407 7809.0371 2768717
327.5853 3391.6404 7743.7373 2637645
372.74594 3383.8054 7725.8486 2505804
425.44812 3438.6433 7851.0532 2703184
469.86102 3422.2654 7813.6592 2834769
515.4328 3416.5151 7800.5303 2835024
562.81256 3422.7092 7814.6729 3163989
616.30652 3462.3071 7905.0825 3163989
668.46747 3489.3374 7966.7974 3229782
714.41107 3482.4844 7951.1509 3164246
771.34607 3526.7366 8052.187 2966610
822.49933 3540.928 8084.5874 3229782
854.53247 3475.7817 7935.8472 3295575
899.99988 3469.2363 7920.9028 3361368
967.4444 3543.8457 8091.25 3558747
981.55304 3425.2666 7820.5117 3558747
1042.1564 3472.3235 7927.9517 3163991
1065.6853 3397.126 7756.2617 3032405
1125.4821 3438.9829 7851.8286 3887714
1180.8253 3464.4412 7909.9541 3690334
1241.2336 3502.2407 7996.2578 1583671
1286.1793 3495.2329 7980.2573 2834253
1345.4784 3526.3416 8051.2847 3493212
1398.7455 3540.0479 8082.5786 3493725
1446.0792 3538.3259 8078.6465 3625569
1495.2626 3541.0947 8084.9683 3756127
1551.1882 3559.1609 8126.2173 2505804
1581.557 3519.2673 8035.1328 3098197
1661.6318 3589.0759 8194.5186 3163732
1636.4707 3434.0752 7840.623 3822175
1667.6925 3402.699 7768.9858 3690589
1700.8887 3376.9331 7710.1582 3755870
1515.1903 2929.3291 6688.1958 3953505
0 0 0 0
0 0 0 0
0 0 0 0
0 0 0 0
0 0 0 0
1040.7931 1738.5184 3969.3564 525
1056.2412 1725.2178 3938.9885 265
1082.0548 1729.0573 3947.7549 4281186
1138.5192 1780.6726 4065.6021 3163732
1180.1207 1807.3795 4126.5791 1978687
1208.3251 1812.8989 4139.1807 3095880
1236.7427 1818.5115 4151.9951 1581866
1292.4015 1863.1764 4253.9736 264
1317.5721 1863.0178 4253.6113 264
1330.6897 1846.1432 4215.0835 523
1378.4424 1877.0557 4285.6621 3624020
1316.0066 1759.5226 4017.3127 4150106
0 0 0 0
1289.4109 1663.5984 3798.3003 9
1303.267 1652.5433 3773.0596 6
1328.2595 1655.7444 3780.3682 263
1342.0421 1645.0977 3756.0596 519
1379.9126 1663.8435 3798.8599 5005159
1434.899 1702.2914 3886.6433 4085603
1460.9697 1705.76 3894.5632 3887454
1512.9235 1738.8693 3970.1575 4411998
1552.4436 1756.8906 4011.3035 262
1564.6191 1743.8888 3981.6182 10
1572.2421 1726.2761 3941.405 396047
1614.1582 1746.2806 3987.0791 4017750
0 0 0 0
0 0 0 0
0 0 0 0
3530.4294 3607.5603 8236.7217 1583671
3695.6421 3724.7344 8504.252 2110015
3774.7878 3753.1726 8569.1816 1583414
3645.0305 3575.9119 8164.4629 3031115
3774.2102 3653.9985 8342.749 3688791
3814.9617 3645.5591 8323.4795 3689305
3863.0022 3644.2107 8320.4014 3622998
3907.8369 3639.9109 8310.584 3623513
4049.6667 3724.936 8504.7119 3294804
4059.6582 3688.0925 8420.5918 2966095
3800.3716 3410.4941 7786.7832 2899533
3739.439 3315.4382 7569.7529 2373440
3369.052 2951.5376 6738.9014 2569014
3295.9016 2853.5293 6515.1309 790287
3287.4971 2813.2021 6423.0566 0
3255.8708 2754.1575 6288.2466 131072
3244.2888 2713.2158 6194.7695 1117706
3265.9795 2700.707 6166.2095 1117705
3217.696 2631.2549 6007.6377 1249291
3288.281 2659.4646 6072.0454 131072
3384.8047 2707.8123 6182.4321 196608
3593.1252 2843.5977 6492.4551 65536
3671.0044 2874.363 6562.6978 65536
3734.5811 2893.4006 6606.1646 65536
3788.897 2904.9419 6632.5151 65536
3899.5657 2959.0063 6755.9541 65536
3951.2212 2967.6455 6775.6787 65536
4009.175 2980.7932 6805.6978 0
4063.0308 2990.6616 6828.229 0
4117.2476 3000.5984 6850.9165 0
4171.7803 3010.5679 6873.6787 0
4235.9995 3027.2668 6911.8057 0
4287.4204 3034.5864 6928.5176 0
4358.9097 3055.8364 6977.0347 0
4420.2388 3069.6294 7008.5269 0
4478.4116 3080.9937 7034.4736 0
4538.123 3093.1968 7062.3354 0
4596.416 3104.218 7087.499 0
4636.5645 3102.8962 7084.481 0
4673.5054 3099.4709 7076.6606 0
4712.8286 3097.6726 7072.5547 0
4752.8208 3096.342 7069.5171 65536
4798.3779 3098.6282 7074.7368 65536
4849.3989 3104.3726 7087.8521 65536
4889.3174 3102.9722 7084.6548 65536
4941.8179 3109.5125 7099.5869 65536
4990.5757 3113.6067 7108.9351 65536
5036.4702 3115.8611 7114.082 0
5089.8467 3122.6675 7129.623 0
5195.2739 3161.0322 7217.2163 0
5248.0098 3166.9707 7230.7754 0
5397.1401 3230.5117 7375.8506 0
5412.7344 3213.7422 7337.5635 0
5334.646 3142.0632 7173.9072 0
0 0 0 0
0 0 0 0
0 0 0 0
6734.3374 3843.5908 8775.623 1711388
7355.021 4165.5811 9510.7861 987408
7562.3179 4250.3208 9704.2617 592394
7740.3032 4317.4277 9857.4795 329221
7790.5527 4312.8125 9846.9414 197379
7752.8867 4259.9595 9726.2686 0
7975.3418 4349.7588 9931.2969 0
8235.2891 4458.5371 10179.657 0
8519.8838 4578.9751 10454.64 0
8607.3779 4592.5049 10485.531 0
8709.793 4613.7446 10534.025 0
8906.9229 4684.4956 10695.562 0
9262.6533 4837.0664 11043.909 0
9589.708 4972.6206 11353.405 0
9704.5811 4997.0249 11409.125 0
9826.9814 5024.9404 11472.86 0
10017.128 5086.8735 11614.266 65536
10259.677 5174.3877 11814.076 65536
10421.16 5220.105 11918.458 0
10543.94 5245.9497 11977.465 0
11056.015 5463.834 12474.936 0
11335.272 5564.5259 12704.833 0
11420.709 5569.3672 12715.887 0
11509.259 5575.6523 12730.237 66050
11543.932 5555.9263 12685.198 658957
11946.769 5712.498 13042.681 2501676
12407.099 5894.3647 13457.916 2963000
12776.508 6030.9834 13769.842 2897463
13045.972 6118.9858 13970.768 2634805
13078.786 6095.5806 13917.329 2503476
13169.783 6099.416 13926.086 3029307
13012.316 5988.8496 13673.642 2700341
13084.259 5984.5845 13663.903 2041897
13259.803 6027.4658 13761.811 2041383
13352.078 6032.2021 13772.624 1382939
0 0 0 0
0 0 0 0
0 0 0 0
-7543.1558 3685.3433 8301.6631 0
-7686.8755 3780.2869 8515.5342 0
-7649.7964 3786.9854 8530.624 0
-7630.8672 3802.8188 8566.29 0
-7587.0972 3806.4019 8574.3613 0
-7549.2344 3813.0171 8589.2637 0
-7497.8462 3812.8447 8588.875 0
-7438.9463 3808.8237 8579.8174 0
-7385.3149 3807.4636 8576.7529 0
-7320.502 3800.2795 8560.5703 0
-7266.4536 3798.6223 8556.8379 0
-7245.2896 3814.2537 8592.0488 0
-7195.3931 3814.8738 8593.4453 0
-7145.6777 3815.5989 8595.0791 0
-7094.2573 3815.4175 8594.6709 0
-7041.8179 3814.6821 8593.0137 0
-6996.2769 3817.6997 8599.8115 65536
-6944.7183 3817.4539 8599.2578 0
-6893.0303 3817.1333 8598.5352 0
-6865.2671 3830.1548 8627.8682 0
-6831.1147 3839.7815 8649.5537 0
-6768.8496 3833.6321 8635.7012 0
-6725.3145 3838.0776 8645.7148 0
-6666.6602 3833.897 8636.2979 0
-6615.5308 3834.012 8636.5566 0
-6576.4238 3841.1516 8652.6396 0
-6529.1196 3843.5774 8658.1045 0
-6489.8013 3850.7812 8674.3311 0
-6467.9106 3868.5232 8714.2969 0
-6427.3926 3875.3206 8729.6094 0
-6386.6763 3882.1082 8744.8994 0
-6331.4663 3880.125 8740.4316 0
-6268.8003 3873.5022 8725.5127 0
-6216.0229 3872.9299 8724.2236 0
-6191.3892 3890.0303 8762.7441 0
-6155.1626 3900.0757 8785.373 65536
-6097.9102 3896.856 8778.1201 65536
-6027.437 3885.0593 8751.5469 65536
-5986.6221 3892.3403 8767.9482 65536
-5937.668 3894.4109 8772.6123 65536
-5900.7061 3904.4534 8795.2344 65536
-5874.0488 3921.5544 8833.7568 65536
-5821.8198 3921.7385 8834.1709 65536
-5766.7998 3920.0286 8830.3193 65536
-5720.1753 3924.0466 8839.3701 65536
-5668.6973 3924.7788 8841.0195 65536
-5602.4961 3915.2356 8819.5225 65536
-5548.1396 3913.8677 8816.4404 65536
-5503.0288 3919.0579 8828.1328 65536
-5445.4702 3915.3984 8819.8887 65536
-5404.1846 3923.4817 8838.0977 0
-5374.1494 3939.9722 8875.2441 0
-5339.2173 3953.1636 8904.959 0
-5297.5215 3961.5608 8923.875 0
-5271.5024 3981.9702 8969.8496 0
-5226.1504 3988.0435 8983.5303 0
-5187.7305 3999.5869 9009.5332 0
-5150.6719 4012.4312 9038.4668 0
-5101.2842 4015.8406 9046.1465 0
-5030.9644 4002.6694 9016.4766 0
-4969.6328 3996.4414 9002.4482 0
-4897.8955 3981.6199 8969.0605 0
-4841.9214 3979.4275 8964.1221 0
-4800.0483 3988.9045 8985.4697 0
-4751.2866 3992.8052 8994.2568 0
-4644.7598 3947.699 8892.6494 0
-4602.8311 3957.0894 8913.8027 0
-4622.9229 4020.6396 9056.957 0
-4553.3306 4006.7681 9025.71 0
-4519.8594 4024.73 9066.1709 0
-4483.6611 4040.6682 9102.0732 0
-4436.8955 4047.3555 9117.1377 0
-4392.0088 4055.9436 9136.4834 0
-4344.4761 4062.2725 9150.7402 0
-4272.415 4045.5361 9113.0391 0
-4233.4736 4060.1333 9145.9209 0
-4196.8682 4077.3799 9184.7705 0
-4128.9941 4064.3018 9155.3115 256
-4086.981 4076.6707 9183.1738 256
-4043.4465 4087.8367 9208.3262 0
-3947.4141 4045.5056 9112.9707 66563
-3869.1702 4020.4819 9056.6016 198663
-3827.6047 4033.4021 9085.7061 265485
-3801.4734 4063.1885 9152.8037 2057
-3669.7053 3979.292 8963.8164 463380
-3481.8425 3831.1997 8630.2217 989726
-3408.8293 3806.9424 8575.5791 924703
-3320.7551 3764.873 8480.8135 990755
-3317.8704 3819.5786 8604.0439 1583148
-3191.2717 3731.3457 8405.2891 1517099
-3156.9194 3749.8799 8447.0391 1254441
-3098.2305 3739.6377 8423.9678 1451564
-3007.593 3689.8638 8311.8457 2241080
-2917.2417 3638.7837 8196.7822 1977396
-2826.6406 3585.6516 8077.0962 1385260
-2794.9382 3606.6892 8124.4858 1582894
-2752.5649 3614.4541 8141.9771 1451564
-2664.8906 3561.9465 8023.6978 200470
-2674.3069 3639.6636 8198.7646 793379
-2525.2913 3500.6416 7885.6016 1254186
-2524.7881 3566.1279 8033.1167 1187623
-2450.3311 3527.6694 7946.4844 924192
-2368.2051 3476.4414 7831.0874 266005
-2338.9006 3502.2542 7889.2339 923679
-2264.2798 3459.8782 7793.7769 990499
-2231.8162 3481.4949 7842.4712 594970
-2140.6682 3410.5376 7682.6313 265492
-2054.05 3343.8613 7532.4355 133392
-1989.6853 3311.248 7458.9702 133392
-1967.4297 3348.8235 7543.6133 724497
-1892.2504 3295.9678 7424.5493 0
-1783.4058 3180.5488 7164.5552 197895
-1682.1862 3073.4148 6923.2236 924449
-1577.1191 2953.7026 6653.5581 1713967
-1493.3021 2868.6543 6461.9766 593683
-1431.2727 2822.075 6357.0513 3359050
-1361.1697 2756.6194 6209.605 3294028
-1307.0552 2720.7971 6128.9111 3097932
-1283.575 2748.5186 6191.3569 3821399
-1250.0341 2755.6973 6207.5278 3492947
-1197.7147 2720.6572 6128.5957 3887962
-1157.4771 2711.7229 6108.4707 3953755
-1121.9685 2713.6489 6112.8091 3954012
-1084.464 2710.7144 6106.1982 3756378
-1041.0719 2692.3508 6064.8325 2900300
-1002.2314 2684.8628 6047.9648 4281695
-972.0741 2700.9446 6084.1909 2439234
-929.4679 2682.343 6042.2886 3162704
-895.96454 2689.5715 6058.5718 2900302
-877.00732 2742.8997 6178.6992 3426903
-850.12109 2775.0066 6251.0244 2505545
-817.1701 2789.3459 6283.3257 992048
-810.64478 2899.5811 6531.6426 3098196
-780.79108 2933.2644 6607.5186 3559260
-772.07037 3054.113 6879.7437 2374473
-732.57971 3059.9524 6892.8979 2440009
-704.6709 3117.7261 7023.0396 2242886
-651.83356 3065.5376 6905.479 1649721
-628.14807 3152.6472 7101.7041 1846839
-591.49182 3182.5178 7168.9902 267037
-549.09167 3183.7217 7171.7021 463640
-507.99789 3193.3403 7193.3696 1450795
-458.39288 3146.3071 7087.4224 726558
-425.31271 3214.656 7241.3857 1450025
-377.85394 3177.4807 7157.6445 660763
-337.00168 3193.4778 7193.6787 265748
-289.03162 3136.873 7066.1704 331796
-252.78581 3209.8979 7230.668 330768
-208.05798 3183.072 7170.2388 2061
-166.37872 3201.0796 7210.8027 776
-122.54308 3175.6992 7153.6309 462613
-80.042 3176.3108 7155.0083 519
-38.08918 3224.7263 7264.0703 520
5.0563078 3207.3535 7224.936 133136
49.362946 3298.6597 7430.6133 726299
92.109482 3248.7114 7318.0991 989215
