# .PCD v0.7 - Point Cloud Data file format
VERSION 0.7
FIELDS x y z rgb
SIZE 4 4 4 4
TYPE F F F U
COUNT 1 1 1 1
WIDTH 1434
HEIGHT 1
VIEWPOINT 0 0 0 1 0 0 0
POINTS 1434
DATA ascii
-5120.3511 5849.1025 15697.731 256
-4864.6196 5660.1069 15190.507 0
-4754.5376 5636.6343 15127.511 0
-4665.3135 5637.4595 15129.727 0
-4571.8013 5633.0356 15117.853 256
-4492.4141 5646.186 15153.146 1
-4457.5664 5716.9985 15343.191 131587
-4347.0234 5691.6592 15275.187 258
-4201.0513 5617.8604 15077.127 256
-4083.4509 5579.6133 14974.479 0
-4004.5994 5593.7866 15012.518 0
-3925.9817 5608.9409 15053.188 0
-3851.2417 5630.4707 15110.969 0
-3787.2097 5669.0571 15214.526 0
-3763.5608 5771.459 15489.352 0
-3686.4436 5794.9463 15552.387 0
-3615.8286 5830.1255 15646.8 0
-3545.0742 5866.9312 15745.579 0
-3445.2756 5856.3633 15717.217 0
-3350.0801 5853.2485 15708.857 0
-3282.9822 5900.4546 15835.549 0
-3248.7585 6011.2764 16132.97 0
-3166.9807 6038.1704 16205.147 0
-3072.8796 6042.519 16216.819 0
-2996.8347 6083.8057 16327.622 0
-2883.1851 6048.96 16234.104 0
-2783.2542 6041.4795 16214.028 0
-2706.5737 6085.7417 16332.818 0
-2646.4656 6171.9458 16564.172 0
-2571.7473 6229.4219 16718.426 0
-2444.3748 6158.8496 16529.025 257
-2391.1235 6276.9443 16845.965 0
-2355.541 6453.769 17320.525 263944
-2365.3206 6776.7192 18187.254 257
-2369.2512 7113.0405 19089.867 66821
0 0 0 0
0 0 0 0
0 0 0 0
0 0 0 0
0 0 0 0
0 0 0 0
-1630.729 7364.5024 19764.738 5
0 0 0 0
0 0 0 0
-1255.2312 7231.4692 19407.705 461837
-1116.7107 7084.4536 19013.146 330251
-1003.8483 7085.4365 19015.785 593164
-921.9693 7333.103 19680.469 592394
-786.94037 7168.5771 19238.916 256
-671.7326 7159.3652 19214.193 0
-556.75232 7149.3022 19187.186 0
-426.72287 6891.0293 18494.037 0
-315.54556 6863.6035 18420.432 0
-209.9798 6993.9434 18770.236 65536
-97.280899 6912.8701 18552.652 65536
13.471438 7172.439 19249.279 0
122.95841 6896.5869 18508.953 65536
231.51445 6853.6899 18393.826 197377
334.40192 6724.3242 18046.637 0
439.58405 6692.7271 17961.838 65536
538.53204 6597.1108 17705.223 131072
595.3078 6100.5801 16372.643 131074
643.98248 5672.2139 15223 196610
650.20013 5021.4912 13476.6 262146
672.81702 4626.2661 12415.901 196609
672.6969 4168.2793 11186.764 131075
747.56512 4215.5425 11313.607 1249813
861.41235 4456.6699 11960.741 131330
1071.4468 5120.7393 13742.96 263430
1258.894 5590.4277 15003.504 461580
1405.1205 5827.0376 15638.512 66565
1701.9775 6620.1943 17767.176 461320
1788.2843 6549.5469 17577.572 526857
1913.2877 6620.6011 17768.266 657930
1978.0621 6486.7109 17408.934 0
1977.6217 6162.9014 16539.898 0
1968.827 5844.957 15686.604 0
2038.9841 5779.5537 15511.076 196608
2099.4355 5693.4873 15280.093 262144
2173.0972 5648.8984 15160.426 458752
2236.4897 5582.228 14981.497 655360
2280.3206 5473.7065 14690.249 1180160
2330.4197 5387.6812 14459.375 1311232
2393.0198 5335.6475 14319.728 1179648
2438.875 5251.1348 14092.913 1114112
2503.3923 5211.0811 13985.418 983040
2563.6548 5165.0288 13861.824 917504
2630.6016 5134.8926 13780.944 851968
2700.3027 5111.7905 13718.944 786432
2787.8992 5122.9258 13748.829 655360
2852.7466 5092.8154 13668.019 589824
2895.4639 5025.9585 13488.589 458752
2966.7 5010.8726 13448.103 393216
3032.5571 4987.7324 13385.998 327680
3106.2151 4978.2773 13360.623 393216
3161.8843 4941.1821 13261.067 393216
3239.3213 4939.0806 13255.428 393216
3185.8479 4742.2158 12727.085 196609
3255.9167 4734.1133 12705.339 65538
3467.5203 4927.5049 13224.36 6846588
3845.0759 5342.9224 14339.253 6057846
3947.4919 5366.2954 14401.98 6582902
4210.5425 5602.4106 15035.663 592652
3851.9744 5018.7954 13469.365 196608
3938.7141 5027.3301 13492.271 458752
4029.1194 5040.1099 13526.568 458752
4239.7021 5199.7808 13955.091 262144
4244.9463 5106.3193 13704.26 1578002
4201.3325 4958.7114 13308.112 1841430
4365.1519 5056.8613 13571.525 131072
4493.603 5111.2207 13717.415 263171
4403.1431 4919.0811 13201.753 1447445
4554.7354 4999.3491 13417.175 2961452
4649.7563 5015.8301 13461.407 1118736
4701.8545 4986.2344 13381.979 591622
4909.877 5120.2285 13741.589 262144
4852.958 4978.0654 13360.055 393216
4957.02 5002.9526 13426.846 393216
4915.7007 4882.647 13103.972 196608
4945.1128 4835.2549 12976.781 196608
4970.1621 4785.1172 12842.223 131072
5022.5039 4762.3755 12781.189 65536
5066.2178 4732.2524 12700.346 65536
5058.4976 4655.6748 12494.828 65536
5068.27 4597.1812 12337.843 65536
5080.0356 4542.1362 12190.115 65536
5074.0454 4472.9883 12004.536 65536
5095.2461 4429.395 11887.542 65536
5127.7466 4396.6831 11799.749 65536
5141.9268 4349.3574 11672.737 65536
5138.0776 4288.2446 11508.724 65536
5139.7275 4233.2666 11361.175 65536
5131.1733 4171.4189 11195.188 65536
5164.5254 4144.7856 11123.712 65536
5199.6719 4120.2485 11057.859 65536
5190.3452 4061.5232 10900.253 196608
5333.1392 4121.8145 11062.062 196608
5274.5371 4026.8806 10807.279 196608
5477.3726 4131.4258 11087.855 196608
5554.2559 4139.6123 11109.827 196608
5710.8525 4206.3193 11288.854 131072
5716.1499 4161.332 11168.118 196864
5271.4722 3793.5576 10181.091 197377
5305.3511 3774.6106 10130.241 65536
5806.8931 4085.0845 10963.486 65536
5105.4106 3551.7449 9532.1172 131072
5179.5337 3563.7651 9564.3779 131072
5196.7119 3536.7693 9491.9268 131072
5231.9814 3522.5337 9453.7207 196608
5327.9336 3549.0225 9524.8105 65536
5292.5679 3488.4001 9362.1143 65536
5389.4917 3515.3262 9434.3779 65536
5379.5977 3472.7429 9320.0928 0
6395.1431 4086.2424 10966.594 0
5488.793 3471.7373 9317.3945 0
5578.1748 3493.0312 9374.543 0
5635.1401 3493.8057 9376.6211 0
5704.3423 3502.0776 9398.8213 0
5811.9507 3533.5393 9483.2578 65536
5981.9971 3601.9927 9666.9727 65536
5958.9033 3553.9531 9538.0439 65536
6008.6304 3549.8411 9527.0078 65536
6107.7178 3574.6946 9593.71 65536
6299.8691 3653.0532 9804.0068 65536
6295.6641 3617.1592 9707.6748 65536
6392.0825 3639.2048 9766.8408 65536
6624.2925 3737.468 10030.559 65536
6733.9302 3765.4397 10105.628 65536
6798.9712 3768.1995 10113.035 65536
6828.8745 3751.6072 10068.505 65536
7001.4551 3813.0056 10233.285 65536
6931.2603 3742.2695 10043.444 65536
7039.7168 3768.373 10113.501 65536
7134.623 3786.843 10163.07 0
7372.5483 3880.2754 10413.823 0
7861.5068 4103.1748 11012.037 0
8088.2744 4186.6777 11236.14 0
8184.1328 4201.6055 11276.204 0
8317.5479 4235.416 11366.943 0
8225.4092 4154.752 11150.458 0
8247.2773 4132.502 11090.745 0
8393.1094 4172.2285 11197.362 0
8739.5107 4310.2485 11567.778 0
8887.0527 4348.8042 11671.253 0
9021.4219 4380.3667 11755.96 0
9142.7314 4405.1514 11822.477 0
9278.1455 4436.3022 11906.078 0
9384.9756 4453.4175 11952.013 0
9491.3672 4470.0693 11996.702 0
9623.5791 4498.542 12073.117 0
9741.8291 4520.1157 12131.016 0
9956.4609 4585.7637 12307.201 0
10191.714 4659.8823 12506.12 0
11372.263 5162.0098 13853.722 0
11590.841 5223.4062 14018.497 0
12136.404 5430.2314 14573.57 0
12220.737 5429.2168 14570.848 0
12245.861 5402.0977 14498.065 0
12371.195 5419.2554 14544.113 0
12547.28 5458.2515 14648.771 0
12783.808 5522.8237 14822.067 0
11851.182 5084.873 13646.703 0
11976.443 5103.689 13697.201 0
12279.089 5197.332 13948.519 65536
12773.513 5370.3481 14412.856 65536
13128.544 5482.8452 14714.774 65536
14779.472 6131.4731 16455.553 131072
13374.202 5512.0024 14793.026 131072
17083.73 6994.8535 18772.678 262144
17605.467 7161.7031 19220.467 262144
15242.497 6160.501 16533.457 262144
15353.731 6165.7095 16547.436 262144
15523.255 6194.1108 16623.658 262144
15453.009 6127.084 16443.773 262144
15624.358 6156.0903 16521.619 262144
15821.743 6194.9282 16625.852 262144
15780.759 6140.5308 16479.861 262144
15895.065 6146.8579 16496.842 196608
16321.875 6273.2168 16835.961 196608
0 0 0 0
0 0 0 0
0 0 0 0
-9117.0479 3798.3171 10033.818 0
-9034.6934 3788.7896 10008.649 0
-9020.6143 3807.9568 10059.283 0
-8955.6572 3805.7593 10053.478 0
-8908.5195 3811.1558 10067.733 0
-8853.7822 3813.3516 10073.534 0
-8819.6396 3824.5078 10103.005 0
-8783.6816 3835.0247 10130.787 0
-8731.8379 3838.7036 10140.505 0
-8674.9658 3840.2065 10144.476 0
-8602.1279 3834.6143 10129.702 0
-8585.0186 3853.9602 10180.808 0
-8524.043 3853.7493 10180.25 0
-8480.166 3861.3203 10200.25 0
-8424.7617 3863.7139 10206.573 0
-8399.6201 3880.1216 10249.917 0
-8352.792 3886.6782 10267.237 0
-8299.9834 3890.5276 10277.406 0
-8281.3994 3910.5964 10330.421 0
-8241.4111 3920.7815 10357.326 0
-8162.3447 3912.3892 10335.156 0
-8082.2402 3903.3679 10311.325 0
-8027.627 3906.6138 10319.9 0
-7979.9971 3913.3345 10337.654 256
-7930.835 3919.4026 10353.684 256
-7874.1392 3921.8127 10360.051 256
-7850.2617 3940.7358 10410.039 256
-7790.6362 3941.8716 10413.039 256
-7751.4761 3953.4636 10443.661 256
-7703.0796 3960.4939 10462.232 256
-7649.793 3965.1038 10474.41 0
-7596.1943 3969.627 10486.358 0
-7544.3647 3975.156 10500.965 0
-7493.6235 3981.3564 10517.344 0
-7444.2417 3988.3889 10535.921 0
-7385.7002 3990.592 10541.741 0
-7328.1748 3993.3862 10549.122 0
-7279.3398 4001.0051 10569.249 0
-7228.0718 4007.408 10586.163 0
-7178.7871 4015.033 10606.306 0
-7132.5635 4024.5198 10631.366 0
-7081.2661 4031.2876 10649.244 0
-7034.2339 4040.6277 10673.918 0
-6981.209 4046.6638 10689.863 0
-6924.8994 4050.8899 10701.027 0
-6865.728 4053.5049 10707.935 0
-6811.7114 4059.24 10723.085 0
-6757.1411 4064.7505 10737.642 0
-6709.7134 4074.7039 10763.935 0
-6656.2759 4081.1638 10781 0
-6606.5781 4090.0652 10804.514 0
-6567.0796 4105.5166 10845.332 0
-6519.4395 4116.1343 10873.38 0
-6464.5933 4122.3696 10889.852 0
-6412.9521 4130.7959 10912.11 0
-6361.6621 4139.6221 10935.427 0
-6309.7046 4148.1919 10958.065 0
-6267.7759 4163.603 10998.775 0
-6203.4604 4164.3101 11000.644 0
-6153.2549 4174.606 11027.841 0
-6098.7368 4182.1655 11047.811 0
-6045.4985 4190.7769 11070.56 0
-5987.0859 4195.9512 11084.229 0
-5915.8364 4192.145 11074.173 0
-5858.418 4198.1636 11090.072 0
-5818.9585 4217.3354 11140.718 0
-5773.4644 4232.5244 11180.842 0
-5716.3101 4239.4199 11199.057 0
-5670.3838 4254.9028 11239.957 0
-5611.8555 4261.186 11256.555 0
-5556.2075 4269.834 11279.399 0
-5503.8735 4281.271 11309.613 0
-5462.7866 4301.8486 11363.971 0
-5420.9834 4322.3691 11418.18 0
-5380.7446 4344.6733 11477.1 0
-5338.5757 4365.9727 11533.364 0
-5304.1323 4394.2251 11607.998 0
-5257.1201 4412.6733 11656.731 0
-5262.9702 4476.5771 11825.543 0
-5246.4282 4522.9072 11947.931 0
-5196.1934 4541.0635 11995.894 0
-5191.457 4600.0405 12151.689 0
-5146.6851 4624.7061 12216.848 0
-5118.0796 4664.8125 12322.795 0
-5088.2612 4704.9619 12428.855 0
-5005.6479 4696.7573 12407.182 0
-5004.8862 4766.2563 12590.773 0
-4936.2124 4772.209 12606.499 1
-5137.1909 5043.0571 13321.983 2
-5262.0713 5246.5112 13859.438 1
-5274.6611 5342.6973 14113.527 3
-5230.854 5383.9443 14222.488 3
-5390.022 5638.8936 14895.975 264460
-5417.8828 5762.6934 15223.011 265488
-5590.9946 6047.8184 15976.209 791831
-5488.3809 6039.3877 15953.938 199437
-5388.0161 6033.1787 15937.537 461582
-5329.3721 6074.3003 16046.165 258
-5035.0781 5843.4375 15436.307 1
-4842.2759 5723.9766 15120.734 0
-4734.8784 5702.8638 15064.961 0
-4649.1138 5707.4941 15077.192 0
-4598.9683 5756.8936 15207.688 257
-4522.0962 5774.147 15253.266 257
-4465.5181 5818.5493 15370.562 526602
-4216.5352 5608.8682 14816.658 2
-4144.6958 5630.9067 14874.875 2
-4025.5271 5588.2021 14762.065 256
-3953.8911 5611.0503 14822.422 0
-3894.438 5652.6226 14932.241 0
-3828.6882 5686.7812 15022.477 0
-3771.0969 5734.9785 15149.796 0
-3733.623 5816.8755 15366.14 0
-3655.9109 5838.6172 15423.574 0
-3590.1641 5881.0786 15535.742 0
-3524.9863 5926.7383 15656.359 256
-3412.0164 5892.3398 15565.49 256
-3313.5759 5881.8145 15537.687 0
-3245.4185 5925.9819 15654.36 0
-3208.3528 6031.2031 15932.318 0
-3143.303 6088.6187 16083.99 0
-3054.7104 6102.604 16120.934 0
-2976.613 6139.1396 16217.449 0
-2855.4536 6086.3354 16077.958 0
-2759.1155 6084.6128 16073.407 0
-2680.8574 6124.0684 16177.635 0
-2608.1152 6179.5273 16324.138 0
-2603.0825 6405.8975 16922.129 256
-2390.4246 6118.9863 16164.211 258
-2356.7585 6285.415 16603.855 461579
-2376.5911 6615.3037 17475.307 1909283
-2373.3589 6908.2104 18249.062 857366
-2310.3281 7046.7759 18615.104 790803
0 0 0 0
0 0 0 0
0 0 0 0
0 0 0 0
0 0 0 0
0 0 0 0
-1612.6987 7399.2466 19546.209 1
-1515.5671 7493.3765 19794.867 65794
-1349.6478 7234.6226 19111.33 1711390
-1234.1976 7223.707 19082.494 987667
-1104.4923 7118.7046 18805.115 1250837
-1015.084 7279.0239 19228.623 0
-897.81042 7254.8525 19164.77 593164
-741.77679 6864.9438 18134.768 395785
-658.5495 7130.8149 18837.105 526856
-544.15674 7099.0171 18753.107 256
-420.98282 6906.7725 18245.264 197378
-316.76892 7000.1172 18491.848 65536
-202.87222 6864.9893 18134.887 65536
-94.928177 6853.2812 18103.959 0
12.786772 6916.5 18270.961 0
121.06216 6898.5371 18223.51 131841
225.95151 6795.7002 17951.85 132098
327.93497 6699.4663 17697.635 0
425.67108 6584.2759 17393.342 329221
519.59955 6466.7139 17082.783 0
587.15753 6113.0342 16148.486 2
646.01569 5780.8838 15271.062 2
694.62646 5450.1641 14397.418 262916
729.76263 5097.8594 13466.753 131074
753.3584 4742.5469 12528.142 262146
780.08154 4469.0688 11805.709 196610
819.01227 4304.8931 11372.014 1184532
934.66125 4538.2549 11988.474 658702
1295.1935 5843.3672 15436.121 461578
1322.4374 5571.626 14718.276 132614
1645.5546 6502.8223 17178.17 592650
1704.2802 6341.4463 16751.871 592906
1786.8138 6281.582 16593.732 592135
1887.6322 6288.8984 16613.059 0
1937.3451 6133.687 16203.044 0
1960.4562 5912.9404 15619.91 0
2007.903 5782.2358 15274.634 131072
2080.4636 5732.0317 15142.013 458752
2154.0271 5688.6387 15027.384 720896
2238.6584 5676.7681 14996.025 1180416
2268.675 5532.6162 14615.228 1245440
2333.8965 5481.7842 14480.946 1179648
2364.1392 5355.3335 14146.908 983040
2423.387 5301.0142 14003.416 917504
2488.0513 5261.7573 13899.713 720896
2551.1101 5221.7373 13793.994 524288
2614.8352 5185.5312 13698.351 458752
2681.9519 5158.0342 13625.712 458752
2762.9932 5158.144 13626.003 524288
2815.9556 5107.3208 13491.746 524288
2873.3499 5067.1274 13385.569 458752
2935.2334 5036.8037 13305.465 393216
3001.1223 5014.7632 13247.242 262144
3078.4202 5012.4268 13241.069 196608
3138.04 4982.1401 13161.062 262144
3214.5974 4979.5635 13154.256 196608
3251.1467 4916.6064 12987.945 131075
3284.2336 4851.4546 12815.838 3096125
3432.2539 4955.1875 13089.862 5530728
3734.0796 5271.4507 13925.319 6386294
3870.4897 5345.5435 14121.046 6846329
4194.9292 5670.6665 14979.907 592395
3797.9976 5027.3999 13280.622 131072
3914.613 5076.2661 13409.711 393216
4062.728 5163.2148 13639.398 393216
4128.5781 5144.2583 13589.322 327680
4240.5249 5182.3647 13689.986 196608
4428.4141 5310.0991 14027.414 196608
4409.1797 5189.3398 13708.411 196608
4431.5098 5120.9941 13527.866 65536
4518.8687 5128.8911 13548.728 65536
4751.9907 5299.0562 13998.243 256
4637.8535 5082.7915 13426.947 256
4645.7681 5005.3413 13222.352 0
5070.708 5372.2959 14191.717 131072
4831.4155 5035.0186 13300.749 196608
5156.459 5287.2505 13967.057 262144
5095.3911 5141.8579 13582.98 262144
4998.98 4965.8911 13118.138 196608
5032.7329 4922.645 13003.897 0
5051.9771 4866.7305 12856.191 65536
5078.9766 4819.8428 12732.33 65536
5099.23 4768.0229 12595.44 65536
5078.2129 4679.6714 12362.046 65536
5078.5029 4613.1948 12186.438 65536
5093.5166 4561.7744 12050.604 65536
5089.3818 4494.8672 11873.859 65536
5110.4399 4451.7373 11759.925 65536
5135.812 4413.4775 11658.855 65536
5099.8765 4324.2534 11423.157 65536
5055.189 4230.0498 11174.305 65536
5004.6768 4133.479 10919.198 65536
5046.2554 4114.4663 10868.974 65536
5074.9531 4085.5652 10792.627 0
5166.5366 4107.3794 10850.252 196608
5170.4985 4059.8555 10724.711 196608
5100.9399 3956.4639 10451.587 196608
5327.3501 4082.3618 10784.164 196608
0 0 0 0
5818.166 4353.7148 11500.984 262400
0 0 0 0
0 0 0 0
0 0 0 0
0 0 0 0
0 0 0 0
0 0 0 0
0 0 0 0
0 0 0 0
0 0 0 0
0 0 0 0
5559.2495 3683.8894 9731.541 1644564
5410.9038 3548.6672 9374.3311 2105628
5536.7041 3594.1631 9494.5156 2039835
5593.1338 3594.1631 9494.5156 1710871
5666.022 3604.6343 9522.1768 1513749
5720.4399 3603.2639 9518.5566 1250577
6055.0332 3776.6726 9976.6406 1118477
5865.6797 3623.0886 9570.9268 855562
5813.6807 3556.4805 9394.9707 526598
5793.4214 3510.3716 9273.168 394756
5937.8252 3563.9651 9414.7422 131585
6276.2764 3731.9399 9858.4736 0
6589.9639 3882.2192 10255.458 65536
6336.9458 3698.9514 9771.3291 65536
6551.0669 3789.2104 10009.762 65536
6626.2642 3798.2131 10033.544 0
6725.709 3820.8301 10093.29 0
6361.9175 3582.2122 9462.9453 65536
6624.8462 3697.5718 9767.6846 65536
6859.3267 3795.1875 10025.551 65536
7184.2612 3940.7378 10410.044 65536
7144.564 3885.5012 10264.128 65536
7223.7183 3895.2886 10289.983 0
7308.0923 3907.7031 10322.778 0
7797.0498 4134.4443 10921.748 0
7982.4131 4197.7876 11089.078 0
7853.5752 4096.2144 10820.758 0
7889.583 4081.5718 10782.077 0
7911.1543 4059.7571 10724.45 0
7975.8159 4060.2261 10725.69 0
8114.3159 4097.979 10825.42 0
8592.0986 4305.1382 11372.662 0
8856.3975 4402.9307 11630.994 0
9102.0293 4490 11861.001 0
9222.0293 4514.2334 11925.018 0
9323.2412 4528.9702 11963.947 0
9278.5215 4473.1313 11816.44 0
9277.96 4439.2603 11726.964 0
9524.0645 4523.0366 11948.272 0
9572.6611 4512.4702 11920.359 0
9821.0107 4595.5288 12139.771 0
10087.084 4685.6084 12377.729 0
10944.553 5047.1074 13332.684 0
11120.677 5091.4639 13449.858 0
11272.769 5124.2637 13536.503 0
11495.506 5188.4839 13706.15 0
12179.971 5458.7344 14420.058 0
12442.364 5537.3691 14627.782 0
12340.421 5453.8921 14407.266 0
12497.814 5485.3911 14490.475 0
12307.462 5364.8745 14172.112 0
12352.403 5347.8647 14127.179 0
12580.926 5410.0283 14291.393 0
12679.391 5415.8057 14306.655 0
13106.841 5561.0913 14690.448 65536
14724.18 6205.9697 16393.99 65536
14949.616 6259.5659 16535.572 196608
14639.295 6089.5981 16086.578 393986
17351.65 7171.04 18943.367 196608
15098.394 6199.5947 16377.149 262144
15052.887 6141.3179 16223.202 262144
15281.346 6194.8442 16364.601 262144
15497.521 6242.7461 16491.141 262144
15627.369 6255.4893 16524.803 262144
15859.854 6308.9014 16665.9 262144
15200.951 6009.2661 15874.368 262144
15905.521 6249.0127 16507.693 196608
15953.684 6229.5088 16456.172 196608
0 0 0 0
0 0 0 0
0 0 0 0
-8158.335 3452.2646 8978.7021 0
-8202.1797 3493.6697 9086.3887 0
-8475.1426 3633.8625 9451.0039 0
-8812.5449 3803.7393 9892.8223 0
-8860.7373 3850.2288 10013.733 0
-8815.0068 3856.259 10029.417 0
-8758.6855 3857.7068 10033.182 0
-8717.1582 3865.7351 10054.062 0
-8660.2939 3867.0254 10057.418 0
-8598.9971 3866.3413 10055.639 0
-8604.292 3895.7983 10132.251 0
-8570.2344 3907.7271 10163.275 0
-8514.3428 3909.7991 10168.664 0
-8465.9902 3915.3877 10183.199 0
-8416.4082 3920.4836 10196.453 0
-8372.3467 3928.2439 10216.636 0
-8320.3809 3932.3823 10227.398 0
-8261.457 3933.2681 10229.703 0
-8211.5752 3938.5034 10243.319 0
-8157.481 3941.7827 10251.848 0
-8106.1904 3946.4758 10264.054 0
-8048.2363 3947.9709 10267.942 256
-7991.2598 3949.9727 10273.148 256
-7939.04 3954.3745 10284.597 0
-7889.5918 3960.2356 10299.841 0
-7835.4282 3963.8027 10309.118 0
-7792.3892 3973.0989 10333.296 256
-7743.0835 3979.3215 10349.479 256
-7687.1299 3982.2004 10356.967 0
-7640.394 3989.939 10377.094 0
-7582.5767 3991.9697 10382.375 0
-7531.3545 3997.5349 10396.849 0
-7482.8237 4004.6318 10415.307 0
-7433.502 4011.4204 10432.963 0
-7381.0557 4016.6228 10446.493 0
-7327.96 4021.5576 10459.327 0
-7283.6675 4031.449 10485.053 0
-7231.6816 4037.2158 10500.052 0
-7177.9434 4042.0967 10512.746 0
-7119.2104 4044.2258 10518.283 0
-7059.9102 4046.0676 10523.073 0
-7013.834 4055.5884 10547.836 0
-6962.0864 4061.9727 10564.439 0
-6916.3418 4072.0071 10590.537 0
-6872.8315 4083.553 10620.566 0
-6822.5293 4091.2405 10640.56 0
-6762.7949 4093.3625 10646.079 0
-6711.7612 4100.8413 10665.529 0
-6657.2407 4106.3115 10679.757 0
-6583.5288 4099.9351 10663.173 0
-6543.1958 4114.4238 10700.855 0
-6489.334 4120.6074 10716.938 0
-6437.3931 4128.144 10736.539 0
-6386.2803 4136.3687 10757.93 0
-6347.6655 4152.9365 10801.02 0
-6298.646 4162.9663 10827.105 65536
-6255.0034 4176.7925 10863.065 0
-6214.0146 4192.6987 10904.434 0
-6167.6978 4205.3071 10937.226 0
-6113.2598 4212.5879 10956.162 0
-6065.042 4224.3579 10986.773 0
-6019.6187 4238.3516 11023.168 0
-5968.7466 4248.7744 11050.276 0
-5905.4087 4250.457 11054.652 0
-5846.1616 4255.1548 11066.871 0
-5809.7812 4276.793 11123.147 0
-5761.9326 4290.3896 11158.51 0
-5711.8047 4302.5859 11190.229 0
-5665.6655 4318.1099 11230.604 0
-5621.5054 4335.5298 11275.911 0
-5576.7324 4352.8916 11321.066 0
-5529.1973 4368.4961 11361.649 0
-5475.189 4379.3076 11389.77 0
-5429.2192 4396.9009 11435.526 0
-5389.8765 4420.375 11496.578 0
-5348.897 4443.0928 11555.662 0
-5315.2373 4472.5601 11632.302 0
-5277.7139 4499.5107 11702.395 0
-5236.1187 4523.6626 11765.21 0
-5193.6602 4547.7129 11827.76 0
-5136.5376 4559.4067 11858.173 0
-5090.2065 4581.1377 11914.691 0
-5055.3477 4613.9526 12000.038 0
-4994.4497 4623.6016 12025.132 0
-4930.4565 4630.623 12043.395 0
-4917.564 4686.5518 12188.854 0
-4886.5518 4726.626 12293.08 2
-4856.2441 4768.6089 12402.27 922130
-4877.0957 4862.896 12647.493 1646628
-5052.2217 5116.3682 13306.728 1055774
-5500.5195 5658.9424 14717.862 132875
-5421.6353 5667.9214 14741.215 263945
-5400.1338 5738.1704 14923.92 264460
-5403.7666 5837.9194 15183.348 329223
-5607.3633 6160.7549 16022.983 1252125
-5559.4561 6213.646 16160.544 988696
-5252.0605 5973.2759 15535.386 856854
-5156.4526 5969.4834 15525.522 66307
-4963.6812 5851.02 15217.421 256
-4833.1299 5802.8638 15092.175 0
-4739.5532 5798.1187 15079.834 0
-4641.9004 5788.1079 15053.799 256
-4665.8442 5932.3057 15428.83 1053458
-4497.1064 5832.3926 15168.975 258
-4400.2651 5823.5435 15145.959 263686
-4340.7886 5864.8062 15253.276 258
-4144.6782 5719.2881 14874.811 258
-4030.8943 5683.5059 14781.748 2
-3932.501 5668.3135 14742.234 256
-3847.7043 5672.4727 14753.053 256
-3800.0889 5732.9189 14910.262 256
-3771.7117 5825.9683 15152.266 256
-3687.4385 5835.1177 15176.062 256
-3597.3376 5835.2729 15176.466 256
-3826.9521 6367.3872 16560.396 256
-3397.3069 5801.7456 15089.267 0
-3350.0842 5876.2188 15282.957 0
-3255.7505 5869.9048 15266.537 0
-3182.322 5902.001 15350.013 0
-3141.5645 5998.3716 15600.655 0
-3052.9214 6006.3926 15621.517 0
-2972.7473 6032.1016 15688.381 0
-2901.01 6077.1499 15805.542 0
-2791.0129 6042.3823 15715.118 0
-2698.0361 6043.3311 15717.586 256
-2619.4229 6077.6743 15806.906 256
-2556.8677 6153.2178 16003.381 256
-2463.9954 6158.8198 16017.951 1
-2335.8564 6073.1797 15795.217 2
-2189.6582 5931.4478 15426.599 132359
-2365.061 6686.5684 17390.527 66822
-2346.6074 6937.582 18043.367 132617
-2287.1543 7085.6201 18428.387 330510
-2224.8701 7239.3364 18828.176 3
-2120.7891 7266.1338 18897.869 3
-2057.2261 7442.5112 19356.596 5
-1921.7677 7364.2793 19153.127 261
-1770.6578 7212.4409 18758.225 4
-1654.4807 7192.0513 18705.195 4
-1557.5393 7258.3657 18877.666 2
-1442.8082 7245.6367 18844.561 2
-1294.6978 7049.0308 18333.225 2
-1181.5909 7024.3823 18269.119 131074
-1066.7024 6983.082 18161.705 65538
-944.61938 6880.0815 17893.818 131073
-798.28473 6551.9009 17040.283 65536
-711.59412 6689.0068 17396.869 65536
-592.3241 6514.4194 16942.799 65536
-480.6962 6369.5747 16566.086 65536
-387.07495 6450.1738 16775.709 196608
-285.2713 6403.042 16653.127 196608
-192.69429 6622.9521 17225.074 131072
-87.963074 6450.1431 16775.629 263170
11.121169 6110.0039 15890.99 460549
119.55492 6919.6094 17996.623 395269
201.52242 6156.1309 16010.957 395269
280.67673 5824.041 15147.254 461062
437.98273 6881.0771 17896.408 526857
450.71564 5697.4824 14818.098 461321
522.04407 5520.4551 14357.683 789516
616.62048 5604.4722 14576.195 723723
628.47974 5008.5859 13026.405 657673
629.30963 4465.1514 11613.033 788489
710.36096 4542.0786 11813.106 196608
726.96771 4230.1694 11001.888 131329
764.78723 4082.9888 10619.099 723723
851.43164 4199.0391 10920.925 592650
1054.9281 4834.1147 12572.638 526857
1105.2535 4729.7075 12301.095 66306
1447.8535 5811.3862 15114.341 461064
1602.5002 6056.3501 15751.446 256
1707.4517 6096.8247 15856.713 0
1853.0492 6270.6094 16308.694 0
1873.0989 6023.3882 15665.719 65536
1941.0618 5946.3608 15465.385 0
1956.1526 5721.6509 14880.956 196608
2030.5557 5682.3618 14778.772 393216
2128.5942 5709.731 14849.954 720896
2185.7812 5629.7036 14641.817 917504
2249.9829 5573.1792 14494.809 983040
2286.0308 5453.6592 14183.958 917504
2343.9194 5392.8916 14025.913 851968
2408.7812 5351.791 13919.018 655360
2473.5632 5313.248 13818.774 458752
2545.9851 5293.0649 13766.283 393216
2602.2708 5241.6372 13632.528 327680
2666.9141 5209.6406 13549.312 393216
2738.8232 5193.2974 13506.806 327680
2792.6831 5144.6348 13380.243 393216
2849.5273 5104.0127 13274.593 393216
2907.4702 5067.4937 13179.613 196608
2980.8665 5059.1182 13157.831 131072
2980.813 4929.6992 12821.236 394245
3087.3042 4978.5449 12948.274 197636
3215.7288 5059.5239 13158.886 1
3248.1079 4989.1304 12975.806 258
3010.0754 4516.2798 11746.009 6518137
3438.0977 5041.5542 13112.149 5860724
3688.9543 5289.5103 13757.037 5925747
3846.2896 5395.5215 14032.754 6385779
4206.0225 5774.9282 15019.521 258
3860.2163 5189.9824 13498.185 196608
3920.8625 5164.1963 13431.119 393216
4206.9033 5430.3838 14123.424 393216
4128.4502 5224.8633 13588.902 262401
4267.1855 5296.8232 13776.058 196608
4461.7104 5434.0205 14132.883 196608
4400.3145 5260.2158 13680.848 131072
4419.5142 5187.3145 13491.246 65536
4571.104 5269.6333 13705.342 65536
4652.0859 5269.0972 13703.947 256
4709.5483 5242.3989 13634.51 0
4809.6074 5263.2173 13688.655 65536
5115.3228 5504.6523 14316.583 131072
4964.1177 5254.5352 13666.073 196608
5027.4336 5235.8862 13617.571 262144
5031.3682 5156.9653 13412.312 262144
5325.9189 5373.7305 13976.079 196608
5043.7388 5010.8657 13032.335 0
5072.0479 4962.7783 12907.269 65536
5073.4463 4890.1846 12718.466 0
5085.6533 4829.9883 12561.905 65536
5087.543 4761.876 12384.759 65536
5087.2461 4693.6899 12207.419 0
5080.3013 4621.3735 12019.337 0
5071.5522 4549.4438 11832.263 0
5159.9985 4565.479 11873.966 65536
5185.0688 4525.7637 11770.675 65536
5142.8423 4429.1479 11519.396 65536
5108.144 4341.4702 11291.36 65536
5086.6587 4267.1494 11098.066 65536
5159.1816 4272.585 11112.203 65536
5030.1401 4113.0669 10697.326 0
4825.3125 3896.335 10133.646 131072
4937.7295 3937.9575 10241.898 196608
5212.5063 4106.4746 10680.181 196608
0 0 0 0
0 0 0 0
0 0 0 0
0 0 0 0
0 0 0 0
0 0 0 0
0 0 0 0
3677.2949 2639.8406 6865.7373 327680
0 0 0 0
0 0 0 0
0 0 0 0
0 0 0 0
0 0 0 0
4287.8164 2885.9724 7505.8804 262144
0 0 0 0
0 0 0 0
4934.5054 3220.7112 8376.4746 65536
4865.2305 3143.7788 8176.3867 131328
5011.7573 3206.4333 8339.3398 65792
4747.0986 3007.3682 7821.6084 0
4680.8779 2936.6587 7637.7061 65792
5439.6113 3379.8911 8790.4717 131585
5368.1411 3303.752 8592.4482 263170
5376.7905 3277.8921 8525.1914 395011
5422.9668 3275.1794 8518.1357 855561
5741.7534 3435.636 8935.4531 1118732
0 0 0 0
0 0 0 0
6534.522 3804.4331 9894.627 1184267
6759.1538 3900.1162 10143.48 1512718
6932.0908 3964.5427 10311.042 1447179
6534.0278 3704.1396 9633.7822 1513229
6767.645 3803.25 9891.5498 1578768
6552.4292 3650.5923 9494.5156 1644560
6735.3105 3720.4419 9676.1807 1380876
7079.8789 3877.6648 10085.089 394498
7772.1011 4221.0605 10978.197 65536
7809.4624 4206.0415 10939.136 65536
7986.3979 4265.8223 11094.614 0
7946.5049 4209.7563 10948.797 0
8026.0825 4217.3779 10968.62 0
8111.481 4227.9111 10996.015 0
8159.2251 4218.8066 10972.335 0
8237.1846 4225.3447 10989.341 0
8210.0938 4178.3179 10867.032 0
8385.5146 4234.2847 11012.591 0
8570.1729 4294.0112 11167.93 0
8657.4707 4304.4146 11194.985 0
8691.8301 4288.5386 11153.695 0
8782.2158 4300.3379 11184.383 0
8866.4297 4308.9595 11206.807 0
9102.0127 4390.4673 11418.794 0
9799.8926 4692.1133 12203.318 0
9169.748 4358.1504 11334.743 0
10582.594 4992.9595 12985.764 0
10810.285 5063.4585 13169.118 0
11003.038 5116.6968 13307.581 0
11156.688 5151.1206 13397.111 0
11342.801 5199.939 13524.08 0
11665.169 5310.0952 13810.575 0
11922.758 5389.4302 14016.91 0
12048.203 5408.3452 14066.105 0
12002.835 5350.8516 13916.574 0
12304.888 5447.9648 14169.148 0
12434.863 5468.0884 14221.486 0
14454.198 6313.1553 16419.35 0
12683.704 5502.707 14311.522 0
13192.662 5685.3867 14786.639 65536
14338.165 6138.1528 15964.2 65536
15085.389 6415.5845 16685.748 131072
13838.091 5846.6924 15206.165 262144
16987.824 7130.9053 18546.166 196608
14309.781 5968.0312 15521.745 196608
14705.107 6093.6216 15848.383 262144
14795.646 6092.1182 15844.472 262144
14720.599 6022.8833 15664.405 262144
14849.547 6037.4585 15702.312 262144
14977.128 6051.2993 15738.311 262144
15063.218 6048.3086 15730.532 262144
15869.462 6332.7344 16470.27 196608
16207.396 6427.937 16717.875 196608
0 0 0 0
0 0 0 0
0 0 0 0
-8067.0088 3466.3853 8878.1924 0
-8038.3555 3476.8147 8904.9043 0
-8000.4155 3483.3391 8921.6143 0
-8231.7188 3607.96 9240.7959 0
-8201.4482 3618.8367 9268.6543 0
-8656.0527 3845.2554 9848.5635 0
-8677.7031 3881.1182 9940.416 0
-8666.0273 3902.4646 9995.0889 0
-8667.1611 3929.9143 10065.394 0
-8608.2744 3930.3411 10066.487 0
-8548.4932 3930.363 10066.543 0
-8511.6426 3941.0022 10093.793 0
-8464.9053 3947.1826 10109.622 0
-8419.5498 3954.0999 10127.339 0
-8364.7139 3956.6326 10133.825 0
-8318.7793 3963.4429 10151.269 0
-8274.2285 3971.0173 10170.668 0
-8220.3115 3974.1743 10178.754 0
-8168.4976 3978.4031 10189.584 0
-8110.3442 3979.5835 10192.608 0
-8054.502 3981.9253 10198.605 0
-8001.7617 3985.8472 10208.65 0
-7951.9531 3991.3008 10222.618 0
-7902.5283 3997.032 10237.298 256
-7848.1812 4000.3433 10245.778 256
-7793.0659 4003.3123 10253.383 256
-7748.5669 4011.8242 10275.184 0
-7700.9668 4018.8528 10293.186 0
-7637.6172 4017.7097 10290.258 0
-7595.4595 4027.7856 10316.064 0
-7543.2534 4032.6536 10328.532 0
-7486.8198 4035.3228 10335.369 0
-7440.3276 4043.4392 10356.156 0
-7385.9795 4047.3855 10366.265 0
-7337.6353 4054.7163 10385.04 0
-7290.4194 4062.8003 10405.745 0
-7235.668 4066.7874 10415.956 0
-7184.0322 4072.6091 10430.867 0
-7128.5063 4076.3081 10440.342 0
-7078.4619 4083.2339 10458.08 0
-7022.7705 4086.9961 10467.716 0
-6972.7871 4094.1768 10486.107 0
-6917.8315 4098.5415 10497.286 0
-6866.7021 4105.2729 10514.527 0
-6817.3359 4113.1919 10534.81 0
-6774.7729 4125.4004 10566.078 0
-6720.4092 4130.584 10579.354 0
-6663.1499 4134.0698 10588.282 0
-6614.3203 4142.9019 10610.902 0
-6553.8179 4144.5215 10615.051 0
-6500.1099 4150.5117 10630.394 0
-6446.2944 4156.5498 10645.858 0
-6394.3638 4163.9351 10664.773 0
-6346.1816 4173.9341 10690.383 0
-6298.8652 4184.71 10717.982 0
-6269.8804 4208.0098 10777.658 0
-6245.0879 4234.6323 10845.846 0
-6199.9614 4247.8789 10879.773 0
-6152.7437 4259.9565 10910.707 0
-6105.624 4272.3613 10942.478 0
-6047.6196 4277.3335 10955.213 0
-5999.689 4289.6167 10986.673 0
-5945.9204 4297.9502 11008.017 0
-5878.2651 4296.3198 11003.841 0
-5818.0894 4300.1812 11013.729 0
-5783.4888 4323.2476 11072.809 0
-5731.2246 4333.4897 11099.041 0
-5683.085 4347.125 11133.964 0
-5633.4365 4359.9141 11166.72 0
-5590.1255 4377.9712 11212.968 0
-5545.3291 4395.2861 11257.316 0
-5502.8823 4414.9097 11307.576 0
-5454.4897 4430.1895 11346.711 0
-5411.2217 4450.0654 11397.618 0
-5371.0596 4473.0322 11456.441 0
-5343.0645 4506.8521 11543.062 0
-5316.4365 4542.7197 11634.926 0
-5275.9722 4567.5537 11698.532 0
-5216.6987 4576.5503 11721.574 0
-5146.1865 4575.7974 11719.646 0
-5094.7534 4592.2207 11761.71 0
-5033.7178 4600.3257 11782.469 0
-4969.6323 4605.8325 11796.572 0
-4947.1543 4650.6104 11911.259 256
-4885.1768 4659.0176 11932.791 256
-4868.1279 4711.1519 12066.319 256
-4893.2036 4806.2217 12309.814 1
-4820.8999 4807.0771 12312.005 1316889
-5113.5142 5177.4385 13260.584 527630
-4953.752 5094.1934 13047.375 132873
-5151.3623 5381.6494 13783.614 658959
-5187.4165 5506.8896 14104.383 921618
-5397.7334 5824.2783 14917.285 4
-5385.2925 5907.8926 15131.44 4
-5255.7759 5863.728 15018.325 3
-5171.3984 5869.2686 15032.516 2
-4999.2983 5773.6929 14787.726 1
-4971.0156 5843.7632 14967.191 257
-4790.9238 5734.6743 14687.79 0
-4672.4678 5696.6821 14590.483 0
-4592.0781 5704.541 14610.611 0
-4561.4873 5775.7588 14793.017 0
-4539.5522 5860.9512 15011.214 0
-4475.1089 5893.5767 15094.775 1
-4388.4468 5897.6772 15105.277 257
-4195.2451 5755.7798 14741.847 1
-4112.0122 5761.9214 14757.576 256
-3951.895 5658.2495 14492.049 2
-3874.0547 5670.3843 14523.129 256
-3790.5347 5674.5703 14533.85 256
-3733.4294 5719.4175 14648.714 256
-3727.2681 5846.3125 14973.721 256
-3635.6392 5842.0786 14962.876 256
-3545.8923 5840.7319 14959.428 256
-3492.1169 5900.0928 15111.463 256
-3426.3818 5941.8462 15218.403 0
-3325.8708 5923.9229 15172.498 0
-3214.4177 5884.9673 15072.724 0
-3172.1611 5974.0957 15301.002 0
-3137.3037 6082.8306 15579.496 0
-3049.2188 6091.8394 15602.57 0
-2956.175 6091.1958 15600.922 0
-2873.9458 6113.5161 15658.089 0
-2773.408 6097.0791 15615.99 0
-2660.3008 6050.916 15497.756 256
-2584.782 6090.0034 15597.867 256
-2523.6628 6167.187 15795.553 256
-2435.2368 6181.0254 15830.996 256
-2326.2415 6141.6709 15730.2 256
-2227.2493 6126.5356 15691.436 258
-2404.1553 6902.1626 17677.99 2
-2065.6934 6201.479 15883.382 2
-1979.0938 6226.0195 15946.236 2
-2131.9346 7044.1685 18041.699 2
-1996.5795 6946.312 17791.066 2
-1884.7346 6923.8789 17733.609 5
-1771.3059 6892.625 17653.562 2
-1672.4042 6917.5229 17717.332 2
-1567.0377 6917.231 17716.584 0
-1473.5203 6972.9683 17859.34 0
-1358.8396 6929.4365 17747.844 0
-1238.5695 6847.6748 17538.434 65536
-1120.4745 6764.0176 17324.17 65536
-1017.5623 6764.3584 17325.043 196608
-897.22375 6635.8916 16996.01 262144
-792.96265 6608.8218 16926.678 327680
-698.21368 6664.6821 17069.748 393216
-593.85107 6632.1694 16986.477 458752
-490.25928 6596.7095 16895.656 524288
-384.8938 6512.9692 16681.178 458752
-279.40063 6368.2109 16310.419 458752
-168.19371 5870.2192 15034.95 327680
-84.212601 6270.5811 16060.368 196608
10.432278 5820.1206 14906.637 131072
103.75951 6098.2295 15618.937 65536
190.91452 5922.2295 15168.16 0
277.52545 5847.667 14977.189 263170
356.08209 5680.8237 14549.866 197379
435.15829 5585.8516 14306.621 262915
455.48071 4891.0205 12527.004 0
548.68738 5064.1138 12970.334 65537
613.65491 4966.0352 12719.133 394245
653.21185 4706.3872 12054.115 525317
659.08972 4279.3901 10960.48 196608
730.67114 4317.4404 11057.936 0
754.23022 4088.8694 10472.514 591881
857.59857 4294.8301 11000.025 526857
949.34119 4417.5161 11314.251 197891
1008.2539 4381.3105 11221.521 592648
0 0 0 0
1561.3813 5992.1636 15347.277 461064
1683.124 6102.8574 15630.789 65793
1789.6012 6149.5142 15750.288 0
1780.9324 5815.5312 14894.882 65536
1848.5071 5750.3569 14727.957 131072
1927.4724 5724.9087 14662.778 196608
2008.4731 5707.4458 14618.052 393216
2110.7922 5749.4995 14725.761 720896
2155.7986 5638.3081 14440.974 851968
2198.8953 5530.8276 14165.693 917504
2253.7109 5459.6631 13983.425 851968
2317.3843 5414.2563 13867.128 787200
2379.5544 5368.5767 13750.132 722690
2431.0291 5302.6011 13581.153 131072
2521.5505 5323.2988 13634.165 196608
2585.8525 5289.0786 13546.519 196608
2648.645 5253.9297 13456.495 262144
2719.3442 5236.0664 13410.743 196608
2780.0417 5200.5107 13319.677 393216
2833.2688 5153.3359 13198.852 393216
2889.9131 5114.751 13100.026 262144
2963.0938 5106.6899 13079.381 656901
2945.4431 4946.501 12669.102 394243
3100.1575 5076.5483 13002.182 394501
3189.2524 5095.4312 13050.544 1
3241.1326 5055.3706 12947.94 1451557
3367.4197 5130.5332 13140.449 5531244
3526.9365 5251.7695 13450.962 5794676
3608.3184 5253.8633 13456.325 5860468
3733.8833 5318.8037 13622.652 6452087
4273.7188 5958.5801 15261.263 197124
3892.9651 5314.918 13612.699 131073
3960.5417 5297.0918 13567.043 196608
4166.5303 5461.4048 13987.885 65538
4282.7119 5503.874 14096.658 2633777
4541.5117 5724.4814 14661.684 1383453
4647.5381 5747.8398 14721.51 988694
4531.5166 5500.792 14088.765 256
4566.561 5442.7593 13940.13 0
4602.0273 5387.2891 13798.059 725778
4769.5083 5485.5967 14049.846 1713186
4876.6294 5512.293 14118.222 462605
4894.562 5438.978 13930.445 330248
4966.7173 5427.3535 13900.672 460551
4844.4404 5207.1206 13336.606 0
4899.1812 5181.1855 13270.181 196608
4924.0913 5125.0249 13126.34 196608
4995.6787 5118.4399 13109.475 196608
5020.3066 5064.6821 12971.79 65536
5046.0591 5013.6685 12841.133 65536
5074.1362 4966.4502 12720.195 65536
5103.541 4921.8984 12606.089 65536
5111.6367 4858.3833 12443.411 65536
5160.6899 4835.0522 12383.655 65536
5171.1831 4776.7588 12234.353 65536
5305.8896 4833.229 12378.986 0
5311.0488 4771.7627 12221.557 0
5262.5171 4664.3662 11946.49 0
5133.5547 4489.4893 11498.592 0
5043.8081 4353.0527 11149.147 65536
5020.0962 4276.4077 10952.841 65536
5033.2559 4232.7305 10840.975 65536
4978.4937 4133.7612 10587.492 65536
5374.2925 4406.7036 11286.56 0
5431.8062 4398.957 11266.718 0
5449.439 4359.4941 11165.645 0
0 0 0 0
0 0 0 0
0 0 0 0
0 0 0 0
3762.0764 2836.8889 7265.9102 327680
3749.2358 2795.1216 7158.9351 393216
3849.0293 2837.3203 7267.0151 393216
3905.9021 2847.2942 7292.5605 196608
4006.5547 2888.6138 7398.3887 262144
4192.9941 2990.2141 7658.6108 196608
4242.7124 2993.1777 7666.2007 196608
4326.3311 3019.74 7734.2329 196608
4396.1782 3036.2327 7776.4746 196608
4489.5728 3068.4763 7859.0576 196608
4561.7847 3085.7273 7903.2412 262144
4646.7651 3111.1755 7968.4199 262144
4721.8188 3129.531 8015.4321 131072
4802.5156 3151.2224 8070.9888 131072
4860.647 3157.8247 8087.8989 131072
4907.1494 3156.8169 8085.3179 131072
4987.7671 3177.5625 8138.4517 131072
5061.1421 3193.3398 8178.8608 262144
5179.479 3236.9158 8290.4688 393216
5293.9146 3277.2551 8393.7871 458752
5385.2466 3302.6726 8458.8867 458752
5497.8828 3340.5645 8555.9365 458752
5900.9404 3552.6069 9099.0254 393216
5851.1855 3490.6628 8940.3721 327680
5843.0972 3454.4668 8847.666 393216
5956.5107 3490.1086 8938.9521 393216
5791.6479 3363.5105 8614.7061 327680
6007.5576 3458.3274 8857.5537 458752
6380.0024 3640.8259 9324.9736 458752
6578.5293 3721.7871 9532.334 393216
6716.7339 3767.5305 9649.4922 262144
7011.8633 3899.7756 9988.2021 262144
7370.7329 4064.9534 10411.259 1117702
7796.0088 4263.6982 10920.29 131072
7507.8315 4072.1904 10429.795 65536
7557.8926 4065.7742 10413.362 0
7812.8647 4168.7993 10677.232 0
7728.3408 4090.4751 10476.626 0
7780.2383 4085.0308 10462.682 0
8066.7417 4201.8765 10761.95 0
8328.7646 4304.2329 11024.107 0
8612.5811 4416.166 11310.794 0
8820.3096 4487.6523 11493.887 0
8994.2432 4540.978 11630.466 0
9194.3193 4606.5889 11798.51 0
9304.876 4626.6938 11850.003 0
9361.4873 4619.8755 11832.539 0
9411.1611 4609.7603 11806.632 0
9657.2754 4695.3027 12025.726 0
10271.388 4957.1919 12696.482 0
10536.026 5047.8281 12928.622 0
10774.293 5124.6079 13125.272 0
11022.258 5204.8638 13330.826 0
11211.246 5256.3237 13462.627 0
11470.805 5339.9058 13676.699 0
11646.7 5383.6392 13788.71 0
11921.848 5472.3193 14015.84 0
12172.457 5548.5835 14211.17 0
12263.087 5551.376 14218.321 0
12292.185 5526.4653 14154.52 0
12339.874 5510.1953 14112.849 0
12498.682 5543.4287 14197.967 0
12505.967 5509.4639 14110.975 0
12892.495 5641.9121 14450.205 65536
13719.286 5963.9971 15275.137 65536
14656.114 6329.3672 16210.933 65536
14999.603 6435.4004 16482.508 196608
13859.069 5907.4873 15130.402 196608
13556.371 5741.2085 14704.525 196608
13985.838 5885.1504 15073.192 262144
13882.576 5804.5181 14866.676 262144
14099.05 5857.7461 15003.005 262144
13985.514 5774.0586 14788.661 262144
14080.656 5777.0322 14796.278 262144
14374.675 5861.0576 15011.486 262144
14243.959 5771.936 14783.226 196608
14728.155 5931.5542 15192.043 196608
0 0 0 0
0 0 0 0
0 0 0 0
-7979.439 3480.95 8781.8164 0
-7955.7427 3493.4636 8813.3857 0
-7926.1382 3503.5312 8838.7852 0
-7980.4229 3551.0618 8958.6953 0
-8093.5957 3625.6099 9146.7676 0
-8107.4966 3656.396 9224.4355 0
-8527.2139 3871.8662 9768.0283 0
-8569.2617 3917.6304 9883.4834 0
-8592.2959 3955.2737 9978.4512 0
-8539.5625 3958.3206 9986.1367 0
-8481.9062 3959.1113 9988.1318 0
-8445.2773 3969.7974 10015.092 0
-8402.1514 3977.5598 10034.675 0
-8361.1387 3986.4407 10057.079 0
-8314.6875 3992.8379 10073.219 0
-8264.2041 3997.3774 10084.671 0
-8217.291 4003.7231 10100.68 0
-8164.8193 4007.4336 10110.041 0
-8114.3193 4012.1746 10122.001 0
-8065.8647 4018.0046 10136.71 0
-8009.0698 4019.7368 10141.079 0
-7951.2764 4020.99 10144.241 256
-7898.8779 4025.0115 10154.387 256
-7847.814 4029.7805 10166.418 256
-7793.0474 4032.7073 10173.802 256
-7747.02 4040.2375 10192.8 256
-7698.0825 4046.3569 10208.237 256
-7647.2832 4051.5872 10221.433 256
-7596.6675 4056.9993 10235.086 0
-7535.5127 4056.8247 10234.646 0
-7479.875 4059.6416 10241.752 0
-7434.8242 4068.2979 10263.591 0
-7387.3022 4075.7341 10282.351 0
-7334.353 4080.2747 10293.806 0
-7286.2363 4087.6035 10312.295 0
-7239.3828 4095.7708 10332.899 0
-7191.3989 4103.4326 10352.229 0
-7139.5278 4108.9897 10366.249 0
-7087.1533 4114.3521 10379.776 0
-7036.9038 4121.0518 10396.68 0
-6987.7866 4128.5396 10415.57 0
-6934.9175 4133.9253 10429.157 0
-6884.2954 4140.7593 10446.397 0
-6835.7856 4148.9995 10467.187 0
-6787.4297 4157.4858 10488.596 0
-6738.9473 4166.0503 10510.203 0
-6682.4927 4169.8018 10519.667 0
-6630.2642 4176.2852 10536.023 0
-6580.938 4184.7383 10557.35 0
-6521.7422 4187.0176 10563.1 0
-6472.7974 4195.9863 10585.726 0
-6422.0596 4203.958 10605.836 0
-6376.9092 4215.7803 10635.662 0
-6329.7886 4226.5249 10662.769 0
-6278.1343 4234.4282 10682.708 0
-6230.2075 4245.0332 10709.462 65536
-6190.5474 4261.5479 10751.125 0
-6144.7534 4274.1401 10782.894 0
-6093.6523 4283.2676 10805.921 0
-6046.1147 4295.1211 10835.824 0
-6008.2056 4314.1436 10883.814 0
-5944.4077 4314.7881 10885.441 0
-5893.0015 4324.5405 10910.045 0
-5825.8823 4322.8506 10905.782 0
-5769.1489 4328.9165 10921.085 0
-5738.4453 4354.874 10986.571 0
-5692.0776 4369.4048 11023.229 0
-5658.9468 4394.5532 11086.674 0
-5604.7705 4403.7583 11109.897 0
-5561.3115 4421.7036 11155.171 0
-5528.3979 4448.5684 11222.945 0
-5487.8057 4469.835 11276.597 0
-5441.5649 4486.9692 11319.824 0
-5406.5762 4513.9272 11387.834 0
-5378.1304 4547.1001 11471.523 0
-5364.9512 4594.1987 11590.345 0
-5330.4072 4623.9888 11665.5 0
-5354.0591 4705.7134 11871.677 0
-5248.5923 4674.6216 11793.237 0
-5195.0396 4689.5508 11830.901 0
-5158.5513 4720.5054 11908.994 0
-5134.1865 4763.5693 12017.637 0
-5104.7256 4803.0537 12117.248 0
-5064.9707 4833.8438 12194.926 256
-5024.3218 4864.6616 12272.674 256
-4955.4683 4868.6772 12282.806 0
-4954.6714 4940.6772 12464.448 2
-4815.2744 4874.5566 12297.638 2
-4941.585 5079.5225 12814.729 1
-4952.3604 5170.2856 13043.709 2
-4906.0688 5203.4102 13127.277 2
-4978.6816 5365.7544 13536.842 65537
-4934.0317 5404.9761 13635.791 131073
-4841.9463 5392.6768 13604.763 131073
-4827.7231 5468.1509 13795.17 196609
-4814.2114 5547.0522 13994.225 65536
-4611.7061 5407.1372 13641.243 0
-4555.9106 5437.3062 13717.354 0
-4489.584 5455.7783 13763.956 0
-4470.7109 5533.6714 13960.467 0
-4392.7031 5539.9321 13976.262 0
-4309.9736 5540.3643 13977.352 0
-4230.1377 5544.606 13988.053 0
-4143.1709 5539.4844 13975.132 0
-4111.478 5609.5664 14151.936 0
-4050.7925 5642.1934 14234.248 65536
-3944.0684 5610.7188 14154.843 0
-3872.6418 5629.1802 14201.418 0
-3800.4734 5647.3613 14247.286 0
-3713.3547 5643.6499 14237.923 0
-3671.1946 5709.687 14404.523 0
-3679.2244 5858.8018 14780.712 0
-3610.6887 5890.3052 14860.189 0
-3525.5361 5895.6001 14873.549 0
-3460.7473 5936.0972 14975.716 0
-3398.4478 5983.1152 15094.333 0
-3293.24 5955.0928 15023.638 0
-3201.2561 5950.0859 15011.007 0
-3159.5974 6041.0127 15240.398 0
-3121.4993 6144.3159 15501.014 0
-3038.1252 6162.0708 15545.807 0
-2946.4895 6163.6567 15549.808 0
-2857.3818 6170.8062 15567.844 0
-2763.7034 6168.231 15561.348 0
-2645.7339 6109.3877 15412.896 256
-2577.0303 6164.1646 15551.089 256
-2497.7063 6196.6689 15633.091 256
-2408.9128 6207.2832 15659.869 256
-2322.189 6224.2993 15702.797 0
-2236.4841 6245.585 15756.497 0
-2162.1936 6302 15898.822 0
-2055.521 6264.876 15805.166 0
-1967.0637 6282.3721 15849.305 65536
-1870.7744 6275.3574 15831.607 65536
-1883.6028 6653.0083 16784.355 65536
-1813.4792 6763.5234 17063.164 65539
-1700.3419 6717.2031 16946.307 0
-1607.7896 6751.4922 17032.811 0
-1509.8002 6766.0229 17069.469 0
-1422.0781 6831.9731 17235.85 65536
-1329.2788 6881.877 17361.75 65536
-1217.272 6832.3721 17236.857 65536
-1100.6194 6745.2959 17017.18 196608
-994.14581 6709.2944 16926.354 196608
-880.84131 6613.8945 16685.678 262144
-775.67609 6563.1572 16557.676 393216
-669.29877 6485.9292 16362.844 393216
-563.99988 6394.6704 16132.614 458752
-460.51907 6290.8633 15870.728 458752
-367.7829 6318.1621 15939.597 458752
-265.26089 6137.9644 15484.99 393216
-169.8925 6019.7695 15186.806 393216
-81.688881 6175.2539 15579.064 327680
10.693233 6056.5176 15279.515 196608
97.346352 5808.4019 14653.563 196608
177.49879 5589.8843 14102.281 131072
260.14886 5564.9702 14039.429 65536
344.05988 5572.5796 14058.626 65536
410.53961 5350.0557 13497.237 65536
478.15179 5212.624 13150.521 196608
552.20233 5174.1367 13053.425 196608
602.85529 4952.9028 12495.291 262144
631.54114 4619.5146 11654.212 262144
680.57147 4486.1333 11317.715 262144
727.74524 4365.6099 11013.655 196608
768.43939 4229.3149 10669.809 131072
864.01123 4392.8105 11082.278 65536
955.83038 4515.416 11391.59 131584
1020.2787 4501.0527 11355.354 197377
0 0 0 0
1550.3239 6040.2954 15238.589 0
1618.1869 5956.7153 15027.731 0
1693.351 5907.3491 14903.188 0
1718.6157 5697.4673 14373.694 65536
1796.0142 5672.1089 14309.72 196608
1884.2603 5681.7539 14334.052 196608
1983.5011 5722.2832 14436.301 393216
2054.3401 5680.9111 14331.926 524288
2099.9211 5575.7686 14066.67 655360
2164.9028 5528.2173 13946.707 655360
2232.2222 5489.9224 13850.096 589824
2298.6169 5452.1592 13754.825 393216
2334.3162 5346.6812 13488.725 262144
2419.0891 5356.8784 13514.449 196608
2487.8389 5332.0786 13451.884 196608
2557.0078 5309.6929 13395.409 196608
2615.2139 5266.582 13286.647 262144
2698.7727 5275.5581 13309.293 262144
2759.9167 5241.4536 13223.254 196608
2815.5757 5199.1099 13116.428 196608
2878.634 5172.3428 13048.898 196608
2886.4199 5050.2715 12740.935 65536
2982.4224 5084.8452 12828.158 131072
3016.3513 5014.5024 12650.695 65538
3155.3735 5118.0425 12911.909 65539
3215.9666 5092.4746 12847.405 987411
3337.259 5161.98 13022.756 5067354
3424.616 5177.0337 13060.733 5660266
3480.5261 5144.9351 12979.755 5594985
3618.2375 5232.5264 13200.731 5331553
4173.8135 5907.8706 14904.505 131589
3833.4014 5313.2646 13404.42 196610
3978.0464 5401.4937 13627.006 196608
4088.271 5440.397 13725.151 65536
4174.8901 5446.98 13741.76 3556165
0 0 0 0
4404.0474 5529.6138 13950.23 1186845
4195.666 5170.6323 13044.584 258
4499.6602 5444.6597 13735.906 329994
4663.2983 5542.1133 13981.765 1647658
5263.0449 6145.376 15503.688 4478815
5897.3013 6767.4805 17073.146 3623505
6322.5205 7132.7139 17994.566 3951183
6142.4087 6814.2568 17191.154 2567473
5169.3423 5640.9263 14231.052 394758
4958.5713 5323.8193 13431.048 65536
4988.5273 5271.125 13298.109 196608
5083.2515 5287.4438 13339.279 196608
5105.7979 5229.3384 13192.688 65536
5103.5244 5147.9536 12987.37 0
5101.2227 5068.9658 12788.098 0
5128.0078 5020.7764 12666.523 256
5189.4326 5007.4058 12632.792 263172
5254.8433 4998.2075 12609.587 0
5331.5112 4999.8252 12613.668 0
5307.2588 4908.0679 12382.181 0
5255.6558 4793.8735 12094.089 0
5190.8018 4670.8364 11783.688 65536
5073.978 4504.9346 11365.147 65536
5039.6689 4415.6899 11139.998 65536
5010.314 4333.0439 10931.497 65536
4926.2939 4205.8433 10610.593 65536
4962.0776 4182.8481 10552.58 65536
5267.1323 4384.5796 11061.513 65536
5200.1938 4275.4922 10786.305 65536
5435.6567 4414.6621 11137.405 65536
5421.6729 4350.3281 10975.103 196608
0 0 0 0
0 0 0 0
0 0 0 0
3881.7405 2971.6819 7497.0239 262144
3807.9021 2882.0723 7270.9546 262144
3699.7122 2768.7656 6985.1025 327680
4085.355 3023.4441 7627.6104 262144
4059.9404 2971.6604 7496.9697 262144
4096.6367 2965.969 7482.6108 262144
4191.5327 3002.0842 7573.7231 196608
4337.5093 3073.6284 7754.2163 196608
4395.1074 3081.7004 7774.5811 196608
4484.6128 3111.7439 7850.3755 65536
4582.668 3147.04 7939.4214 65536
4694.625 3191.0662 8050.4917 65536
