# .PCD v0.7 - Point Cloud Data file format
VERSION 0.7
FIELDS x y z rgb
SIZE 4 4 4 4
TYPE F F F U
COUNT 1 1 1 1
WIDTH 1555
HEIGHT 1
VIEWPOINT 0 0 0 1 0 0 0
POINTS 1555
DATA ascii
-6528.6743 3388.8411 11955.355 0
-6469.1719 3394.9033 11976.742 0
-6408.2417 3400.3428 11995.933 0
-6349.9004 3407.2944 12020.456 0
-6300.6211 3419.3218 12062.887 0
-6249.1606 3430.429 12102.071 0
-6204.2158 3445.4128 12154.933 0
-6157.2896 3459.6367 12205.112 0
-6116.9458 3477.9421 12269.691 0
-6073.6987 3495.0188 12329.936 0
-6027.6997 3510.9094 12385.996 0
-5987.002 3530.3193 12454.471 0
-5939.8271 3546.3479 12511.017 0
-5901.2427 3567.9763 12587.319 0
-5853.8193 3584.7478 12646.487 0
-5806.4219 3601.9717 12707.25 0
-5769.542 3626.2603 12792.937 0
-5725.1333 3646.4019 12863.993 0
-5684.1016 3669.2688 12944.665 0
-5640.9639 3691.3848 13022.688 0
-5592.1157 3710.3276 13089.516 0
-5556.4194 3738.6545 13189.447 0
-5515.3403 3764.1179 13279.279 0
-5469.4941 3787.0203 13360.076 0
-5419.6592 3807.7949 13433.365 0
-5360.4048 3822.4734 13485.149 0
-5302.6782 3838.7039 13542.409 0
-5267.5928 3872.0776 13660.146 0
-5219.9336 3897.1091 13748.454 0
-5182.3184 3930.5547 13866.444 0
-5134.314 3957.0735 13960 65536
-5080.5312 3979.9375 14040.66 65536
-5017.373 3996.0972 14097.67 65536
-4954.3706 4012.9326 14157.063 65536
-4895.9668 4034.1387 14231.875 65536
-4838.9541 4057.2571 14313.434 65536
-4814.3765 4108.8848 14495.568 65536
-4778.4487 4152.5303 14649.544 0
-4748.3267 4202.9346 14827.363 0
-4655.3735 4198.5796 14811.999 0
-4559.937 4191.7739 14787.989 0
-4483.3613 4202.3789 14825.403 256
-4436.896 4242.1987 14965.882 256
-4390.0742 4283.2998 15110.88 256
-4331.6924 4314.603 15221.312 256
-4274.8027 4348.7598 15341.814 256
-4221.48 4388.1133 15480.647 256
-4134.2637 4393.2041 15498.607 0
-4045.866 4397.2422 15512.854 0
-3972.8958 4418.6279 15588.298 0
-3910.3704 4452.9277 15709.305 0
-3841.3257 4481.3013 15809.402 0
-3796.8899 4540.5259 16018.337 0
-3730.2014 4575.5015 16141.727 0
-3645.8679 4590.1089 16193.259 0
-3578.9055 4627.9707 16326.831 0
-3530.6853 4692.855 16555.734 0
-3467.6094 4741.1479 16726.104 0
-3395.6335 4779.7637 16862.334 0
-3327.0027 4825.5791 17023.965 0
-3250.26 4862.1348 17152.928 0
-3183.3049 4916.1724 17343.566 0
-3103.0759 4952.6416 17472.225 0
-3020.167 4987.2109 17594.18 256
-2943.0146 5034.1069 17759.621 256
-2866.114 5084.938 17938.947 256
-2756.26 5078.9736 17917.906 256
-2642.7527 5065.5278 17870.471 256
-2547.1287 5086.6685 17945.053 256
-2500.6787 5212.1509 18387.736 0
-2434.1655 5305.3735 18716.613 0
-2334.8706 5332.6533 18812.852 0
-2239.1917 5371.3516 18949.373 65536
-2176.6631 5497.8804 19395.75 65536
0 0 0 0
0 0 0 0
-1870.7175 5617.6416 19818.25 131072
-1759.0631 5637.2935 19887.58 131072
0 0 0 0
0 0 0 0
0 0 0 0
0 0 0 0
0 0 0 0
0 0 0 0
0 0 0 0
0 0 0 0
0 0 0 0
0 0 0 0
0 0 0 0
0 0 0 0
0 0 0 0
0 0 0 0
0 0 0 0
0 0 0 0
0 0 0 0
0 0 0 0
0 0 0 0
608.01111 5666.1758 19989.473 393216
722.03113 5628.8779 19857.891 262144
839.13977 5622.7559 19836.293 196608
955.16742 5611.7915 19797.611 262144
1067.7546 5585.2354 19703.926 262144
1182.6161 5574.6489 19666.578 262144
1299.9448 5576.5518 19673.291 262144
1413.8582 5564.6973 19631.471 262144
1528.7048 5558.0439 19608 327680
1634.8934 5523.0845 19484.666 393216
1738.9382 5485.9863 19353.789 393216
1839.8812 5444.3135 19206.773 393216
1939.4781 5403.7588 19063.701 393216
2035.7693 5358.979 18905.725 458752
2145.4932 5352.394 18882.494 458752
2238.1267 5305.9478 18718.639 458752
2327.4399 5256.4019 18543.848 393216
2418.9109 5215.9893 18401.277 393216
2522.7092 5204.5044 18360.76 393216
2611.0942 5163.4917 18216.074 393216
2683.9944 5096.3428 17979.182 393216
2769.5669 5057.4766 17842.066 393216
2852.0808 5016.0967 17696.086 327680
2928.0876 4966.6235 17521.551 196608
3022.4109 4950.5498 17464.844 196608
3117.6626 4937.0142 17417.092 196608
3215.1738 4927.8105 17384.625 196608
3289.2793 4884.4238 17231.562 196608
3359.3557 4837.8555 17067.275 196608
3414.9338 4773.75 16841.119 196608
3491.116 4741.2773 16726.561 196608
3559.0132 4699.6621 16579.748 196608
3621.0273 4652.731 16414.182 196608
3684.439 4610.0103 16263.468 196608
3744.8601 4565.8271 16107.598 196608
3799.5088 4516.9849 15935.288 196608
3846.2727 4461.3726 15739.097 262144
3896.4895 4412.311 15566.014 196608
3950.7036 4369.9463 15416.558 196608
4011.8071 4336.9507 15300.152 262144
4057.426 4289.0483 15131.16 262144
4129.6274 4270.7144 15066.48 262144
4182.7139 4233.8101 14936.288 393216
4231.9912 4194.6641 14798.187 262144
4252.7236 4129.395 14567.927 327680
4106.2554 3907.6182 13785.528 327680
4418.5918 4122.5874 14543.91 327680
4251.5518 3890.627 13725.585 327680
4625.5713 4153.2061 14651.928 393216
4479.394 3947.6377 13926.712 458752
4084.6716 3534.4629 12469.089 458752
4896.2612 4161.2339 14680.248 393216
5067.0864 4231.019 14926.44 393216
5065.5796 4156.9819 14665.248 393216
5085.1558 4102.458 14472.896 393216
5139.605 4077.4141 14384.544 262144
5191.8369 4051.459 14292.979 196608
5275.9004 4050.7795 14290.582 65536
5240.417 3959.7896 13969.581 65536
5382.4204 4003.6589 14124.347 0
5439.9434 3984.3069 14056.075 0
5527.4092 3987.1382 14066.064 0
5612.6699 3988.3188 14070.229 0
5739.855 4018.8188 14177.828 0
5856.9004 4041.439 14257.629 0
5905.7021 4016.9958 14171.396 0
6079.3433 4076.9597 14382.941 0
6325.728 4183.3682 14758.335 0
7014.8965 4575.686 16142.378 0
7128.7734 4587.228 16183.097 0
7008.5015 4449.7988 15698.266 0
6564.7485 4113.2949 14511.128 0
6677.1021 4129.4429 14568.094 0
6519.356 3980.2717 14041.84 0
6616.085 3988.2734 14070.068 0
6701.0068 3989.0461 14072.795 0
6776.043 3983.9883 14054.951 0
6895.4541 4004.8257 14128.462 0
6972.8335 4001.0435 14115.12 0
7050.6206 3997.5825 14102.91 0
7171.7881 4018.5103 14176.74 0
7167.5449 3969.4968 14003.828 0
7305.3145 3999.3555 14109.165 0
6364.0771 3444.5288 12151.813 0
6384.0786 3416.5815 12053.221 0
6435.6724 3405.9741 12015.799 0
7507.8911 3929.821 13863.856 0
7656.4673 3964.084 13984.732 1
8440.9512 4323.313 15252.041 0
7709.1357 3906.5369 13781.713 0
6714.1055 3366.5447 11876.696 0
6817.5454 3382.8457 11934.205 0
6892.7549 3384.9482 11941.621 0
6923.3418 3365.3169 11872.365 0
7916.9365 3809.4604 13439.242 0
8326.6133 3966.5698 13993.501 0
8216.8623 3875.5771 13672.492 131585
8540.5156 3988.7854 14071.874 723721
9168.4248 4240.5195 14959.957 0
9006.1016 4125.436 14553.958 65536
8770.1309 3979.127 14037.801 65536
8359.5361 3757.0925 13254.495 65536
9633.7725 4289.3623 15132.268 65536
8930.0742 3939.271 13897.194 65536
9030.3574 3947.0017 13924.468 0
9114.6279 3947.6565 13926.778 0
9214.0898 3954.8206 13952.052 0
9288.792 3951.324 13939.716 0
9378.1826 3954.0825 13949.447 0
9453.8184 3951.0435 13938.727 0
9598.0605 3976.4814 14028.469 0
9707.2383 3987.0791 14065.855 0
8138.9985 3314.4084 11692.768 0
9824.5635 3966.9424 13994.815 0
9685.2715 3877.8684 13680.575 0
9601.8779 3812.4729 13449.869 0
9687.0762 3814.5447 13457.178 0
9235.3672 3606.8918 12724.608 460551
9232.457 3576.4683 12617.278 460551
9438.0693 3626.6614 12794.353 0
9669.5908 3685.9285 13003.438 0
10316.905 3901.4946 13763.925 328452
10896.467 4088.2488 14422.767 0
11036.204 4108.3574 14493.708 0
11305.548 4176.0283 14732.441 65536
11459.972 4200.5366 14818.903 65793
12145.073 4417.7021 15585.032 0
11572.323 4177.5068 14737.657 0
11831.143 4238.8545 14954.083 0
12549.283 4462.6255 15743.517 0
12910.424 4557.0718 16076.709 0
13429.912 4705.6123 16600.74 0
15102.528 5253.0767 18532.117 0
15884.99 5485.2349 19351.139 0
0 0 0 0
0 0 0 0
0 0 0 0
0 0 0 0
0 0 0 0
0 0 0 0
0 0 0 0
0 0 0 0
0 0 0 0
0 0 0 0
0 0 0 0
0 0 0 0
0 0 0 0
0 0 0 0
0 0 0 0
0 0 0 0
0 0 0 0
0 0 0 0
0 0 0 0
0 0 0 0
0 0 0 0
17385.545 5178.5312 18269.131 328964
14807.345 4383.2026 15463.323 0
15806.771 4650.1865 16405.205 328706
15765.556 4609.6279 16262.119 1184014
0 0 0 0
0 0 0 0
-8850.1943 2800.4893 9676.8359 0
-8798.0889 2802.2114 9682.7861 0
-8748.0195 2804.6089 9691.0713 0
-8703.3555 2808.783 9705.4941 0
-8655.0098 2811.8167 9715.9766 0
-8608.0674 2815.3496 9728.1846 0
-8564.1807 2819.9368 9744.0352 0
-8519.0596 2824.1772 9758.6875 0
-8472.4854 2827.9907 9771.8652 0
-9549.9883 3209.647 11090.643 0
-9450.1338 3198.1611 11050.955 0
-9438.0947 3216.4417 11114.121 0
-9372.8545 3216.7214 11115.088 0
-9303.7998 3215.6865 11111.512 0
-9237.0088 3215.4246 11110.607 0
-9173.0527 3216.1533 11113.126 0
-9107.1689 3216.2117 11113.327 0
-9044.1836 3217.3022 11117.096 0
-8982.1602 3218.7529 11122.108 0
-8916.4551 3218.8967 11122.604 0
-8855.4297 3220.7439 11128.988 0
-8792.3857 3221.8799 11132.913 0
-8732.7939 3224.3076 11141.302 0
-8669.3184 3225.3276 11144.826 0
-8608.0879 3227.2046 11151.312 0
-8549.1074 3229.9614 11160.837 0
-8498.5303 3235.96 11181.565 0
-8443.3516 3240.2878 11196.52 0
-8382.8643 3242.6311 11204.617 0
-8320.4463 3244.259 11210.242 0
-8255.1758 3244.7922 11212.084 0
-8195.5703 3247.5786 11221.712 0
-8137.1055 3250.8662 11233.072 0
-8072.2969 3251.6533 11235.792 0
-8010.2808 3253.5872 11242.475 0
-7954.9404 3258.2883 11258.72 0
-7898.7114 3262.7021 11273.971 0
-7842.416 3267.1641 11289.388 0
-7787.6987 3272.366 11307.362 0
-7734.7656 3278.4143 11328.263 0
-7686.3599 3286.5049 11356.219 0
-7639.4961 3295.4038 11386.969 0
-7592.0776 3304.2207 11417.435 0
-7544.5503 3313.1489 11448.284 0
-7496.0015 3321.7864 11478.131 0
-7444.2861 3329.167 11503.634 0
-7395.6196 3338.0603 11534.364 0
-7341.9863 3344.8574 11557.85 0
-7287.6367 3351.4534 11580.642 65536
-7235.373 3359.1436 11607.215 0
-7178.731 3364.9292 11627.207 0
-7122.4727 3371.009 11648.216 0
-7061.0728 3374.7512 11661.146 0
-7004.749 3381.0178 11682.799 0
-6946.751 3386.593 11702.064 0
-6892.5127 3394.1328 11728.117 0
-6836.9312 3401.1587 11752.395 0
-6789.6177 3412.4849 11791.531 0
-6737.0015 3421.354 11822.178 0
-6684.4233 3430.4304 11853.54 0
-6628.7056 3438.0708 11879.941 0
-6576.9932 3447.9763 11914.168 0
-6521.561 3456.1257 11942.328 0
-6461.6025 3462.0295 11962.729 0
-6397.9951 3466.0881 11976.752 0
-6339.5186 3473.0486 12000.804 0
-6286.8574 3483.3896 12036.536 0
-6241.5024 3498.0635 12087.24 0
-6202.2368 3516.532 12151.056 0
-6159.605 3533.5044 12209.702 0
-6111.7837 3547.8687 12259.337 0
-6063.6641 3562.4045 12309.564 0
-6019.2939 3579.5251 12368.724 0
-5980.7124 3600.5542 12441.387 0
-5938.1821 3619.7021 12507.552 0
-5892.0874 3637.1357 12567.792 0
-5846.4512 3655.304 12630.569 0
-5799.7598 3673.2759 12692.67 0
-5757.252 3694.4062 12765.685 0
-5714.7627 3716.1133 12840.691 0
-5676.6411 3741.2861 12927.674 0
-5633.563 3763.8386 13005.602 0
-5584.1431 3782.7229 13070.854 0
-5544.1235 3808.5972 13160.261 0
-5504.9985 3835.8352 13254.38 0
-5464.9595 3863.218 13348.999 0
-5415.4307 3884.6006 13422.885 0
-5355.9819 3899.4004 13474.023 0
-5299.1816 3916.6067 13533.479 0
-5258.833 3946.6909 13637.431 0
-5213.5547 3973.959 13731.653 0
-5170.833 4004.0735 13835.712 0
-5126.3301 4033.7605 13938.292 65536
-5068.9888 4054.1538 14008.76 65536
-5014.2119 4077.3145 14088.789 65536
-4959.2915 4101.1426 14171.125 65536
-4896.1455 4118.8745 14232.396 65536
-4851.3984 4152.9795 14350.243 0
-4822.231 4201.8809 14519.217 65536
-4775.6426 4237.1079 14640.941 65536
-4748.2295 4290.9712 14827.061 65536
-4652.0464 4283.5488 14801.413 0
-4557.9004 4277.7524 14781.384 0
-4479.4741 4286.7715 14812.549 0
-4410.1514 4305.0391 14875.67 256
-4386.7612 4369.8091 15099.478 256
-4323.0938 4396.3247 15191.1 256
-4282.1548 4447.5771 15368.199 256
-4216.4761 4474.8096 15462.297 256
-4128.5981 4479.1709 15477.366 0
-4039.1528 4481.9912 15487.113 0
-3965.3987 4502.7607 15558.881 0
-3908.7759 4544.4404 15702.9 0
-3840.7944 4574.6294 15807.216 0
-3797.5728 4636.562 16021.219 0
-3726.9167 4667.3237 16127.513 0
-3642.2007 4681.6367 16176.97 0
-3572.7571 4716.8896 16298.783 0
-3519.5188 4776.0981 16503.373 0
-3490.2397 4872.1475 16835.262 0
-3424.7117 4921.771 17006.732 0
-3346.2959 4955.3286 17122.688 0
-3263.9138 4984.9331 17224.982 0
-3159.1765 4981.207 17212.107 0
-3084.0867 5025.542 17365.303 0
-3007.5386 5070.4888 17520.613 256
-2930.1367 5117.1685 17681.91 256
-2846.5981 5156.2051 17816.797 256
-2747.7405 5169.438 17862.523 256
-2644.7668 5175.6797 17884.09 256
-2561.2261 5222.0659 18044.373 256
-2497.5273 5314.7295 18364.564 0
-2419.2188 5383.3525 18601.686 0
-2415.0518 5631.4312 19458.898 0
-2310.6909 5659.082 19554.443 0
-2224.1982 5735.7393 19819.324 0
0 0 0 0
-1971.6016 5686.6758 19649.791 65536
-1859.2494 5700.2681 19696.758 65536
-1736.6738 5682.2363 19634.451 65536
-1641.9989 5759.4722 19901.332 65536
-1525.5908 5766.5493 19925.787 65536
0 0 0 0
0 0 0 0
0 0 0 0
0 0 0 0
0 0 0 0
0 0 0 0
0 0 0 0
0 0 0 0
0 0 0 0
0 0 0 0
0 0 0 0
0 0 0 0
0 0 0 0
0 0 0 0
0 0 0 0
0 0 0 0
0 0 0 0
599.53058 5704.2915 19710.66 393216
719.08337 5723.438 19776.82 262144
823.37 5632.7671 19463.514 262144
947.18835 5681.5938 19632.23 262144
1059.6592 5659.1084 19554.535 262144
1175.42 5656.9019 19546.91 262144
1287.0073 5636.8135 19477.496 262144
1401.5366 5631.8618 19460.387 262144
1514.1108 5620.4082 19420.809 262144
1619.9252 5587.2612 19306.273 262144
1726.9663 5562.4517 19220.545 262144
1820.5292 5500.001 19004.754 262144
1923.16 5470.6416 18903.305 327680
2022.9048 5436.7671 18786.254 393216
2126.6873 5416.7202 18716.984 393216
2220.4824 5374.4932 18571.072 458752
2303.0479 5310.3711 18349.504 458752
2394.792 5272.2549 18217.797 458752
2493.1138 5251.2915 18145.359 458752
2577.364 5203.6553 17980.758 458752
2659.9883 5156.6611 17818.373 458752
2736.3059 5101.5068 17627.793 393216
2823.6331 5070.1895 17519.578 393216
2905.105 5030.96 17384.023 393216
2991.9592 5003.4253 17288.881 327680
3084.97 4987.6733 17234.451 262144
3172.4595 4964.2939 17153.666 262144
3244.9255 4919.5933 16999.207 262144
3321.6982 4883.9248 16875.957 327680
3390.731 4839.2993 16721.76 327680
3461.7964 4800.0347 16586.084 262144
3527.7854 4756.1011 16434.273 262144
3587.7122 4706.5811 16263.162 262144
3653.7854 4667.5107 16128.159 196608
3719.4775 4629.9644 15998.421 196608
3772.7239 4579.1836 15822.952 196608
3827.7092 4532.9316 15663.133 131072
3885.1262 4491.688 15520.619 196608
3947.9297 4458.4399 15405.733 196608
3998.2668 4412.9395 15248.512 196608
4033.6467 4353.3145 15042.481 196608
4108.5327 4337.9863 14989.518 262144
4170.312 4309.7651 14892.001 262144
4228.7139 4279.2988 14786.728 262144
4278.0679 4241.103 14654.745 262144
4344.0835 4220.6196 14583.967 262144
4424.583 4214.7344 14563.631 262144
4511.5747 4215.1411 14565.036 262144
4587.3936 4205.29 14530.996 262144
4055.9773 3649.4329 12610.283 131072
4753.0005 4199.0005 14509.265 131072
4836.7563 4196.8506 14501.836 196608
4910.8457 4186.5356 14466.193 196608
4976.6646 4169.6455 14407.832 196608
5026.769 4140.3838 14306.72 196608
5073.1279 4109.062 14198.489 196608
5114.2471 4074.5901 14079.376 196608
4615.873 3618.3262 12502.797 65536
5250.0977 4050.2837 13995.387 65536
5343.8804 4058.3367 14023.213 0
5392.5181 4032.3831 13933.533 0
5455.0063 4017.4155 13881.814 0
5551.3696 4027.4705 13916.558 0
5673.2534 4055.4727 14013.316 0
5909.6597 4163.3457 14386.062 0
5944.5615 4128.2065 14264.643 0
6931.668 4746.0176 16399.432 0
6977.1846 4710.9409 16278.227 0
6986.0752 4652.4316 16076.055 0
6357.1909 4176.5015 14431.521 0
6350.1206 4116.3188 14223.565 0
6442.1611 4121.1196 14240.153 0
6391.5093 4035.6982 13944.988 0
6420.5693 4002.1504 13829.066 0
6537.603 4023.5947 13903.165 0
6609.2905 4016.9431 13880.182 0
6684.1812 4012.3784 13864.409 0
6842.3843 4057.3269 14019.725 0
6897.1938 4040.6221 13962.002 0
6930.8423 4012.0649 13863.325 0
7067.6504 4043.1936 13970.888 0
7047.8999 3985.0767 13770.069 0
6240.021 3487.7791 12051.704 0
6257.6274 3457.9275 11948.554 0
6321.1909 3453.8567 11934.487 0
6370.2969 3442.064 11893.739 0
6452.8232 3448.3899 11915.598 0
6500.2461 3436.0229 11872.865 0
8386.1855 4385.3228 15153.084 0
7596.2173 3930.0261 13579.848 0
6607.5952 3382.6064 11688.289 0
6759.7852 3424.5137 11833.096 0
6705.3857 3361.9771 11617.006 65536
6703.9341 3326.9919 11496.118 65536
6822.4312 3351.6394 11581.285 0
8070.1724 3925.0151 13562.532 131072
8292.1074 3993.072 13797.696 196608
8315.2949 3965.0256 13700.785 196608
8908.6934 4206.7837 14536.157 196608
8596.5889 4020.4158 13892.181 196608
8633.1914 3999.1245 13818.61 196608
8689.1621 3987.1216 13777.136 131072
8787.8613 3994.7661 13803.551 65536
8858.7334 3989.7371 13786.173 65536
8984.5957 4009.3384 13853.904 0
9071.9756 4011.5681 13861.608 0
9183.9521 4024.5356 13906.417 0
9255.4395 4019.6873 13889.664 0
9403.2188 4047.7659 13986.687 0
9555.915 4077.4504 14089.259 0
9592.1064 4057.3389 14019.766 0
9461.1475 3967.4802 13709.268 0
9617.4824 3998.6025 13816.808 0
9990.1943 4118.3984 14230.752 263172
9088.5293 3715.2388 12837.669 394758
9237.7383 3744.7954 12939.8 0
9083.4082 3651.8308 12618.568 197121
9039.2754 3604.3289 12454.431 2829612
8909.0117 3523.5339 12175.251 2894636
9053.1855 3551.7068 12272.6 1973791
9359.8135 3642.6538 12586.858 65536
10466.147 4040.9199 13963.031 65536
11050.019 4232.7866 14626.01 131072
10848.13 4123.0171 14246.711 65536
11433.549 4311.8608 14899.242 65536
11020.657 4124.2075 14250.825 65536
11221.483 4167.3345 14399.846 0
11747.356 4329.6079 14960.566 0
12274.695 4489.9795 15514.715 0
12719.727 4618.0767 15957.344 0
13458.427 4850.1084 16759.109 0
14197.468 5078.854 17549.518 0
14689.377 5216.501 18025.145 0
15379.307 5421.9668 18735.113 0
15903.419 5566.4404 19234.328 0
0 0 0 0
0 0 0 0
0 0 0 0
0 0 0 0
0 0 0 0
0 0 0 0
0 0 0 0
0 0 0 0
0 0 0 0
0 0 0 0
0 0 0 0
0 0 0 0
0 0 0 0
0 0 0 0
0 0 0 0
0 0 0 0
0 0 0 0
0 0 0 0
0 0 0 0
0 0 0 0
16061.685 4884.5122 16877.988 329220
13950.349 4216.1035 14568.362 65536
13927.948 4183.3687 14455.25 394755
14256.575 4255.8232 14705.609 1841943
0 0 0 0
0 0 0 0
-8840.751 2854.9521 9666.5098 0
-8786.1816 2855.8889 9669.6816 0
-8734.0195 2857.626 9675.5625 0
-8686.3564 2860.8674 9686.5381 0
-8648.4199 2867.377 9708.5781 0
-8594.7363 2868.718 9713.1191 0
-8545.4775 2871.5642 9722.7559 0
-8506.9453 2878.0779 9744.8105 0
-8468.46 2884.697 9767.2217 0
-9203.3135 3156.656 10688.041 0
-8361.8662 2887.9802 9778.3389 0
-9421.1865 3276.6157 11094.21 0
-9360.2529 3278.3684 11100.144 0
-9298.6621 3279.9136 11105.376 0
-9228.1748 3278.3208 11099.982 0
-9164.7383 3279.2275 11103.053 0
-9099.7695 3279.5952 11104.298 0
-9036.918 3280.7371 11108.164 0
-8972.582 3281.353 11110.249 0
-8910.7344 3282.8945 11115.469 0
-8849.5732 3284.7144 11121.63 0
-8790.623 3287.3877 11130.682 0
-8731.5205 3290.0444 11139.677 0
-8665.5234 3290.124 11139.946 0
-8604.0361 3291.9307 11146.063 0
-8545.5303 3294.9146 11156.167 0
-8491.5557 3299.7058 11172.39 0
-8441.0234 3305.9209 11193.434 0
-8375.9688 3306.502 11195.4 0
-8314.5674 3308.5457 11202.32 0
-8250.0469 3309.3718 11205.117 0
-8188.4917 3311.4104 11212.02 0
-8123.7158 3312.1692 11214.589 0
-8063.9399 3314.9956 11224.159 0
-8001.4648 3316.751 11230.102 0
-7943.5049 3320.4229 11242.534 0
-7886.8848 3324.7219 11257.091 0
-7827.4336 3327.8909 11267.82 0
-7773.9346 3333.6667 11287.377 0
-7723.5601 3340.895 11311.851 0
-7676.4697 3349.6833 11341.606 0
-7629.9087 3358.8601 11372.679 0
-7583.5596 3368.2949 11404.624 0
-7533.4238 3376.2034 11431.4 0
-7485.2402 3385.1384 11461.653 0
-7436.2329 3393.8616 11491.189 0
-7386.3179 3402.3284 11519.856 0
-7334.4492 3410.0454 11545.985 0
-7280.8442 3417.093 11569.848 65536
-7227.8428 3424.5613 11595.134 0
-7174.9507 3432.2253 11621.084 0
-7117.6934 3437.9304 11640.4 0
-7059.0029 3443.0476 11657.728 0
-6998.7061 3447.4758 11672.721 0
-6942.2661 3453.9109 11694.509 0
-6887.8633 3461.5007 11720.207 0
-6831.2856 3468.1409 11742.689 0
-6780.9058 3478.0972 11776.4 0
-6729.5869 3487.7747 11809.167 0
-6709.6597 3514.0969 11898.291 0
-6624.5762 3506.4917 11872.541 0
-6571.4785 3515.8359 11904.179 0
-6511.9961 3521.9299 11924.812 0
-6451.2188 3527.4502 11943.504 0
-6388.3223 3531.9221 11958.645 0
-6329.043 3538.5168 11980.973 0
-6273.4634 3547.3533 12010.893 0
-6227.9238 3562.136 12060.944 0
-6193.3994 3583.636 12133.741 0
-6152.8906 3602.1399 12196.393 0
-6104.939 3616.675 12245.607 0
-6060.8306 3633.8655 12303.812 0
-6016.5151 3651.3501 12363.013 0
-5973.8423 3670.2761 12427.095 0
-5930.6616 3689.3606 12491.712 0
-5881.2783 3705.021 12544.736 0
-5838.2441 3725.1345 12612.838 0
-5795.9897 3746.2761 12684.42 0
-5750.9028 3766.1189 12751.606 0
-5710.1572 3789.3735 12830.343 0
-5670.4312 3813.9431 12913.532 0
-5625.0151 3835.3074 12985.869 0
-5580.2075 3857.6863 13061.642 0
-5530.3789 3877.177 13127.635 0
-5497.6797 3909.4062 13236.759 0
-5451.6797 3932.9758 13316.562 0
-5405.7061 3957.2588 13398.781 0
-5352.978 3977.2493 13466.467 0
-5288.0068 3988.6123 13504.94 0
-5243.3066 4015.8508 13597.167 0
-5206.6528 4050.2019 13713.475 0
-5175.2246 4089.7749 13847.464 0
-5124.4116 4115.0601 13933.075 65536
-5066.52 4135.3979 14001.938 65536
-5006.4575 4154.6138 14067.001 65536
-4952.8569 4179.936 14152.737 65536
-4899.3413 4206.2061 14241.686 65536
-4862.1743 4247.6821 14382.118 65536
-4822.8354 4288.7109 14521.037 0
-4778.4966 4326.7085 14649.69 0
-4742.562 4373.8667 14809.362 0
-4646.1841 4366.0103 14782.762 0
-4558.834 4366.498 14784.413 0
-4478.52 4373.876 14809.396 256
-4413.2451 4396.5327 14886.106 256
-4381.0332 4453.7271 15079.76 256
-4326.1621 4489.7944 15201.88 256
-4300.3623 4558.2153 15433.545 256
-4242.2495 4594.6211 15556.811 256
-4131.5703 4574.4482 15488.508 0
-4039.592 4574.5337 15488.797 0
-3968.761 4599.1299 15572.075 0
-3909.5583 4638.6958 15706.042 0
-3838.4431 4665.7188 15797.538 0
-3816.1138 4754.8838 16099.438 0
-3742.6531 4783.2871 16195.609 0
-3641.5149 4776.8828 16173.925 0
-3585.0063 4830.2627 16354.663 0
-3539.5483 4901.9224 16597.293 0
-3483.9524 4963.248 16804.934 0
-3405.0396 4993.9961 16909.043 0
-3315.4072 5010.4141 16964.633 0
-3235.8608 5043.5825 17076.938 0
-3146.0688 5062.4126 17140.693 0
-3091.7603 5141.5107 17408.51 0
-3030.291 5213.7661 17653.158 256
-2960.793 5276.8955 17866.904 256
-2850.0288 5268.438 17838.27 256
-2767.4841 5313.5083 17990.871 256
-2697.0024 5386.2925 18237.311 256
-2559.3389 5325.3828 18031.076 0
-2494.5339 5417.376 18342.555 0
-2376.1045 5395.999 18270.174 0
-2280.9373 5427.9312 18378.293 0
-2292.2673 5729.2529 19398.531 0
-2184.6077 5749.3394 19466.541 0
0 0 0 0
0 0 0 0
-1876.7153 5871.9814 19881.791 65536
-1744.9938 5826.7124 19728.516 65536
-1647.901 5898.8794 19972.865 0
0 0 0 0
0 0 0 0
0 0 0 0
0 0 0 0
0 0 0 0
0 0 0 0
0 0 0 0
0 0 0 0
0 0 0 0
0 0 0 0
0 0 0 0
-223.68315 5905.4727 19995.189 196608
-104.62808 5893.2632 19953.85 131072
13.958249 5890.6143 19944.881 196608
132.50787 5891.0732 19946.434 327680
250.30388 5873.4146 19886.645 393216
367.72168 5861.0562 19844.799 393216
487.30627 5880.8491 19911.816 393216
603.8064 5862.9565 19851.234 262144
713.58734 5796.335 19625.662 196608
825.68738 5764.624 19518.293 196608
938.17249 5743.0835 19445.359 196608
1048.1024 5712.3418 19341.271 196608
1152.1321 5658.6973 19159.639 65536
1261.8065 5639.9336 19096.107 0
1375.5751 5641.0562 19099.908 65536
1493.1472 5656.4175 19151.918 65536
1606.0854 5653.2905 19141.332 65536
1715.9811 5640.5771 19098.285 65536
1808.0188 5574.3818 18874.156 65536
1902.8666 5524.0781 18703.836 196608
2002.3156 5491.9482 18595.047 196608
2104.4963 5470.2803 18521.682 262144
2203.637 5443.2568 18430.184 262144
2288.5361 5385.2803 18233.883 262144
2371.4778 5328.1484 18040.441 262144
2463.0693 5294.5522 17926.689 327680
2549.5269 5253.1646 17786.555 393216
2624.4871 5192.3252 17580.561 393216
2712.4404 5160.8667 17474.047 262144
2789.5491 5111.8555 17308.1 327680
2873.0222 5077.5776 17192.041 262144
2959.8354 5051.356 17103.256 327680
3053.6184 5038.3745 17059.303 262144
3139.0955 5012.9634 16973.264 262144
3222.6279 4986.126 16882.396 393216
3293.5989 4942.0605 16733.197 393216
3359.2573 4892.8408 16566.545 393216
3428.0225 4850.8198 16424.268 458752
3502.2556 4818.6494 16315.342 458752
3565.8191 4773.9277 16163.92 458752
3626.5664 4727.8813 16008.013 393216
3688.3818 4685.5464 15864.671 196608
3749.6973 4644.7012 15726.376 131072
3807.9854 4602.1851 15582.422 196608
3865.2537 4560.4849 15441.229 196608
3928.6055 4527.7305 15330.326 196608
3970.7405 4472.5615 15143.532 196608
4019.6709 4427.3237 14990.362 196608
4084.845 4401.5503 14903.097 262144
4147.8057 4374.5366 14811.632 262144
4207.6035 4345.3794 14712.908 262144
4250.9014 4300.7158 14561.684 262144
4322.0288 4285.4287 14509.924 262144
4392.6001 4270.1987 14458.357 262144
4475.749 4267.5464 14449.376 262144
4558.4072 4264.5347 14439.179 262144
4645.6997 4265.8896 14443.767 262144
4725.8301 4260.7378 14426.323 327680
4851.9307 4296.4775 14547.333 327680
4868.5283 4235.6963 14341.536 196608
4931.6572 4216.793 14277.532 196608
4980.4604 4186.4878 14174.921 262144
5040.2461 4166.2686 14106.462 196608
5083.8623 4133.5635 13995.727 196608
5088.7207 4070.9062 13783.577 65536
5274.98 4153.0532 14061.717 65536
5323.2529 4125.6943 13969.083 0
5382.1074 4107.2505 13906.634 0
5422.6978 4075.6377 13799.597 0
5504.2705 4075.3096 13798.486 0
5740.8237 4188.0527 14180.22 0
6746.1675 4850.2681 16422.398 0
6882.7061 4877.8613 16515.826 0
6875.8267 4804.4658 16267.318 0
6909.7505 4761.2217 16120.899 0
6903.4663 4691.8335 15885.959 0
6229.4585 4176.6328 14141.554 0
6259.3496 4140.8052 14020.247 0
6348.6187 4144.6846 14033.382 0
6324.416 4075.3438 13798.603 0
6328.1499 4025.55 13630.007 0
6394.5044 4016.3464 13598.845 0
6491.0708 4026.1118 13631.908 0
6607.5425 4047.8306 13705.445 0
6684.9844 4045.4009 13697.219 0
6809.0732 4070.9189 13783.62 0
6817.064 4027.2439 13635.742 0
6882.3687 4018.0562 13604.634 0
6959.0454 4015.644 13596.467 0
7057.3223 4025.6084 13630.204 0
6196.9229 3494.708 11832.643 0
6271.751 3497.219 11841.145 0
6321.3848 3485.781 11802.417 0
6408.7764 3495.1865 11834.262 0
8223.2227 4436.0552 15019.925 0
8322.6328 4441.4678 15038.251 0
7576.5508 4000.3521 13544.689 0
6837.29 3572.0759 12094.6 0
6637.1738 3431.4512 11618.462 0
6676.8018 3416.395 11567.485 0
7789.7236 3945.2332 13358.064 0
7865.9829 3943.6626 13352.747 0
7905.417 3923.8457 13285.648 65536
7178.4707 3527.79 11944.654 65536
7273.6162 3539.5447 11984.453 196608
8536.2861 4113.7109 13928.509 196608
8299.2285 3961.0576 13411.645 196608
8452.459 3995.814 13529.324 131072
8572.0176 4014.147 13591.397 65536
8632.9629 4004.9456 13560.243 65536
8729.8682 4012.4431 13585.629 0
8862.0459 4035.8667 13664.938 0
8957.3184 4042.21 13686.416 0
9080.0479 4060.7188 13749.083 0
9155.8027 4058.0764 13740.138 0
9258.6504 4067.3838 13771.65 0
9341.5557 4067.8433 13773.207 0
9430.1973 4070.7712 13783.119 0
9644.2148 4127.3042 13974.533 0
9644.0137 4091.9785 13854.925 0
9788.6709 4118.1938 13943.688 0
9087.416 3791.0728 12836.097 65793
8913.6221 3687.6123 12485.792 1118481
8695.8613 3567.8208 12080.192 1907997
8664.7109 3525.9287 11938.352 2368548
8846.6396 3570.7205 12090.011 1184274
7880.1816 3155.0088 10682.463 1184274
8644.0791 3433.1914 11624.354 0
9918.4766 3908.1118 13232.376 65536
10838.758 4237.1274 14346.382 0
10797.786 4188.1636 14180.597 0
10921.288 4203.2588 14231.706 592137
11536.046 4405.7378 14917.274 0
11751.479 4453.7852 15079.957 0
12165.546 4575.8174 15493.143 0
12547.328 4683.9634 15859.312 0
13073.824 4844.1167 16401.57 0
13873.006 5102.1875 17275.365 0
13639.369 4979.4082 16859.65 0
14015.837 5079.5308 17198.652 0
14412.35 5185.415 17557.164 0
15528.168 5546.7158 18780.482 0
0 0 0 0
0 0 0 0
0 0 0 0
0 0 0 0
0 0 0 0
0 0 0 0
0 0 0 0
0 0 0 0
0 0 0 0
0 0 0 0
0 0 0 0
0 0 0 0
0 0 0 0
0 0 0 0
0 0 0 0
0 0 0 0
0 0 0 0
0 0 0 0
0 0 0 0
0 0 0 0
0 0 0 0
13462.068 4152.0889 14058.451 131072
13463.576 4126.9395 13973.299 131072
14460.374 4405.3105 14915.828 197121
0 0 0 0
0 0 0 0
-8830.6416 2909.0737 9655.457 0
-8779.0859 2911.0063 9661.8721 0
-8729.2324 2913.5332 9670.2588 0
-8681.0576 2916.6575 9680.6289 0
-8636.9287 2921.1919 9695.6787 0
-8587.3926 2923.9458 9704.8193 0
-8534.7305 2925.666 9710.5283 0
-8489.5381 2929.9873 9724.8711 0
-8459.0176 2939.4661 9756.332 0
-9176.1338 3210.6689 10656.477 0
-9364.1533 3299.2275 10950.41 0
-9402.3252 3335.8608 11071.999 0
-9338.8916 3336.7083 11074.812 0
-9277.5234 3338.3103 11080.13 0
-9212.6152 3338.6528 11081.267 0
-9150.541 3340.0347 11085.853 0
-9085.1543 3340.219 11086.464 0
-9020.6201 3340.7212 11088.131 0
-8962.8213 3343.7434 11098.162 0
-8903.5088 3346.2422 11106.455 0
-8842.792 3348.2461 11113.107 0
-8783.2373 3350.7234 11121.329 0
-8722.2578 3352.6907 11127.859 0
-8656.833 3352.9666 11128.775 0
-8596.2129 3355.1218 11135.928 0
-8540.4121 3359.2061 11149.484 0
-8483.9883 3363.1074 11162.433 0
-8430.4668 3368.23 11179.435 0
-8371.2451 3371.1379 11189.087 0
-8309.2314 3372.9592 11195.132 0
-8247.9697 3375.1174 11202.296 0
-8184.3359 3376.333 11206.329 0
-8118.7012 3376.7356 11207.666 0
-8060.5532 3380.2844 11219.445 0
-7997.3945 3381.7739 11224.389 0
-7935.6914 3383.9094 11231.477 0
-7880.5381 3388.8972 11248.031 0
-7815.9482 3389.8777 11251.286 0
-7755.9648 3392.8906 11261.286 0
-7703.8008 3399.4065 11282.912 0
-7657.606 3408.6934 11313.736 0
-7610.5796 3417.7715 11343.867 0
-7568.8579 3429.4155 11382.515 0
-7523.8369 3439.7615 11416.854 0
-7476.2056 3449.0911 11447.819 0
-7427.208 3457.9558 11477.243 0
-7377.041 3466.4355 11505.388 0
-7324.957 3474.1653 11531.043 0
-7271.9395 3481.5935 11555.698 0
-7220.208 3489.7847 11582.886 0
-7167.1846 3497.5039 11608.506 0
-7112.4209 3504.5151 11631.777 0
-7054.2104 3509.949 11649.812 0
-6993.623 3514.2964 11664.242 0
-6931.8965 3518.1526 11677.041 0
-6876.4009 3525.2817 11700.702 0
-6822.3926 3533.3259 11727.402 0
-6774.353 3544.6599 11765.021 0
-6800.7896 3595.606 11934.114 0
-6706.1035 3582.9128 11891.985 0
-6608.2661 3568.2476 11843.311 0
-6556.479 3578.4004 11877.008 0
-6502.667 3587.6562 11907.729 0
-6437.3989 3590.7263 11917.919 0
-6372.9126 3594.3054 11929.799 0
-6316.0015 3602.2854 11956.285 0
-6266.4565 3614.6963 11997.478 0
-6223.2861 3631.1123 12051.963 0
-6180.8779 3648.3601 12109.211 0
-6136.6187 3664.9089 12164.138 0
-6097.3379 3684.8616 12230.361 0
-6049.4272 3700.0168 12280.663 0
-6008.6821 3719.9785 12346.918 0
-5971.7998 3742.8545 12422.846 0
-5931.4697 3764.1157 12493.413 0
-5882.2432 3780.1987 12546.794 0
-5833.9678 3797.3137 12603.6 0
-5793.04 3819.7188 12677.964 0
-5751.9155 3842.583 12753.853 0
-5709.3047 3865.0515 12828.428 0
-5658.4604 3882.479 12886.271 0
-5614.6094 3905.2493 12961.847 0
-5570.2061 3928.2632 13038.231 0
-5522.7163 3949.719 13109.445 0
-5491.2437 3983.408 13221.262 0
-5447.522 4009.0605 13306.405 0
-5403.9111 4035.5515 13394.331 0
-5350.8237 4055.6523 13461.047 0
-5288.7231 4069.4282 13506.771 0
-5233.4937 4088.9968 13571.72 0
-5195.7764 4123.0747 13684.828 0
-5153.9482 4154.9224 13790.533 0
-5106.5195 4183.2119 13884.428 65536
-5048.6655 4203.75 13952.596 65536
-4996.7139 4229.9702 14039.623 65536
-4944.9409 4257.2354 14130.118 65536
-4889.6309 4282.3447 14213.459 65536
-5112.5171 4556.2646 15122.621 0
-4821.8711 4374.1401 14518.134 0
-4768.667 4404.6973 14619.556 0
-4737.0747 4456.7212 14792.229 0
-4648.1265 4455.7314 14788.942 256
-4558.1304 4453.6787 14782.13 256
-4472.9321 4456.3262 14790.916 256
-4406.0425 4477.686 14861.812 256
-4376.8525 4539.0161 15065.371 256
-4316.8232 4570.2578 15169.064 256
-4281.813 4629.8848 15366.973 256
-4212.3579 4654.0552 15447.195 256
-4114.1665 4646.8452 15423.265 0
-4031.7671 4657.5503 15458.796 0
-3986.5125 4712.6641 15641.725 0
-3915.1331 4738.79 15728.438 0
-3848.5903 4772.1914 15839.3 0
-3795.4497 4824.3027 16012.263 0
-3737.2114 4872.4482 16172.061 0
-3646.5627 4879.7642 16196.344 0
-3559.9106 4892.9707 16240.177 0
-3517.3699 4969.2329 16493.297 0
-3464.2034 5034.4248 16709.674 0
-3398.1494 5084.1831 16874.826 0
-3347.5432 5160.7842 17129.07 0
-3267.1311 5194.7964 17241.961 0
-3166.9292 5198.5278 17254.346 0
-3073.1831 5213.4609 17303.91 0
-3006.541 5276.9995 17514.801 256
-2936.9883 5339.8047 17723.256 256
-2856.7786 5387.186 17880.518 256
-2739.3254 5365.2827 17807.818 256
-2674.2495 5448.3276 18083.453 256
-2544.6501 5401.3687 17927.592 256
-2461.1885 5452.5181 18097.361 0
0 0 0 0
-2275.4106 5523.7427 18333.762 0
-2300.7615 5866.2026 19470.414 0
0 0 0 0
0 0 0 0
0 0 0 0
-1863.1809 5946.9463 19738.408 65536
-1735.145 5910.418 19617.168 65536
-1627.0236 5941.3481 19719.828 65536
-1498.9304 5898.4888 19577.574 0
-1396.4423 5957.6548 19773.951 0
0 0 0 0
0 0 0 0
0 0 0 0
0 0 0 0
0 0 0 0
0 0 0 0
0 0 0 0
0 0 0 0
-342.5827 6025.3882 19998.764 65536
-222.75334 5999.269 19912.072 196608
-103.77772 5962.9951 19791.676 196608
13.889619 5979.6074 19846.814 262144
131.75276 5975.3745 19832.766 262144
249.85162 5980.7827 19850.715 327680
367.35678 5973.0674 19825.107 327680
484.75681 5967.8057 19807.643 262144
598.04993 5923.9194 19661.98 262144
708.14172 5867.8535 19475.893 262144
818.74213 5831.1631 19354.115 262144
933.39026 5828.79 19346.238 262144
1040.6508 5785.8628 19203.76 196608
1149.9561 5761.667 19123.451 196608
1263.8599 5762.7915 19127.184 0
1371.3099 5736.7314 19040.688 65536
1479.9434 5719.2178 18982.559 65536
1580.6266 5675.6382 18837.914 65536
1681.0177 5636.8442 18709.154 65536
1777.4288 5590.3457 18554.822 196608
1876.9706 5558.5518 18449.295 196608
1974.613 5524.9536 18337.779 262144
2067.2571 5481.6162 18193.939 262144
2181.0562 5495.894 18241.328 262144
2263.95 5434.6309 18037.992 262144
2348.854 5383.5156 17868.336 262144
2434.3933 5338.2153 17717.98 262144
2518.5879 5293.8452 17570.711 262144
2602.2034 5251.8384 17431.289 262144
2683.2861 5208.1338 17286.229 262144
2773.043 5183.8672 17205.686 262144
2852.7417 5143.1929 17070.684 262144
2955.2234 5144.9771 17076.605 262144
3048.4417 5131.0503 17030.383 262144
3146.2129 5125.436 17011.748 327680
3214.0681 5072.9531 16837.553 393216
3273.082 5010.1069 16628.961 393216
3327.9734 4944.8184 16412.264 458752
3398.0466 4905.1641 16280.647 458752
3484.2258 4890.3115 16231.351 458752
3530.9666 4822.396 16005.933 458752
3626.6265 4823.1025 16008.277 458752
3677.6938 4765.9844 15818.698 393216
3733.5925 4717.8188 15658.833 262144
3817.0964 4706.0303 15619.706 196608
3842.446 4624.8066 15350.116 196608
3905.9878 4592.252 15242.066 131072
3931.6067 4517.5986 14994.285 196608
3804.4167 4274.5615 14187.625 196608
3852.5159 4234.7446 14055.47 327680
4084.5813 4394.5454 14585.86 327680
4145.957 4367.8774 14497.348 327680
4116.4565 4248.5034 14101.137 196608
4140.6792 4188.2334 13901.096 196608
4233.3545 4198.2065 13934.196 196608
4282.6401 4165.5933 13825.95 196608
4467.6719 4263.7578 14151.767 262144
4560.5371 4271.9604 14178.991 393216
4658.9717 4284.9873 14222.229 458752
4746.8594 4288.0225 14232.303 720896
4824.1802 4281.5732 14210.897 655360
4877.4712 4254.3857 14120.659 655360
4937.4819 4233.8799 14052.6 458752
4988.0903 4206.1284 13960.489 262144
5036.6299 4177.5684 13865.697 196608
5073.4854 4140.3936 13742.311 131072
5134.1416 4123.5117 13686.278 65536
5211.9146 4120.6899 13676.912 0
5286.25 4115.2788 13658.951 0
5435.5977 4167.5435 13832.424 0
6227.5142 4703.5767 15611.562 0
6403.0068 4765.1284 15815.857 0
6532.7729 4791.3618 15902.927 0
6613.3027 4781.249 15869.362 0
5998.2959 4275.6372 14191.194 0
5889.4673 4139.8516 13740.512 0
5927.5317 4109.623 13640.181 0
6012.877 4112.5483 13649.89 0
6076.1216 4100.481 13609.837 0
6158.9917 4101.8008 13614.219 0
6206.4087 4079.7817 13541.135 0
6228.7305 4042.0415 13415.871 0
6311.873 4044.2249 13423.118 0
6376.8643 4034.8684 13392.063 0
6519.9458 4074.5439 13523.75 0
6603.5649 4076.5461 13530.396 0
6658.2148 4060.8313 13478.236 0
6707.5493 4042.2869 13416.687 0
6783.9536 4040.3003 13410.093 0
6848.1123 4031.1516 13379.728 0
6874.6401 4000.3157 13277.38 0
6994.4937 4023.8689 13355.556 0
7066.8853 4019.8953 13342.367 0
7116.0938 4002.969 13286.188 0
7143.689 3974.3901 13191.331 0
7235.7461 3981.905 13216.274 0
8296.3076 4516.5137 14990.684 0
8419.4404 4534.8467 15051.533 0
7381.7505 3934.1304 13057.705 0
6529.0498 3443.4778 11429.189 0
6548.1138 3417.9719 11344.533 0
7726.8208 3992.1255 13250.196 0
7786.8955 3982.5737 13218.493 0
7818.4648 3958.78 13139.52 0
6974.6655 3496.6077 11605.531 0
7118.1821 3533.6116 11728.351 0
8011.7339 3938.6194 13072.604 0
8139.083 3962.7954 13152.847 0
8262.4697 3984.6001 13225.219 65536
8383.6758 4004.9524 13292.77 65536
8499.3564 4022.3103 13350.382 0
8583.6699 4024.6389 13358.111 0
8705.583 4044.3936 13423.678 0
8815.8574 4058.4304 13470.269 0
8929.9746 4073.969 13521.842 0
8999.1592 4068.9136 13505.062 0
9088.6875 4073.0652 13518.842 0
9171.3125 4074.0771 13522.2 0
9445.5693 4159.4585 13805.588 0
9502.8721 4148.6538 13769.727 0
9641.8301 4173.3779 13851.787 0
9843.9297 4224.7817 14022.401 0
9785.2744 4164.3525 13821.832 65536
9743.0801 4111.876 13647.658 65536
9415.3047 3940.7375 13079.635 65536
9373.1904 3890.9849 12914.503 65536
9400.5576 3870.6499 12847.008 0
9485.9336 3874.3347 12859.238 0
9549.041 3868.9377 12841.326 0
10037.826 4034.7295 13391.603 131329
11106.342 4429.103 14700.561 65536
10899.319 4312.6187 14313.938 65536
11109.675 4361.8062 14477.196 65536
11066.447 4311.4424 14310.036 65536
11848.813 4581.042 15204.86 0
12219.92 4688.7612 15562.389 0
12668.605 4824.4053 16012.602 0
13249.146 5007.8643 16621.518 0
13464.021 5051.4185 16766.076 0
13857.548 5160.8657 17129.342 0
14456.136 5344.5293 17738.938 0
14733.11 5407.4922 17947.916 0
14947.914 5446.8945 18078.695 0
16271.107 5886.7402 19538.58 197379
0 0 0 0
0 0 0 0
0 0 0 0
0 0 0 0
0 0 0 0
0 0 0 0
0 0 0 0
0 0 0 0
0 0 0 0
0 0 0 0
0 0 0 0
0 0 0 0
0 0 0 0
0 0 0 0
0 0 0 0
0 0 0 0
0 0 0 0
0 0 0 0
0 0 0 0
14277.178 4520.1597 15002.786 65536
13303.12 4185.6318 13892.46 196608
13972.425 4369.1016 14501.412 196608
13273.278 4125.0371 13691.342 723208
0 0 0 0
0 0 0 0
-8799.0645 2955.8516 9620.9297 0
-8746.3525 2957.3623 9625.8477 0
-8697.5273 2960.2158 9635.1357 0
-8648.7178 2963.1128 9644.5645 0
-8604.3213 2967.5703 9659.0732 0
-8558.4717 2971.5835 9672.1357 0
-8510.8457 2975.0298 9683.3525 0
-8455.5986 2975.8406 9685.9922 0
-8421.1201 2984.0222 9712.6221 0
-9490.9141 3386.3162 11022.039 0
-9382.0703 3370.7468 10971.362 0
-9373.9922 3391.4148 11038.635 0
-9294.0781 3386.2021 11021.668 0
-9231.8545 3387.4065 11025.588 0
-9192.3115 3397.0095 11056.845 0
-9132.458 3399.1909 11063.944 0
-9071.3311 3400.9268 11069.595 0
-9011.6475 3403.2332 11077.102 0
-8949.1787 3404.5137 11081.27 0
-8886.3506 3405.6755 11085.051 0
-8829.0078 3408.9727 11095.783 0
-8775.5186 3413.8186 11111.557 0
-8710.8281 3414.3477 11113.277 0
-8652.833 3417.5288 11123.632 0
-8592.748 3419.9272 11131.439 0
-8542.4258 3426.2793 11152.114 0
-8478.5742 3427.2607 11155.309 0
-8427.4326 3433.437 11175.411 0
-8376.1025 3439.6333 11195.579 0
-8316.7139 3442.593 11205.213 0
-8251.3965 3443.1267 11206.95 0
-8184.6919 3443.0854 11206.816 0
-8118.7056 3443.3486 11207.672 0
-8059.583 3446.5505 11218.095 0
-7999.7305 3449.4915 11227.667 0
-7935.8125 3450.7146 11231.647 0
-7876.0791 3453.793 11241.667 0
-7817.373 3457.3787 11253.338 0
-7751.7993 3457.9622 11255.237 0
-7685.1743 3458.0833 11255.632 0
-7633.7964 3465.1272 11278.559 0
-7589.7705 3475.6626 11312.851 0
-7547.9722 3487.4158 11351.106 0
-7505.8853 3499.2466 11389.613 0
-7458.083 3508.6035 11420.069 0
-7409.8838 3517.9443 11450.472 0
-7362.5874 3527.8909 11482.847 0
-7313.7466 3537.2761 11513.395 0
-7260.9175 3544.8918 11538.183 0
-7209.2275 3553.2144 11565.271 0
-7157.4824 3561.6689 11592.791 0
-7104.3965 3569.6152 11618.654 0
-7048.3823 3576.2307 11640.188 0
-6985.7725 3579.5986 11651.149 0
-6931.4805 3587.3379 11676.34 0
-6879.5532 3596.4707 11706.065 0
-6819.3057 3601.3958 11722.097 0
-6768.541 3611.4824 11754.927 0
-6764.7339 3647.0955 11870.843 0
-6653.2896 3624.8167 11798.329 0
-6605.2241 3636.9617 11837.858 0
-6603.6704 3675.2534 11962.494 0
-6495.1748 3654.2129 11894.01 0
-6422.021 3652.8118 11889.449 0
-6357.4912 3656.3391 11900.93 0
-6298.2949 3663.0476 11922.766 0
-6251.4058 3677.1482 11968.661 0
-6206.625 3692.8284 12019.697 0
-6172.5059 3715.29 12092.809 0
-6134.8071 3736.1013 12160.547 0
-6086.4072 3750.8145 12208.436 0
-6039.3813 3766.7393 12260.27 0
-5994.1333 3784.1753 12317.021 0
-5955.9829 3806.5791 12389.942 0
-5913.0391 3826.4417 12454.593 0
-5872.668 3848.4937 12526.37 0
-5827.7549 3868.0974 12590.178 0
-5788.4722 3891.9971 12667.968 0
-5743.4878 3912.6421 12735.165 0
-5708.249 3940.5667 12826.056 0
-5662.6279 3961.9822 12895.761 0
-5617.9531 3984.6572 12969.565 0
-5570.2168 4005.7617 13038.257 0
-5527.7847 4031.3293 13121.477 0
-5482.4985 4055.5176 13200.206 0
-5442.0298 4084.0232 13292.989 0
-5393.4561 4107.1973 13368.417 0
-5340.959 4128.0317 13436.23 0
-5285.7344 4147.3584 13499.136 0
-5227.0684 4164.5386 13555.057 0
-5176.5688 4188.8652 13634.237 0
-5134.2847 4220.7197 13737.919 0
-5251.0708 4386.4829 14277.457 65536
-5047.4697 4285.6597 13949.29 65536
-4995.8047 4312.6279 14037.069 65536
-4941.6602 4338.3354 14120.743 65536
-4894.8262 4371.46 14228.561 65536
-5132.2402 4664.0679 15180.962 0
-4823.0239 4461.4932 14521.605 0
-4771.188 4493.9609 14627.284 0
-4739.7417 4547.1953 14800.557 0
-4643.916 4539.5112 14775.546 256
-4550.0542 4533.4878 14755.939 256
-4475.5547 4546.8984 14799.59 256
-4414.771 4575.0601 14891.253 256
-4376.2437 4627.9102 15063.273 256
-4305.5425 4648.2339 15129.425 256
-4303.752 4745.4067 15445.71 256
-4248.6162 4786.7139 15580.16 256
-4122.6611 4748.2944 15455.109 0
-4024.9319 4741.375 15432.588 0
-3966.446 4781.4395 15562.992 0
-3913.1321 4829.8003 15720.4 0
-3843.978 4860.4976 15820.316 0
-3814.3281 4943.938 16091.905 0
-3738.0828 4969.7231 16175.832 0
-3649.4233 4979.9292 16209.051 0
-3576.9397 5013.3599 16317.864 0
-3541.4358 5101.9282 16606.143 0
-3496.2261 5181.1919 16864.137 0
-3415.0979 5210.3345 16958.992 0
-3335.4099 5243.5132 17066.984 0
-3267.1777 5297.3477 17242.209 0
-3163.0806 5294.6338 17233.377 0
-3033.9094 5248.3647 17082.775 0
-2975.9119 5326.2764 17336.369 256
-2925.644 5424.1079 17654.799 256
-2851.0215 5482.3853 17844.482 256
-2729.6504 5451.7969 17744.922 256
-2622.0173 5447.2905 17730.256 256
-2554.1074 5528.3882 17994.219 256
-2432.9824 5496.3569 17889.959 0
-2415.5835 5706.4331 18573.732 0
-2463.9585 6099.4512 19852.957 0
0 0 0 0
-2234.9478 6118.5469 19915.111 0
0 0 0 0
-2003.1954 6133.7729 19964.67 65536
-1855.7339 6040.0195 19659.514 65536
-1721.8859 5980.9536 19467.262 65536
-1614.5258 6012.0112 19568.352 65536
-1502.5979 6029.562 19625.477 0
-1394.9526 6068.6973 19752.857 0
-1283.8223 6098.4702 19849.764 0
0 0 0 0
0 0 0 0
0 0 0 0
0 0 0 0
0 0 0 0
0 0 0 0
0 0 0 0
-340.35721 6104.3335 19868.848 0
-221.75261 6090.1294 19822.615 131072
-103.42873 6060.1748 19725.117 131072
13.771177 6045.5684 19677.574 196608
130.49556 6035.106 19643.521 196608
248.42944 6064.0474 19737.723 196608
369.74228 6130.4473 19953.846 262144
483.41144 6068.6401 19752.67 262144
593.55817 5995.4067 19514.305 196608
702.82025 5938.6401 19329.537 196608
815.88422 5925.4355 19286.559 196608
919.22809 5853.5874 19052.701 196608
1026.093 5817.4619 18935.117 196608
1129.3002 5769.7896 18779.949 65536
1234.55 5740.1909 18683.609 65536
1347.0183 5746.2705 18703.398 65536
1456.5267 5739.7588 18682.203 65536
1565.1031 5730.7583 18652.906 65536
1643.8846 5621.0669 18295.875 65536
1753.1285 5622.687 18301.148 65536
1852.7308 5595.0015 18211.035 65536
1964.1442 5604.0723 18240.559 196608
2051.9138 5548.2612 18058.902 196608
2158.2961 5545.8257 18050.975 196608
2235.874 5473.1113 17814.299 196608
2314.7852 5410.0884 17609.166 196608
2407.4355 5383.2393 17521.775 196608
2490.7795 5338.6699 17376.709 196608
2575.8484 5301.1992 17254.746 196608
2671.146 5286.8433 17208.02 196608
2759.9758 5261.2173 17124.609 196608
2839.6387 5220.5601 16992.275 196608
2919.9771 5183.895 16872.936 196608
3014.0469 5173.2334 16838.232 262144
3111.7966 5169.3701 16825.658 327680
3174.5232 5109.3779 16630.391 393216
3236.5466 5051.9106 16443.342 393216
3301.5601 5002.3428 16282.004 458752
3372.8955 4964.9033 16160.145 458752
3444.1167 4929.374 16044.501 458752
3518.761 4900.5264 15950.605 458752
3586.5522 4863.8984 15831.387 393216
3622.3469 4786.8608 15580.638 393216
3682.1941 4744.6558 15443.266 327680
3745.3816 4708.7036 15326.245 262144
3857.7727 4734.8486 15411.345 262144
3925.2075 4705.8828 15317.065 262144
3952.1521 4630.7876 15072.64 262144
3998.3188 4581.0454 14910.734 327680
3935.8872 4411.7324 14359.641 524288
4010.3547 4399.7993 14320.801 524288
4057.5664 4359.0811 14188.268 524288
4050.9229 4263.3418 13876.648 524288
4103.4121 4232.4141 13775.983 458752
4183.4829 4230.5894 13770.044 458752
4258.042 4223.3677 13746.537 458752
4378.1226 4260.7188 13868.11 458752
4505.7866 4303.9331 14008.769 393216
4600.2603 4314.4507 14043.002 458752
4695.6943 4325.4785 14078.896 655360
4771.2212 4318.104 14054.892 851968
4825.625 4292.1943 13970.561 720896
4889.2725 4275.2441 13915.39 524288
4942.7026 4250.0728 13833.46 262144
4982.4712 4214.1694 13716.6 196608
5039.3892 4193.6948 13649.956 131072
5106.2744 4182.0308 13611.992 65536
5183.0117 4178.6743 13601.066 0
5335.8984 4235.8716 13787.236 0
5736.3394 4484.8857 14597.746 0
5694.7383 4386.0239 14275.964 0
5920.2876 4492.8003 14623.508 0
6125.4512 4581.2407 14911.37 0
5684.627 4190.9131 13640.901 0
5702.6943 4145.1162 13491.839 0
5768.3574 4134.7056 13457.954 0
5849.4395 4135.481 13460.478 0
5923.2285 4131.1494 13446.378 0
5956.127 4098.7935 13341.063 0
6050.5728 4109.0854 13374.563 0
6078.1489 4074.2866 13261.298 0
6136.1494 4060.5122 13216.463 0
6213.751 4059.8926 13214.446 0
6308.6919 4070.4758 13248.894 0
6409.7607 4084.7034 13295.203 0
6487.4307 4083.8547 13292.44 0
6600.4082 4104.9858 13361.22 0
6608.209 4060.979 13217.983 0
6647.3862 4037.0615 13140.135 0
6751.6753 4052.7844 13191.311 0
6793.4927 4031.0769 13120.655 0
6866.6235 4028.2317 13111.395 0
6905.7681 4005.7366 13038.175 0
6921.5571 3970.3435 12922.976 0
6994.7202 3968.2771 12916.25 0
7094.4492 3981.1633 12958.192 0
8257.1592 4583.8755 14919.945 0
8358.3936 4590.7739 14942.398 0
7308.3662 3971.855 12927.895 0
6468.9053 3479.0591 11323.905 0
6361.9912 3386.3281 11022.078 0
6998.6489 3687.2385 12001.504 0
7725.6626 4029.2007 13114.549 0
7791.4014 4022.8989 13094.037 0
7786.4585 3980.5879 12956.319 0
7876.0693 3986.9697 12977.091 65536
7965.8325 3993.3042 12997.709 65536
8059.0068 4001.2102 13023.443 65536
8193.168 4029.1223 13114.293 65536
8580.668 4179.917 13605.111 65536
8451.1436 4078.3889 13274.65 0
8464.2178 4046.9182 13172.217 0
8591.0322 4069.908 13247.045 65536
8681.2217 4075.2866 13264.552 0
8791.1748 4089.7627 13311.67 65536
8936.2959 4120.1953 13410.725 0
8965.1426 4096.9536 13335.076 0
9043.7305 4096.6519 13334.094 0
8738.2314 3923.8818 12771.748 0
9130.6914 4064.8047 13230.435 0
9303.3789 4106.3179 13365.556 0
9444.6377 4133.3745 13453.621 0
9481.1729 4114.5298 13392.284 0
9549.167 4109.5371 13376.034 0
9629.165 4109.7505 13376.729 0
9672.7715 4094.5552 13327.27 0
9773.8525 4103.7393 13357.162 0
9960.4551 4148.3931 13502.505 0
10068.085 4159.7056 13539.325 0
10224.318 4190.7598 13640.403 196608
10581.975 4303.2358 14006.499 0
10725.345 4327.4951 14085.459 65536
10872.968 4353.0811 14168.739 65536
11112.062 4414.6143 14369.021 65536
11810.192 4656.1836 15155.3 65536
11739.098 4593.124 14950.049 65536
12029.567 4671.4175 15204.884 65536
12546.656 4835.8896 15740.221 65536
13132.264 5024.1406 16352.955 65536
13484.428 5120.9717 16668.127 0
13950.702 5259.4102 17118.727 0
14124.748 5286.4707 17206.807 0
15233.955 5660.6294 18424.646 789514
16542.256 6102.8994 19864.18 263170
0 0 0 0
0 0 0 0
0 0 0 0
0 0 0 0
0 0 0 0
0 0 0 0
0 0 0 0
0 0 0 0
0 0 0 0
0 0 0 0
0 0 0 0
0 0 0 0
0 0 0 0
0 0 0 0
0 0 0 0
0 0 0 0
0 0 0 0
0 0 0 0
0 0 0 0
0 0 0 0
0 0 0 0
15691.755 5003.5195 16285.834 196608
13751.386 4357.9263 14184.509 591621
0 0 0 0
0 0 0 0
-8771.5762 3003.6191 9590.874 0
-8724.9805 3007.2058 9602.3262 0
-8675.3184 3009.7759 9610.5332 0
-8622.458 3011.2632 9615.2822 0
-8572.626 3013.8352 9623.4941 0
-8516.6504 3014.2666 9624.8721 0
-8474.5078 3019.6333 9642.0088 0
-8428.1895 3023.575 9654.5947 0
-8386.5518 3029.2615 9672.752 0
-8339.9707 3033.2285 9685.4189 0
-8302.3027 3040.5146 9708.6846 0
-8258.4854 3045.6355 9725.0361 0
-9241.8906 3432.3262 10959.78 0
-9241.7754 3456.646 11037.437 0
-9181.9854 3458.8342 11044.424 0
-9127.8408 3463.196 11058.351 0
-9065.2803 3464.4048 11062.211 0
