# .PCD v0.7 - Point Cloud Data file format
VERSION 0.7
FIELDS x y z rgb
SIZE 4 4 4 4
TYPE F F F U
COUNT 1 1 1 1
WIDTH 1472
HEIGHT 1
VIEWPOINT 0 0 0 1 0 0 0
POINTS 1472
DATA ascii
-7336.0469 3923.176 11441.452 0
-7284.0879 3931.835 11466.705 0
-7226.5479 3937.6167 11483.566 0
-7166.0225 3941.8662 11495.96 0
-7109.1245 3948.2124 11514.467 0
-7050.6025 3953.7712 11530.679 0
-6997.5879 3962.5574 11556.303 0
-6944.915 3971.7134 11583.006 0
-6925.7295 4000.3953 11666.652 0
-6906.8828 4029.8552 11752.569 0
-6823.2104 4021.708 11728.809 0
-6741.502 4014.562 11707.968 0
-6705.4702 4034.7515 11766.848 0
-6620.2183 4025.4373 11739.684 0
-6555.9048 4028.7922 11749.469 0
-6493.6387 4033.4912 11763.173 0
-6437.4771 4042.1257 11788.354 0
-6388.625 4055.5896 11827.62 0
-6350.1216 4075.9968 11887.135 0
-6313.4888 4098.0767 11951.528 0
-6271.8105 4117.3467 12007.728 0
-6228.3247 4135.8608 12061.721 0
-6184.4907 4154.5718 12116.288 0
-6144.979 4176.6611 12180.71 0
-6108.5542 4201.4009 12252.859 0
-6063.0942 4220.4478 12308.407 0
-6024.2373 4244.6123 12378.881 0
-5983.3496 4267.9258 12446.872 0
-5943.4297 4292.5225 12518.604 0
-5902.4829 4316.9912 12589.965 0
-5871.5967 4349.5415 12684.894 0
-5824.6377 4370.8765 12747.115 0
-5780.5103 4394.9272 12817.256 0
-5738.5859 4421.3174 12894.22 0
-5694.3848 4446.6445 12968.083 0
-5644.6616 4468.2954 13031.225 0
-5597.5239 4492.6235 13102.175 0
-5553.4937 4520.1675 13182.503 0
-5502.6484 4542.8735 13248.722 65536
-5451.5205 4566.0015 13316.172 65536
-5397.041 4586.9629 13377.304 65536
-5358.1626 4622.0088 13479.51 65536
-5317.8242 4656.8394 13581.09 0
-5284.8003 4699.2485 13704.771 0
-5233.0581 4726.0801 13783.021 0
-5179.5923 4752.1841 13859.15 0
-5121.8042 4775.1016 13925.986 0
-5075.9771 4810.106 14028.073 65536
-5262.0684 5069.7217 14785.209 65536
-5023.3228 4921.8955 14354.093 65536
-4967.0239 4950.814 14438.429 65536
-4933.9653 5004.3193 14594.472 0
-4854.604 5011.9375 14616.689 0
-4761.3486 5005.2271 14597.118 0
-4681.4868 5012.6084 14618.646 256
-4614.272 5034.0674 14681.228 256
-4582.9902 5096.3101 14862.751 256
-4526.4946 5132.4111 14968.035 256
-4491.5332 5194.8657 15150.176 0
-4434.0293 5233.269 15262.175 0
-4352.1226 5243.8745 15293.104 0
-4250.0898 5230.1655 15253.123 0
-4199.5874 5280.6533 15400.365 0
-4137.7524 5318.8242 15511.686 0
-4068.437 5348.8994 15599.396 0
-4031.9912 5424.6001 15820.168 0
-3968.6733 5466.8994 15943.528 0
-3894.3408 5495.7236 16027.591 0
-3802.6487 5500.8809 16042.632 0
-3746.8704 5559.5928 16213.857 0
-3705.9895 5644.0933 16460.291 0
-3643.9792 5700.1226 16623.695 0
-3596.8086 5783.1362 16865.793 0
-3522.4343 5825.915 16990.553 0
-3429.6492 5839.8696 17031.25 0
-3316.355 5818.6895 16969.48 256
-3232.1318 5848.7871 17057.256 256
-3204.6316 5986.8022 17459.76 256
-3130.3274 6043.6909 17625.668 256
-3031.9597 6056.4502 17662.879 256
-2928.9917 6060.6064 17675 256
-2811.6846 6034.2983 17598.275 0
-2749.8142 6129.5288 17876.004 0
-2653.3962 6152.3105 17942.443 0
-2562.7134 6190.854 18054.852 0
-2645.9912 6671.3765 19456.234 0
-2587.1091 6821.0073 19892.615 0
-2455.2451 6783.3354 19782.75 65536
-2329.6284 6760.0029 19714.703 65536
-2200.9351 6724.7974 19612.031 0
-2054.8372 6629.5039 19334.119 65536
-1934.1141 6609.6353 19276.176 65536
-1817.557 6602.3989 19255.07 65536
-1704.6345 6608.2803 19272.223 65536
-1600.6815 6652.2852 19400.557 65536
-1498.4474 6710.8193 19571.266 65536
-1388.3778 6741.1616 19659.756 65536
-1277.433 6772.4409 19750.977 65536
-1166.4138 6809.6162 19859.395 65536
0 0 0 0
0 0 0 0
0 0 0 0
-690.84052 6775.7944 19760.756 65536
-571.06293 6748.23 19680.367 65536
-447.80795 6654.7886 19407.857 65536
-333.4201 6673.9995 19463.885 65536
-217.77641 6675.1299 19467.182 196608
-102.25633 6686.9072 19501.527 196608
13.678244 6701.7388 19544.783 262144
130.18529 6719.5801 19596.814 262144
245.19939 6679.9009 19481.094 327680
358.65323 6636.8018 19355.402 262144
469.45255 6577.4448 19182.295 262144
577.8772 6514.5146 18998.766 262144
692.49017 6530.5156 19045.432 262144
800.06024 6484.9336 18912.498 262144
906.29047 6441.0601 18784.545 196608
1020.5745 6457.771 18833.281 196608
1126.6501 6424.373 18735.881 196608
1229.9755 6382.7104 18614.377 196608
1325.9443 6312.8999 18410.783 196608
1440.8318 6336.9399 18480.893 196608
1534.4376 6270.605 18287.434 196608
1632.3016 6229.2949 18166.959 196608
1719.7758 6155.9214 17952.975 196608
1807.8448 6093.1255 17769.838 262144
1937.0107 6168.1289 17988.576 196608
2021.5769 6100.6929 17791.908 262144
2105.1067 6036.9883 17606.121 262144
2203.3457 6019.5034 17555.129 196608
2281.0344 5949.9946 17352.414 196608
2359.7815 5889.1406 17174.941 196608
2446.8032 5853.127 17069.912 196608
2538.165 5829.9497 17002.318 196608
2617.2039 5781.3262 16860.514 262144
2699.1719 5742.521 16747.344 327680
2791.1035 5726.9194 16701.844 327680
2909.0818 5763.9976 16809.979 393216
2968.0254 5685.5269 16581.129 393216
3031.1123 5619.7827 16389.393 458752
3089.356 5549.4321 16184.224 458752
3163.8259 5511.5972 16073.883 458752
3264.679 5520.5933 16100.12 393216
3316.1064 5447.8789 15888.058 393216
3405.1123 5439.2183 15862.799 393216
3465.4143 5386.4077 15708.784 393216
3512.0188 5315.6357 15502.388 262144
3584.2964 5286.3477 15416.973 196608
3634.7852 5227.1851 15244.432 131072
3689.2117 5176.4248 15096.396 131072
3738.7695 5121.4062 14935.94 65536
3778.1257 5055.2896 14743.119 131072
3674.7961 4805.5776 14014.866 196608
3778.95 4832.25 14092.652 262144
3967.0215 4962.7471 14473.231 262144
3941.25 4825.8647 14074.031 262144
3921.7722 4702.2183 13713.431 196608
3995.3044 4692.855 13686.124 196608
4115.3979 4737.4644 13816.222 196608
4134.6602 4666.5273 13609.343 196608
4271.2549 4728.1963 13789.193 393216
4437.6216 4819.8809 14056.579 393216
4546.2515 4846.625 14134.575 524288
4625.0269 4841.1494 14118.606 589824
4692.1987 4823.9395 14068.416 589824
4746.915 4794.751 13983.292 458752
4802.8413 4767.7686 13904.601 327680
4847.2476 4730.4561 13795.783 262144
4904.4072 4706.6235 13726.279 196608
4950.5342 4673.1572 13628.679 0
5026.3369 4668.3301 13614.602 65536
5088.6338 4651.311 13564.967 0
5206.3716 4684.7085 13662.367 0
5879.4482 5209.1021 15191.694 0
6069.5698 5296.2144 15445.746 0
6230.6221 5355.7432 15619.354 0
6377.0493 5401.1367 15751.739 0
5771.7993 4817.7837 14050.464 0
5759.9639 4739.3359 13821.68 0
5743.5503 4659.3799 13588.499 0
5808.4561 4646.6963 13551.508 0
5892.2607 4649.2705 13559.017 0
5951.5674 4632.7075 13510.711 0
6008.4453 4614.7188 13458.25 0
6050.2822 4585.8032 13373.921 0
6098.6206 4562.501 13305.964 0
6188.6396 4570.5786 13329.521 0
6266.541 4569.6152 13326.712 0
6387.3008 4599.5396 13413.981 256
6456.9463 4592.3716 13393.076 256
6524.6299 4583.999 13368.66 256
6573.7852 4562.9678 13307.325 256
6637.3804 4552.3408 13276.332 256
6707.8701 4546.6362 13259.695 256
6743.5259 4517.7275 13175.388 256
6863.1377 4545.0825 13255.165 256
6935.3345 4540.7725 13242.595 256
6963.8516 4508.2812 13147.838 256
6997.6958 4479.9214 13065.131 0
7994.3804 5061.8301 14762.193 0
8136.0835 5095.6284 14860.764 256
8270.7744 5124.3574 14944.547 256
6913.4873 4237.9062 12359.323 256
6397.8467 3880.5918 11317.261 256
6324.124 3795.9673 11070.464 256
7587.7705 4507.5576 13145.728 0
7716.9824 4537.5942 13233.325 0
7704.6123 4484.6143 13078.815 0
6801.376 3919.3262 11430.225 65536
7838.1948 4472.1299 13042.406 65536
7932.8735 4481.8262 13070.686 65536
8051.6851 4504.8364 13137.792 65536
8161.2007 4522.2544 13188.589 65536
8298.6924 4554.6948 13283.198 0
8401.9229 4567.8979 13321.702 65536
8486.4688 4570.7905 13330.138 0
8589.3135 4583.3936 13366.894 0
8696.7686 4598.2036 13410.086 0
8812.2422 4616.9458 13464.745 0
8893.2764 4617.4702 13466.273 0
8981.4922 4621.6797 13478.55 0
9203.9922 4694.3032 13690.349 0
9588.0645 4847.3394 14136.659 0
9394.585 4708.2661 13731.069 0
9441.6211 4691.0894 13680.975 0
9591.9688 4725.0972 13780.155 0
9570.3789 4674.5483 13632.736 0
9714.8252 4705.2661 13722.32 65536
9605.7246 4613.6924 13455.257 65536
9101.4648 4335.3999 12643.652 0
9168.292 4331.4702 12632.191 0
9164.3232 4294.4292 12524.166 65536
0 0 0 0
0 0 0 0
11111.037 5082.8125 14823.387 65536
10802.035 4902.5845 14297.774 0
13658.73 6150.7314 17937.838 0
12003.269 5363.3887 15641.652 0
12051.93 5343.7451 15584.364 0
12133.695 5338.9678 15570.432 0
12730.559 5559.1963 16212.7 0
13294.747 5761.9546 16804.02 0
13404.271 5766.106 16816.127 0
14122.953 6030.2988 17586.611 0
14371.604 6091.3867 17764.768 0
14698.803 6184.6338 18036.711 0
0 0 0 0
0 0 0 0
0 0 0 0
0 0 0 0
0 0 0 0
0 0 0 0
0 0 0 0
0 0 0 0
0 0 0 0
0 0 0 0
0 0 0 0
0 0 0 0
0 0 0 0
0 0 0 0
0 0 0 0
0 0 0 0
0 0 0 0
0 0 0 0
0 0 0 0
18587.469 6825.2837 19905.086 0
0 0 0 0
0 0 0 0
13395.861 4826.7729 14076.68 131072
12980.15 4647.957 13555.185 0
12313.955 4382.2056 12780.153 591878
0 0 0 0
0 0 0 0
0 0 0 0
-8628.5039 3291.0601 9434.4375 0
-8586.4873 3296.4565 9449.9072 0
-8547.9746 3303.2773 9469.4609 0
-8499.3975 3306.2742 9478.0518 0
-8456.7168 3311.6199 9493.376 0
-9243.8594 3644.1758 10446.709 0
-9379.0342 3722.4678 10671.148 0
-9368.4746 3743.5916 10731.703 0
-9329.4268 3753.543 10760.23 0
-9277.2637 3758.3184 10773.921 0
-9228.1807 3764.417 10791.403 0
-9172.3389 3767.8245 10801.172 0
-9117.082 3771.522 10811.771 0
-9060.7285 3774.8157 10821.213 0
-9004.79 3778.3296 10831.287 0
-8949.582 3782.2031 10842.391 0
-8899.1885 3788.1826 10859.532 0
-8841.9795 3791.3269 10868.546 0
-8789.5127 3796.5657 10883.563 0
-8734.7676 3800.8909 10895.963 0
-8683.2637 3806.7019 10912.621 0
-8630.8213 3812.1855 10928.341 0
-8574.8945 3816.2014 10939.854 0
-8526.6387 3823.719 10961.403 0
-8474.1455 3829.438 10977.798 0
-8420.2803 3834.6199 10992.653 0
-8358.4014 3836.2051 10997.198 0
-8297.8682 3838.4375 11003.598 0
-8236.8037 3840.4583 11009.391 0
-8181.6348 3845.2822 11023.219 0
-8126.1953 3850.0557 11036.903 0
-8067.4429 3853.325 11046.274 0
-8013.1528 3858.7961 11061.959 0
-7957.7822 3863.8335 11076.399 0
-7893.7368 3864.7073 11078.904 0
-7838.1577 3869.7761 11093.436 0
-7787.2827 3877.2732 11114.927 0
-7738.8872 3886.1433 11140.355 0
-7694.7358 3897.3164 11172.385 0
-7651.9131 3909.3625 11206.917 0
-7607.1577 3920.6245 11239.201 0
-7563.3936 3932.6013 11273.535 0
-7518.3174 3944.1035 11306.509 0
-7469.3374 3953.7473 11334.154 0
-7421.8804 3964.3801 11364.635 0
-7369.8628 3972.7498 11388.628 0
-7323.374 3984.282 11421.688 0
-7269.3076 3991.8691 11443.438 0
-7220.168 4002.3308 11473.429 0
-7199.9248 4029.1628 11550.347 0
-7135.646 4031.6316 11557.424 0
-7054.2974 4024.4094 11536.721 0
-7002.8301 4034.2605 11564.96 0
-6878.9053 4002.1504 11472.911 0
-6951.8384 4085.0767 11710.635 0
-6897.231 4093.9758 11736.146 0
-6752.3848 4048.9473 11607.062 0
-6722.0376 4072.3547 11674.164 0
-6661.0098 4077.4697 11688.827 0
-6602.9336 4084.5181 11709.033 0
-6540.3472 4088.897 11721.586 0
-6478.7119 4093.9714 11736.133 0
-6417.8682 4099.6621 11752.446 0
-6368.042 4112.5928 11789.515 0
-6329.5503 4133.2129 11848.626 0
-6293.5088 4155.9155 11913.707 0
-6261.2031 4181.6284 11987.419 0
-6219.4473 4201.5503 12044.528 0
-6174.5059 4219.7588 12096.727 0
-6131.8413 4239.9712 12154.668 0
-6097.5088 4266.4951 12230.704 65536
-6055.2251 4288.0283 12292.433 0
-6014.1738 4310.9707 12358.202 0
-5970.1177 4332.3003 12419.347 0
-5929.7192 4356.8506 12489.726 0
-5900.4692 4390.3193 12585.67 0
-5870.7852 4424.3203 12683.14 0
-5823.4653 4445.7422 12744.55 0
-5777.7437 4468.9648 12811.121 0
-5734.8813 4495.0493 12885.896 0
-5691.3989 4521.3467 12961.283 0
-5644.3896 4545.5254 13030.597 0
-5600.5464 4572.9624 13109.249 0
-5554.3311 4599.209 13184.49 0
-5506.7988 4625.1006 13258.714 65536
-5457.4585 4650.2036 13330.676 65536
-5405.5054 4673.7876 13398.283 65536
-5351.3198 4696.1167 13462.295 65536
-5320.8345 4740.2383 13588.778 0
-5473.562 4951.457 14194.275 65536
-5243.1387 4817.2593 13809.572 0
-5183.6011 4838.2949 13869.876 65536
-5137.0747 4872.3521 13967.506 65536
-5083.3208 4900.5596 14048.368 65536
-5271.6938 5167.0293 14812.254 0
-5021.3325 5005.2231 14348.406 0
-4977.6562 5047.4072 14469.335 0
-4950.1895 5107.8008 14642.464 0
-4865.1299 5109.8652 14648.382 0
-4770.731 5102.0171 14625.883 256
-4693.2671 5112.3247 14655.432 256
-4634.0815 5143.3096 14744.256 256
-4595.1162 5198.3623 14902.075 256
-4531.291 5226.9038 14983.896 256
-4525.7778 5325.2017 15265.685 0
-4484.749 5384.8779 15436.757 0
-4391.9932 5383.6396 15433.208 0
-4260.8701 5334.3159 15291.812 0
-4201.5898 5374.7446 15407.708 0
-4161.1958 5441.6724 15599.569 0
-4095.8433 5478.2686 15704.479 0
-4061.8586 5559.5049 15937.358 0
-3991.1177 5593.1108 16033.695 0
-3909.8867 5613.3003 16091.572 0
-3823.4575 5626.8521 16130.421 0
-3768.698 5688.9067 16308.312 0
-3738.7979 5792.7539 16606.01 0
-3651.8738 5811.4868 16659.711 0
-3589.8999 5872.0742 16833.396 0
-3529.1746 5938.2368 17023.064 0
-3426.0754 5934.9019 17013.504 256
-3299.7246 5889.8613 16884.387 256
-3208.0686 5905.8657 16930.266 256
-3152.7217 5991.9141 17176.939 256
-3100.3513 6089.5679 17456.883 256
-3025.6067 6148.5161 17625.869 256
-2900.7832 6106.2744 17504.775 256
-2801.8311 6117.377 17536.602 256
-2723.4885 6176.0728 17704.865 0
-2625.7205 6193.665 17755.297 0
-2736.3943 6725.0005 19278.469 0
-2716.8752 6968.8296 19977.451 0
-2554.6694 6852.2251 19643.182 0
-2446.8298 6877.2593 19714.945 65536
-2334.3638 6891.1538 19754.777 65536
-2176.9285 6766.7373 19398.115 65536
-2044.0699 6709.0728 19232.809 65536
-1921.4243 6680.0835 19149.705 65536
-1822.0791 6733.5503 19302.979 65536
-1712.7039 6754.6465 19363.453 65536
-1602.4583 6775.1006 19422.09 65536
-1499.8705 6833.6221 19589.854 65536
-1402.6086 6928.3013 19861.268 65536
-1271.1536 6855.9604 19653.889 65536
-1170.5895 6952.4478 19930.488 0
-1052.985 6958.0596 19946.576 0
0 0 0 0
0 0 0 0
-694.69373 6931.6865 19870.973 65536
-567.70972 6824.8848 19564.807 65536
-448.95206 6787.4331 19457.443 65536
-332.74609 6775.9541 19424.537 65536
-216.47635 6750.2915 19350.969 131072
-101.20451 6732.8364 19300.932 196608
13.53961 6748.7983 19346.689 262144
130.40639 6847.6611 19630.098 262144
243.35374 6744.5317 19334.457 262144
355.72885 6696.7852 19197.584 262144
465.82657 6639.7676 19034.133 196608
574.62689 6590.1538 18891.906 262144
682.51746 6548.0317 18771.154 262144
789.27734 6508.4204 18657.602 196608
892.74622 6454.7749 18503.816 196608
993.92871 6398.1777 18341.57 196608
1103.9695 6404.1562 18358.709 196608
1207.3352 6373.8193 18271.742 196608
1323.0193 6408.1548 18370.17 196608
1416.2905 6336.9727 18166.113 196608
1508.8669 6272.9849 17982.682 196608
1609.2675 6247.8394 17910.598 196608
1718.0006 6256.1582 17934.443 196608
1812.8931 6216.0469 17819.459 196608
1896.9324 6145.2051 17616.377 196608
1991.842 6115.1475 17530.211 196608
2077.748 6061.8101 17377.309 196608
2170.9924 6033.9194 17297.355 196608
2256.105 5986.9707 17162.77 196608
2340.3015 5941.7593 17033.162 196608
2434.0715 5923.5947 16981.09 196608
2523.78 5897.3867 16905.959 196608
2608.2412 5861.3926 16802.775 196608
2683.7476 5808.6719 16651.641 196608
2771.7585 5785.8032 16586.084 262144
2865.1143 5775.2788 16555.914 262144
2934.2781 5718.3081 16392.598 393216
3002.1536 5662.5698 16232.812 393216
3076.9578 5622.9634 16119.273 393216
3143.3245 5570.7954 15969.724 393216
3218.7756 5537.314 15873.744 393216
3281.1057 5483.8091 15720.362 393216
3362.8115 5464.7544 15665.738 393216
3397.8853 5372.9883 15402.674 393216
3473.5894 5348.5986 15332.757 196608
3537.8054 5308.2202 15217.003 262144
3608.604 5279.4844 15134.627 196608
3716.2258 5304.709 15206.938 196608
3737.7546 5208.7617 14931.887 196608
3786.6094 5154.4614 14776.225 262144
3654.334 4861.6504 13936.828 393216
3768.7715 4902.7666 14054.695 393216
3921.6226 4990.9878 14307.598 393216
3855.5723 4802.7852 13768.079 393216
3903.0964 4760.9409 13648.126 393216
3985.959 4763.0283 13654.11 393216
4091.7512 4791.8862 13736.836 327680
4184.3242 4804.4365 13772.813 393216
4300.436 4843.0132 13883.401 393216
4396.8467 4858.3687 13927.42 458752
4489.4614 4869.0396 13958.011 655360
4579.3115 4876.3804 13979.054 786432
4645.4629 4858.6724 13928.29 851968
4698.6494 4828.2622 13841.113 851968
4763.7168 4810.896 13791.331 524288
4810.4443 4775.9102 13691.038 262144
4861.4688 4746.2827 13606.105 196608
4919.4297 4724.2866 13543.049 65536
4986.5449 4711.6479 13506.818 0
5094.2529 4737.1577 13579.946 0
5188.9712 4749.9805 13616.706 0
5374.9297 4844.6479 13888.088 0
5365.6631 4763.1494 13654.456 0
5434.2764 4752.1831 13623.02 0
5542.8618 4775.9814 13691.241 0
5481.0947 4654.4307 13342.794 0
5552.2231 4647.5894 13323.183 0
5633.3135 4649.1631 13327.693 0
5715.8374 4651.8589 13335.422 0
5784.7319 4643.541 13311.576 0
5831.186 4617.6763 13237.431 0
5878.1963 4592.9355 13166.507 0
5941.4336 4581.3574 13133.315 0
6001.8364 4567.9214 13094.8 0
6113.2065 4593.124 13167.047 0
6200.4863 4599.8184 13186.237 0
6261.4727 4587.0835 13149.729 256
6340.6494 4587.8232 13151.852 256
6470.6914 4624.9014 13258.143 256
6453.1846 4556.8965 13063.193 256
6525.709 4553.3271 13052.962 256
6616.54 4562.4658 13079.16 256
6682.9443 4554.7446 13057.024 256
6742.085 4542.3062 13021.368 256
6750.9893 4496.689 12890.598 256
6804.2847 4481.332 12846.573 256
6877.8838 4479.5396 12841.436 256
7024.3438 4524.7192 12970.951 256
8031.3809 5117.2393 14669.521 256
8174.7974 5152.6826 14771.126 256
7198.4834 4489.0903 12868.814 256
6290.5967 3881.6748 11127.545 256
6223.7354 3800.4614 10894.732 256
7492.7422 4528.2568 12981.093 0
7659.7607 4582.0142 13135.199 0
7652.1978 4531.3081 12989.84 0
7679.6216 4502.1255 12906.183 65536
7791.3618 4522.4614 12964.479 65536
7865.7935 4520.9546 12960.16 65536
7977.6138 4540.7588 13016.932 65536
8241.3789 4645.8374 13318.159 65536
8513.1729 4753.3984 13626.504 0
8366.6377 4627.5566 13265.755 0
8391.833 4598.1616 13181.488 0
8491.2012 4609.5762 13214.21 0
8598.3438 4624.9634 13258.319 0
8726.9863 4651.5298 13334.478 0
8864.3418 4682.2212 13422.46 0
8866.208 4641.436 13305.542 0
8977.5293 4658.1655 13353.501 256
10111.565 5200.6069 14908.51 65793
9118.7842 4649.2563 13327.961 256
9224.5342 4662.6699 13366.413 0
9352.0791 4686.7769 13435.521 0
9376.8467 4659.4053 13357.055 0
9442.5146 4652.646 13337.678 0
9515.6133 4649.6309 13329.033 65536
9598.9209 4651.6118 13334.713 65536
9718.0078 4670.7568 13389.597 131072
9903.708 4721.3477 13534.624 131072
9986.8682 4722.6338 13538.312 131072
10170.449 4771.0073 13676.982 65536
10509.361 4890.9019 14020.683 65536
10645.624 4915.3418 14090.745 0
10796.218 4945.9668 14178.537 0
11015.8 5007.4771 14354.866 65536
12311.873 5553.6235 15920.498 0
14189.859 6351.9268 18208.982 394499
11955.69 5311.3184 15225.886 65536
14608.854 6441.2329 18464.996 65536
13150.271 5754.8936 16497.477 65536
13606.759 5910.5942 16943.82 65536
14084.278 6073.0757 17409.605 0
14378.278 6154.6313 17643.398 0
15881.104 6748.6987 19346.404 65792
0 0 0 0
0 0 0 0
0 0 0 0
0 0 0 0
0 0 0 0
0 0 0 0
0 0 0 0
0 0 0 0
0 0 0 0
0 0 0 0
0 0 0 0
0 0 0 0
0 0 0 0
0 0 0 0
0 0 0 0
0 0 0 0
0 0 0 0
0 0 0 0
0 0 0 0
0 0 0 0
0 0 0 0
0 0 0 0
12672.37 4616.3989 13233.769 65536
12682.151 4591.4644 13162.289 1447187
0 0 0 0
0 0 0 0
0 0 0 0
-8620.0771 3343.8638 9425.2246 0
-8579.0947 3349.7339 9441.7705 0
-8552.0947 3361.177 9474.0254 0
-9565.7656 3784.491 10667.205 0
-9522.5029 3792.5107 10689.81 0
-9480.4727 3801.1323 10714.111 0
-9415.168 3800.4756 10712.26 0
-9357.3818 3802.8655 10718.996 0
-9306.1709 3807.9783 10733.407 0
-9254.8232 3813.106 10747.86 0
-9201.5576 3817.5088 10760.271 0
-9143.668 3820.0417 10767.41 0
-9089.1738 3824.0383 10778.676 0
-9039.7744 3830.251 10796.187 0
-8977.4971 3831.0564 10798.457 0
-8923.3008 3835.3474 10810.552 0
-8868.9316 3839.6252 10822.609 0
-8804.5029 3839.5791 10822.479 0
-8744.7725 3841.5962 10828.165 0
-8692.498 3846.9426 10843.234 0
-8645.3887 3854.6719 10865.021 0
-8593.3623 3860.3096 10880.911 0
-8542.7051 3866.6514 10898.787 0
-8483.3164 3869.1079 10905.711 0
-8428.3008 3873.6123 10918.407 0
-8371.8613 3877.5271 10929.442 0
-8314.9229 3881.2703 10939.993 0
-8259.7432 3885.8994 10953.041 0
-8201.9062 3889.3428 10962.746 0
-8150.0566 3895.7029 10980.674 0
-8095.1484 3900.6919 10994.736 0
-8039.9541 3905.6235 11008.636 0
-7986.4521 3911.4644 11025.1 0
-7938.3496 3920.0679 11049.351 0
-7885.5522 3926.4775 11067.417 0
-7841.106 3937.189 11097.608 0
-7792.0879 3945.7664 11121.785 0
-7745.6338 3955.7998 11150.066 0
-7701.5625 3967.2339 11182.296 0
-7656.7954 3978.5063 11214.068 0
-7610.8423 3989.3545 11244.646 0
-7563.1851 3999.4937 11273.225 0
-7511.1465 4007.4763 11295.726 0
-7461.0332 4016.6392 11321.553 0
-7410.5693 4025.7793 11347.315 0
-7358.5601 4034.2393 11371.161 0
-7304.6123 4041.7839 11392.427 0
-7252.9155 4050.7268 11417.634 0
-7200.7954 4059.5999 11442.644 0
-7143.7173 4065.8201 11460.177 0
-7085.0977 4071.2749 11475.552 0
-7023.813 4075.2888 11486.866 0
-6967.5103 4082.3005 11506.63 0
-6916.479 4092.5713 11535.579 0
-6859.3755 4099.4175 11554.877 0
-6800.9346 4105.5957 11572.291 0
-6749.2817 4116.0396 11601.729 0
-6692.6074 4123.605 11623.053 0
-6630.186 4127.7505 11634.737 0
-6572.8345 4135.1724 11655.658 0
-6511.9468 4140.5049 11670.688 0
-6450.9922 4145.9082 11685.919 0
-6395.312 4154.856 11711.14 0
-6344.9614 4167.5015 11746.783 0
-6309.3096 4190.1909 11810.735 0
-6273.6792 4213.4048 11876.168 0
-6237.9253 4237.063 11942.853 0
-6196.9004 4257.6445 12000.865 0
-6157.7832 4280.0308 12063.965 0
-6124.834 4307.2822 12140.777 0
-6079.689 4326.5049 12194.96 0
-6040.9199 4350.7837 12263.393 0
-6004.5693 4377.4185 12338.467 0
-5977.3574 4411.4561 12434.407 0
-5928.5044 4430.1738 12487.167 0
-5892.8174 4459.3301 12569.349 0
-5855.2026 4487.7573 12649.476 0
-5813.1733 4513.4966 12722.025 0
-5755.0562 4527.2583 12760.815 0
-5721.5015 4560.9683 12855.832 0
-5674.3008 4584.5654 12922.345 0
-5621.5742 4604.2842 12977.925 0
-5573.6436 4628.5342 13046.277 0
-5516.0078 4645.2944 13093.521 0
-5471.6089 4673.8428 13173.987 65536
-5413.1816 4691.0625 13222.524 65536
-5361.4229 4714.6528 13289.019 65536
-5322.5254 4750.4287 13389.857 65536
-5469.7671 4955.9434 13969.135 65536
-5483.3735 5044.8452 14219.719 65536
-5169.9443 4830.9395 13616.79 65536
-5129.834 4869.688 13726.01 65536
-5129.2651 4947.832 13946.271 65536
-5070.2036 4971.1929 14012.118 65536
-5260.0845 5243.4912 14779.635 65536
-5212.9189 5284.7261 14895.862 65536
-5157.665 5319.0449 14992.595 0
-4922.3257 5165.5845 14560.043 0
-4849.8257 5180.5776 14602.302 0
-4754.1499 5170.9087 14575.05 256
-4655.4717 5157.5557 14537.411 256
-4590.4258 5181.6611 14605.356 256
-4568.73 5256.5723 14816.506 256
-4508.1592 5288.8213 14907.404 256
-4479.5659 5360.6299 15109.81 0
-4466.98 5454.9248 15375.595 0
-4391.9727 5475.3389 15433.135 0
-4250.4897 5411.9829 15254.557 0
-4214.082 5482.5698 15453.518 0
-4160.1128 5532.9453 15595.509 0
-4140.6621 5632.5728 15876.325 0
-4076.7417 5674.9438 15995.754 0
-3999.5347 5700.4009 16067.509 0
-3933.9084 5744.0127 16190.437 0
-3846.2495 5756.8345 16226.576 0
-3811.6726 5851.8091 16494.277 0
-3756.2576 5918.9614 16683.559 0
-3626.6968 5869.752 16544.854 0
-3556.0913 5915.8774 16674.865 0
-3467.6172 5934.0688 16726.141 0
-3367.1902 5932.2759 16721.086 0
-3284.5425 5962.6494 16806.699 256
-3207.9412 6006.2495 16929.594 256
-3131.3857 6052.7617 17060.695 256
-3063.135 6118.9766 17247.332 256
-3003.0605 6206.6753 17494.525 256
-2888.1602 6183.2866 17428.602 256
-2790.1487 6195.6616 17463.482 256
-2715.5864 6263.0747 17653.496 0
-2605.5081 6250.7007 17618.619 0
-2667.78 6668.0786 18795.066 0
-2597.4888 6776.1167 19099.59 0
-2478.0586 6759.9819 19054.111 0
-2417.75 6911.3047 19480.639 0
-2321.9509 6971.2949 19649.73 65536
-2187.8726 6916.6255 19495.637 65536
-2033.4227 6787.8384 19132.629 65536
-1919.2856 6786.335 19128.391 65536
-1815.6354 6824.0566 19234.715 65536
-1701.3851 6824.3301 19235.486 65536
-1587.2529 6825.1509 19237.801 65536
-1488.7675 6898.6025 19444.836 65536
-1384.7006 6956.3784 19607.686 65536
-1265.5166 6941.8491 19566.732 65536
-1152.5596 6961.9917 19623.51 65536
-1044.5959 7020.23 19787.662 65536
0 0 0 0
0 0 0 0
-689.28522 6994.9009 19716.268 65536
-561.39532 6863.9614 19347.195 65536
-445.16281 6844.8115 19293.217 65536
-329.52719 6824.7363 19236.631 65536
-215.07266 6820.7832 19225.49 196608
-100.71271 6814.2729 19207.139 196608
13.465109 6826.0146 19240.236 196608
127.56216 6812.4336 19201.955 196608
240.94952 6791.6743 19143.441 196608
350.03122 6701.7954 18890.102 196608
459.3309 6658.7295 18768.715 65536
567.47699 6619.0386 18656.84 65536
676.36017 6599.5156 18601.811 65536
779.04547 6533.4995 18415.734 65536
883.73785 6498.5068 18317.102 65536
989.16614 6476.0073 18253.684 65536
1096.4044 6468.6348 18232.902 65536
1197.5626 6429.9438 18123.844 65536
1302.2604 6415.0742 18081.932 196608
1403.3138 6385.8877 17999.666 196608
1497.6204 6332.3086 17848.645 196608
1587.304 6267.5649 17666.152 196608
1692.9143 6269.8394 17672.564 196608
1791.0017 6245.6147 17604.283 196608
1881.7965 6200.0366 17475.814 196608
1978.1534 6176.5938 17409.736 196608
2064.8088 6126.6958 17269.09 196608
2155.2878 6092.3311 17172.229 196608
2240.8481 6047.7988 17046.707 196608
2323.6851 6000.0874 16912.225 196608
2409.5825 5963.9072 16810.244 196608
2503.532 5949.7446 16770.324 196608
2588.2827 5915.6411 16674.199 196608
2670.6602 5878.8296 16570.439 196608
2761.5986 5862.8105 16525.287 262144
2849.5994 5841.8696 16466.262 262144
2910.0781 5767.771 16257.403 393216
2982.2837 5720.9307 16125.375 393216
3049.3364 5667.4292 15974.573 393216
3127.4539 5637.103 15889.094 393216
3195.4614 5590.8657 15758.767 393216
3260.3381 5541.9404 15620.862 393216
3315.5732 5479.7891 15445.679 393216
3381.0129 5437.3975 15326.19 393216
3451.4917 5405.1221 15235.217 327680
3503.5093 5346.3242 15069.487 262144
3621.6882 5388.9038 15189.503 196608
3685.9578 5351.147 15083.08 196608
3724.29 5278.4233 14878.098 262144
3796.8843 5256.5059 14816.319 262144
3815.6409 5162.7373 14552.017 393216
3706.3584 4903.7222 13821.94 393216
3775.4429 4886.813 13774.278 393216
3799.4656 4813.5322 13567.725 458752
3929.5767 4874.9067 13740.72 524288
3916.5652 4759.8447 13416.398 589824
4005.625 4770.9473 13447.692 655360
4153.0879 4849.8164 13669.998 720896
4299.9292 4924.9463 13881.765 720896
4394.605 4938.6255 13920.32 786432
4477.0708 4938.3306 13919.489 851968
4550.0195 4927.7388 13889.635 851968
4614.4399 4908.4531 13835.275 851968
4672.5254 4883.2222 13764.157 655360
4734.7266 4863.0869 13707.403 655360
4784.8916 4831.479 13618.312 458752
4835.5132 4801.3765 13533.462 262144
4880.2456 4766.5063 13435.176 131072
4940.6836 4747.8525 13382.597 0
4996.1567 4725.0938 13318.447 0
5063.9634 4714.5273 13288.664 0
5137.1641 4709.2305 13273.733 0
5210.7617 4704.4526 13260.266 0
5294.2861 4708.6445 13272.082 0
5357.9697 4695.3271 13234.545 0
5411.0493 4673.2368 13172.28 0
5483.4751 4668.2466 13158.214 0
5550.8721 4659.1758 13132.646 0
5629.2017 4659.4058 13133.295 0
5695.1094 4649.4878 13105.34 0
5754.6924 4634.7446 13063.782 0
5803.0513 4611.4736 12998.19 65536
5860.5645 4595.9937 12954.557 65536
5913.2993 4577.2163 12901.63 0
5991.4917 4578.3726 12904.89 0
6078.2178 4585.939 12926.216 0
6169.8159 4596.9453 12957.24 256
6250.3745 4599.5571 12964.602 0
6322.2153 4595.7686 12953.922 0
6370.2515 4574.9746 12895.312 256
6420.5918 4556.3101 12842.703 256
6502.9658 4560.5503 12854.654 256
6550.2236 4540.3501 12797.717 256
6638.2446 4548.5449 12820.815 256
6680.1494 4525.3135 12755.334 256
6712.3418 4496.0977 12672.984 256
6762.8208 4479.6431 12626.604 256
7803.9077 5112.52 14410.471 256
7963.5264 5160.4551 14545.584 256
8102.5957 5194.187 14640.663 256
7064.9219 4480.8638 12630.045 256
6180.8384 3878.9277 10933.391 256
6228.4844 3868.1621 10903.046 256
7406.0771 4552.1392 12830.946 0
7515.939 4572.583 12888.57 0
7526.6626 4532.9082 12776.74 0
6639.7295 3958.8149 11158.565 0
7652.8086 4517.7197 12733.931 0
7737.1948 4522.8086 12748.273 65536
7853.207 4546.1055 12813.939 65536
7937.1147 4550.5493 12826.465 65536
8285.1113 4704.876 13261.46 65536
8183.0244 4603.1138 12974.627 65536
8224.4287 4583.2148 12918.538 65536
8338.0596 4603.561 12975.887 0
8438.96 4616.5698 13012.555 0
8532.8896 4625.564 13037.905 0
9000.9297 4835.3716 13629.283 0
8766.0449 4667.1875 13155.229 0
8838.3945 4664.1069 13146.546 0
9119.5928 4770.3271 13445.944 0
9238.0557 4790.3164 13502.287 65536
9220.4922 4740.0332 13360.557 65536
9328.2363 4754.4771 13401.268 65536
9387.6113 4744.2314 13372.389 0
9515.585 4768.5342 13440.892 0
9591.042 4766.3345 13434.69 0
9677.0283 4769.3604 13443.22 0
9791.3438 4786.1836 13490.64 0
9934.1865 4816.5664 13576.277 0
10014.117 4816.2017 13575.25 0
10156.65 4845.7109 13658.426 65536
10392.107 4918.7339 13864.253 0
10593.289 4974.5127 14021.475 65536
10750.232 5008.8086 14118.144 196608
10966.658 5070.0732 14290.828 196608
11297.347 5182.8164 14608.612 196608
11661.534 5309.0898 14964.536 196608
12150.905 5490.0127 15474.496 131072
14902.223 6682.5308 18835.803 65536
13252.562 5898.4712 16625.803 65536
13467.682 5949.8545 16770.635 65536
13882.793 6088.1875 17160.549 0
13834.821 6022.9023 16976.531 0
0 0 0 0
0 0 0 0
0 0 0 0
0 0 0 0
0 0 0 0
0 0 0 0
0 0 0 0
0 0 0 0
0 0 0 0
0 0 0 0
0 0 0 0
0 0 0 0
0 0 0 0
0 0 0 0
0 0 0 0
0 0 0 0
0 0 0 0
0 0 0 0
0 0 0 0
0 0 0 0
0 0 0 0
18222.055 6836.0405 19268.494 196608
16337.747 6090.8594 17168.08 131072
14995.488 5555.7554 15659.803 131072
13835.061 5094.2051 14358.848 263171
12538.609 4588.5352 12933.534 986892
0 0 0 0
0 0 0 0
-8650.5049 3411.8818 9458.4941 0
-8612.5693 3419.1392 9478.6123 0
-9584.832 3830.1746 10618.094 0
-9543.5361 3838.948 10642.416 0
-9492.8848 3844.0508 10656.562 0
-9438.3809 3847.6509 10666.542 0
-9388.2568 3853.0977 10681.642 0
-9329.9766 3855.2476 10687.603 0
-9278.918 3860.4324 10701.976 0
-9219.0674 3862.0056 10706.337 0
-9165.8076 3866.3806 10718.465 0
-9110.9365 3870.1323 10728.866 0
-9055.0391 3873.498 10738.196 0
-9000.8643 3877.6533 10749.716 0
-8947.2393 3882.1072 10762.062 0
-8890.5195 3885.2727 10770.838 0
-8835.6982 3889.3188 10782.056 0
-8780.6855 3893.3403 10793.204 0
-8728.1406 3898.5227 10807.57 0
-8666.9775 3899.9041 10811.399 0
-8619.5918 3907.5525 10832.603 0
-8571.6504 3915.061 10853.418 0
-8521.1396 3921.5017 10871.273 0
-8466.6719 3926.2061 10884.314 0
-8411.8408 3930.8125 10897.085 0
-8356.2236 3935.1201 10909.026 0
-8297.8301 3938.1777 10917.503 0
-8242.5469 3942.7712 10930.237 0
-8185.6621 3946.666 10941.034 0
-8129.1138 3950.7866 10952.457 0
-8073.835 3955.5955 10965.788 0
-8024.249 3963.2939 10987.131 0
-7970.3931 3968.9937 11002.931 0
-7919.8345 3976.4421 11023.58 0
-7873.5317 3986.1694 11050.547 0
-7830.7876 3997.8779 11083.005 0
-7785.0967 4008.2671 11111.807 0
-7739.2515 4018.7542 11140.879 0
-7693.978 4029.7224 11171.284 0
-7647.6948 4040.3472 11200.739 0
-7599.6494 4050.2197 11228.108 0
-7550.7666 4059.8171 11254.714 0
-7501.7139 4069.4937 11281.54 0
-7449.8223 4077.791 11304.542 0
-7398.4229 4086.511 11328.716 0
-7345.791 4094.7043 11351.429 0
-7295.6631 4104.4585 11378.47 0
-7240.813 4111.7129 11398.581 0
-7188.5322 4120.5776 11423.156 0
-7132.7358 4127.5771 11442.561 0
-7075.8164 4134.0557 11460.52 0
-7018.9209 4140.6729 11478.865 0
-6956.6162 4144.1987 11488.639 0
-6901.0205 4151.8306 11509.796 0
-6843.6309 4158.5254 11528.355 0
-6789.4751 4167.3398 11552.791 0
-6731.2646 4173.8208 11570.757 0
-6675.0225 4181.6685 11592.513 0
-6616.9897 4188.5464 11611.58 0
-6556.0903 4193.7358 11625.966 0
-6491.998 4196.9712 11634.936 0
-6433.5581 4203.9697 11654.337 0
-6378.502 4213.3555 11680.357 0
-6328.2241 4226.1396 11715.798 0
-6295.2861 4250.917 11784.485 0
-6261.5332 4275.6953 11853.176 0
-6222.0791 4297.1001 11912.515 0
-6180.4912 4317.5068 11969.087 0
-6146.3804 4343.6729 12041.625 0
-6111.4741 4369.8867 12114.296 0
-6077.3408 4397.2847 12190.249 0
-6033.3179 4418.1021 12247.96 0
-5990.6133 4440.4053 12309.789 0
-5959.7075 4472.1138 12397.691 0
-5923.5786 4500.6475 12476.793 0
-5882.772 4526.3047 12547.922 0
-5845.4155 4555.3101 12628.331 0
-5806.7681 4584.0513 12708.008 0
-5769.4604 4614.6216 12792.755 0
-5723.3838 4638.9009 12860.062 0
-5695.6885 4678.937 12971.052 0
-5651.2441 4706.124 13046.42 0
-5602.9839 4730.8457 13114.954 0
-5562.9331 4763.2944 13204.909 65536
-5593.9355 4858.3823 13468.514 65536
-5511.8843 4856.6167 13463.62 65536
-5400.2471 4828.3472 13385.25 65536
-5416.5361 4915.3203 13626.359 65536
-5424.644 4997.3975 13853.896 65536
-5262.4116 4922.6616 13646.711 65536
-5193.2485 4934.0098 13678.17 65536
-5320.3296 5135.1313 14235.724 0
-5275.8403 5174.4795 14344.805 65536
-5156.9907 5140.9897 14251.964 65536
-5050.707 5119.1177 14191.331 65536
-5111.812 5269.0405 14606.95 65536
-5274.6567 5530.8242 15332.673 0
-4997.0005 5331.7983 14780.929 0
-4842.4087 5259.3081 14579.97 0
-4762.0171 5266.2339 14599.169 256
-4679.5244 5271.0488 14612.518 256
-4619.6289 5301.9824 14698.271 256
-4576.9341 5354.2285 14843.11 256
-4510.3818 5380.0718 14914.753 256
-4473.4116 5442.9443 15089.05 0
-4426.7339 5496.3364 15237.065 0
-4328.5122 5486.6235 15210.139 0
-4241.9272 5491.5615 15223.827 0
-4204.4751 5561.707 15418.287 0
-4151.0796 5613.4199 15561.646 0
-4101.1777 5672.3208 15724.933 0
-4042.9678 5722.2104 15863.237 0
-3967.8513 5749.9819 15940.226 0
-3886.1055 5769.2705 15993.697 0
-3803.9421 5788.8906 16048.09 0
-3753.5874 5859.1724 16242.926 0
-3702.0857 5931.3262 16442.953 0
-3619.2141 5955.77 16510.717 0
-3542.9753 5992.7969 16613.363 0
-3459.2114 6018.853 16685.596 0
-3369.8037 6036.3364 16734.064 256
-3276.377 6047.4658 16764.918 256
-3216.9707 6124.0571 16977.246 256
-3156.4937 6203.5049 17197.492 256
-3075.2544 6246.0991 17315.572 256
-2995.1958 6294.124 17448.709 256
-2881.2285 6271.7822 17386.773 256
-2788.9172 6296.6724 17455.773 256
-2703.2185 6338.9927 17573.094 0
-2611.9058 6371.02 17661.881 0
-2627.4729 6677.3496 18511.096 0
-2519.8391 6683.6733 18528.625 0
-2335.3008 6477.2695 17956.43 0
-2276.8 6617.4204 18344.959 0
-2179.2297 6652.4038 18441.939 0
-2176.1135 6994.6973 19390.854 0
-2047.528 6949.4238 19265.346 65536
-1908.5295 6861.3516 19021.189 65536
-1827.1876 6982.521 19357.098 65536
-1705.0323 6953.5269 19276.721 65536
-1567.4952 6853.106 18998.332 65536
-1459.496 6876.2598 19062.52 65536
-1348.5298 6888.1562 19095.498 65536
-1226.5593 6840.8652 18964.396 65536
-1120.0181 6878.7627 19069.457 65536
-1013.0795 6922.48 19190.65 65536
-910.2074 7008.6011 19429.398 65536
-794.91895 7010.251 19433.973 65536
-673.25629 6946.6938 19257.777 65536
-557.16095 6926.3096 19201.268 65536
-441.33575 6899.6475 19127.355 65536
-327.07721 6887.4751 19093.609 65536
-214.04195 6901.8125 19133.355 196608
-100.32647 6901.8569 19133.48 196608
13.333929 6872.752 19052.793 196608
126.07133 6845.6064 18977.541 196608
238.14841 6825.1733 18920.895 196608
349.96613 6812.7974 18886.588 131072
457.41718 6742.0718 18690.52 65536
564.6781 6696.73 18564.822 65536
670.74316 6654.3467 18447.326 65536
779.013 6642.6729 18414.965 65536
883.36475 6604.582 18309.367 65536
985.93176 6562.9663 18193.998 131072
1086.4253 6517.1377 18066.953 196608
1194.4797 6520.8301 18077.188 196608
1291.5851 6469.0723 17933.705 196608
1388.3811 6423.7754 17808.131 196608
1483.5894 6378.0693 17681.424 196608
1582.6667 6353.9434 17614.541 196608
1680.5447 6328.2939 17543.436 196608
1782.0802 6318.6099 17516.59 196608
1868.3772 6258.9478 17351.191 196608
1957.0347 6213.02 17223.871 196608
2049.031 6181.7319 17137.133 196608
2146.2874 6168.5239 17100.518 196608
2227.2175 6111.7095 16943.016 196608
2308.7771 6061.4629 16803.721 196608
2386.6455 6006.0942 16650.227 196608
2488.49 6013.0693 16669.562 196608
2577.2263 5989.0483 16602.971 196608
2655.6362 5943.6875 16477.221 196608
2743.6145 5922.207 16417.672 196608
2826.8904 5892.3994 16335.039 262144
2893.5613 5831.1099 16165.13 262144
2961.7456 5776.7104 16014.323 262144
3031.5054 5728.6763 15881.162 262144
3098.8201 5679.0615 15743.619 262144
3170.3674 5639.8853 15635.014 393216
3235.9878 5592.6963 15504.196 393216
3293.2424 5534.0625 15341.649 393216
3358.6628 5491.9404 15224.878 393216
3427.3706 5457.2627 15128.744 196608
3486.0593 5408.8125 14994.429 196608
3571.6523 5403.4814 14979.65 196608
3629.781 5357.8691 14853.202 393216
3713.3164 5351.0356 14834.259 327680
3767.395 5303.0547 14701.244 393216
3766.3638 5181.4341 14364.085 458752
3704.9175 4983.9321 13816.566 458752
3762.4006 4951.5142 13726.695 524288
3824.1394 4925.9526 13655.834 524288
3859.9094 4868.6982 13497.112 524288
3902.7993 4822.5728 13369.242 524288
3981.8577 4822.0889 13367.9 458752
4222.3569 5013.3066 13897.998 589824
4307.54 5016.3145 13906.336 655360
4380.1064 5004.7925 13874.396 655360
4459.4565 5001.3037 13864.725 851968
4532.9868 4991.5342 13837.641 851968
4599.9761 4975.0371 13791.908 851968
4654.9316 4946.332 13712.33 851968
4716.1748 4925.1802 13653.692 720896
4767.5161 4894.5791 13568.859 524288
4819.9653 4866.1138 13489.947 393216
4851.8438 4818.1519 13356.986 196608
4902.8853 4790.458 13280.213 65536
4946.9185 4756.9033 13187.191 65536
5000.4707 4733.4053 13122.05 0
5075.0635 4730.2397 13113.274 0
5141.9702 4720.1147 13085.205 0
5218.5156 4719.0073 13082.136 0
5291.479 4714.7407 13070.308 0
5355.186 4702.4697 13036.29 0
5427.2417 4697.7749 13023.275 0
5493.4155 4688.1934 12996.712 0
5565.1348 4683.5439 12983.823 0
5627.2275 4671.0303 12949.133 0
5688.8057 4658.4336 12914.212 65536
5722.8569 4623.9312 12818.563 262144
5770.2266 4600.9556 12754.869 65536
5825.6411 4584.9062 12710.377 65536
5905.5859 4588.3267 12719.859 0
5991.9204 4596.5625 12742.691 0
6082.395 4607.729 12773.647 0
6167.1289 4614.3252 12791.934 0
6238.2788 4610.7202 12781.94 0
6290.0596 4593.0591 12732.979 0
6347.7812 4580.1045 12697.066 0
6403.1807 4565.7979 12657.405 256
6435.7041 4535.7017 12573.972 256
6492.7959 4523.4121 12539.902 256
6576.8447 4529.9692 12558.08 256
6624.1855 4511.3794 12506.544 256
6674.8345 4495.4302 12462.33 256
7649.0156 5094.9937 14124.453 256
7866.3193 5182.8579 14368.032 256
7973.584 5197.1128 14407.551 256
6948.7246 4480.9966 12422.317 256
6027.8364 3846.2805 10662.743 256
6093.3364 3847.6243 10666.468 256
8257.8828 5160.73 14306.689 0
7658.6084 4737.4355 13133.224 0
7391.5591 4526.1162 12547.398 0
6471.7603 3923.3079 10876.28 0
7507.6475 4506.2729 12492.39 0
7580.0825 4505.1968 12489.405 0
7639.9126 4496.7217 12465.911 65536
7761.5298 4524.4272 12542.717 65536
7003.208 4043.5425 11209.598 65536
7991.002 4570.4004 12670.164 65536
8094.9717 4586.6431 12715.192 65536
8053.1909 4520.7661 12532.567 0
7831.4355 4355.9917 12075.775 0
8325.9424 4588.9902 12721.7 0
8408.2373 4592.6416 12731.822 0
8508.1006 4605.7393 12768.131 0
8270.9336 4437.7705 12302.484 0
8350.8672 4441.3955 12312.534 65536
8804.2119 4641.8306 12868.184 65536
9038.6113 4724.3726 13097.01 65536
9162.4512 4748.2109 13163.095 65536
9302.4463 4779.9468 13251.073 0
9343.0605 4760.5132 13197.198 0
9332.6357 4715.6133 13072.727 0
9245.8193 4633.1748 12844.188 0
9380.2783 4662.0615 12924.27 0
9496.168 4681.3252 12977.672 0
9562.7783 4676.1802 12963.409 0
9601.8145 4657.7422 12912.295 0
10136.686 4878.2139 13523.492 0
10576.435 5049.7993 13999.165 65536
10761.305 5097.9634 14132.686 65536
10970.792 5156.9521 14296.216 65536
11505.784 5366.8662 14878.144 65536
11904.781 5510.6265 15276.681 131072
12215.445 5611.6318 15556.689 65536
12423.597 5664.3809 15702.921 65536
12802.984 5793.834 16061.793 65536
13186.744 5923.334 16420.797 65536
13837.445 6169.9585 17104.494 0
13805.291 6110.7275 16940.293 0
14028.155 6164.4189 17089.137 0
14328.894 6251.312 17330.023 0
14552.824 6303.6943 17475.24 0
15315.431 6587.0142 18260.666 65536
15880.742 6782.0898 18801.459 65536
0 0 0 0
0 0 0 0
0 0 0 0
17092.857 7099.9087 19682.523 196608
0 0 0 0
0 0 0 0
0 0 0 0
0 0 0 0
0 0 0 0
0 0 0 0
0 0 0 0
0 0 0 0
0 0 0 0
0 0 0 0
0 0 0 0
0 0 0 0
0 0 0 0
18083.414 6854.5986 19002.469 196608
15008.224 5653.6245 15673.102 196608
14387.356 5386.312 14932.053 196864
13808.451 5137.8896 14243.371 855307
0 0 0 0
0 0 0 0
-8638.7725 3463.3936 9445.666 0
-8581.3633 3462.8806 9444.2676 0
-9409.0293 3821.8721 10423.34 0
-9522.9512 3893.7827 10619.461 0
-9478.457 3901.447 10640.364 0
-9428.6445 3907.0112 10655.539 0
-9374.4727 3910.8315 10665.958 0
-9315.7734 3912.8025 10671.333 0
-9262.1924 3916.9648 10682.685 0
-9205.5703 3919.8896 10690.662 0
-9147.2354 3922.1211 10696.747 0
-9094.6777 3926.8772 10709.719 0
-9038.9434 3930.3198 10719.108 0
-8982.9102 3933.6809 10728.274 0
-8928.2461 3937.6934 10739.218 0
-8872.2275 3941.1616 10748.677 0
-8817.4385 3945.2302 10759.773 0
-8760.3232 3948.3103 10768.174 0
-8705.2344 3952.356 10779.207 0
-8653.3252 3957.916 10794.37 0
-8605.71 3965.5371 10815.156 0
-8560.9189 3974.5845 10839.83 0
-8508.7803 3980.3315 10855.505 0
-8457.8115 3986.7185 10872.923 0
-8400.9717 3990.4146 10883.004 0
-8343.3154 3993.7776 10892.176 0
-8285.4521 3997.093 10901.218 0
-8228.8828 4001.0898 10912.118 0
-8174.2783 4006.113 10925.818 0
-8119.6602 4011.2107 10939.721 0
-8064.6519 4016.1956 10953.315 0
-8010.0845 4021.4829 10967.736 0
-7961.6128 4029.9429 10990.809 0
-7907.7466 4035.7898 11006.755 0
-7859.1309 4044.4358 11030.335 0
-7808.0225 4051.9336 11050.784 0
-7763.1133 4062.8032 11080.429 0
-7718.8833 4074.218 11111.56 0
-7675.5752 4086.3193 11144.563 0
-7630.0913 4097.4639 11174.958 0
-7584.6099 4108.8052 11205.889 0
-7536.9883 4119.1772 11234.177 0
-7485.7612 4127.7471 11257.549 0
-7434.9751 4136.7168 11282.012 0
-7383.1895 4145.2886 11305.39 0
-7339.2593 4158.4688 11341.336 0
-7307.7378 4178.9897 11397.302 0
-7228.0078 4172.0679 11378.424 0
-7171.459 4178.522 11396.026 0
-7118.6152 4187.2783 11419.908 0
-7070.6519 4199.1021 11452.154 0
-7013.6899 4205.7593 11470.311 0
-6954.2373 4211.0391 11484.71 0
-6892.6499 4215.1187 11495.836 0
-6839.3472 4224.396 11521.139 0
-6778.7075 4229.2837 11534.469 0
-6723.0635 4237.4209 11556.66 0
-6664.7119 4244.001 11574.606 0
-6605.2188 4249.9844 11590.924 0
-6545.0557 4255.6577 11606.397 0
-6482.6274 4259.9639 11618.142 0
-6424.4756 4267.2026 11637.885 0
-6371.1826 4277.8623 11666.955 0
-6324.6147 4293.3213 11709.116 0
-6285.5981 4314.3066 11766.351 0
-6250.4971 4338.4824 11832.284 0
-6218.6768 4365.5112 11906 0
-6173.8262 4383.9102 11956.179 0
-6139.3477 4410.188 12027.847 0
-6099.4351 4433.1362 12090.432 0
-6060.5781 4457.4072 12156.626 0
-6016.8447 4478.6343 12214.519 0
-5981.4873 4506.6904 12291.036 0
-5938.5225 4529.6377 12353.62 0
-5911.7202 4565.6426 12451.815 0
-5869.3457 4590.3809 12519.284 0
-5836.8989 4623.6187 12609.933 0
-5808.2861 4660.7974 12711.33 0
-5761.8789 4684.4893 12775.944 0
-5727.2754 4718.5381 12868.806 0
-5673.6904 4737.6597 12920.955 0
-5642.0483 4775.8794 13025.19 0
-5585.3545 4793.6621 13073.689 0
-5543.4761 4824.8413 13158.724 65536
-5604.5923 4947.8379 13494.172 65536
-5555.5884 4975.7788 13570.374 65536
-5404.0107 4911.3208 13394.578 65536
-5359.6558 4943.8394 13483.266 65536
-5310.9302 4973.2524 13563.484 65536
-5254.0098 4995.7798 13624.923 65536
-5219.0386 5040.21 13746.097 65536
-5185.9077 5087.8589 13876.049 65536
-5207.6367 5191.7397 14159.361 131072
-5131.9785 5200.3486 14182.84 65536
-5188.897 5345.832 14579.614 65536
-5109.1265 5353.0415 14599.277 65536
-5006.7983 5336.4575 14554.048 0
-4954.8931 5373.9775 14656.376 0
-4844.8794 5348.6899 14587.409 0
-4764.3096 5355.5786 14606.197 256
-4683.6865 5362.6621 14625.515 256
-4645.791 5419.8599 14781.511 256
-4607.5747 5478.8813 14942.479 256
-4541.2188 5506.1045 15016.725 256
-4478.3013 5538.6709 15105.543 0
-4417.7251 5575.5259 15206.056 0
-4339.312 5590.9375 15248.088 0
-4289.311 5644.395 15393.882 0
-4207.2271 5657.0444 15428.38 0
-4146.6924 5699.8779 15545.2 0
-4083.7766 5741.3154 15658.212 0
-4020.6367 5784.3638 15775.617 0
-3954.0564 5824.3994 15884.807 0
-3876.1165 5849.2529 15952.588 0
-3803.1978 5883.1182 16044.949 0
-3756.9556 5961.0537 16257.5 0
-3708.0601 6038.7812 16469.486 0
-3648.4866 6102.8638 16644.258 0
-3570.5366 6138.9224 16742.6 0
-3494.7681 6180.9067 16857.104 256
-3396.6863 6184.7407 16867.561 256
-3318.5247 6226.1826 16980.584 256
-3252.8057 6294.3008 17166.361 256
-3177.3801 6347.4404 17311.287 256
-3102.553 6405.3701 17469.279 256
-3015.5208 6441.2427 17567.113 256
-2899.3049 6415.1152 17495.855 256
-2806.0417 6439.7173 17562.955 256
-2716.7312 6475.644 17660.938 0
-2764.6467 6854.6982 18694.725 0
-2514.1182 6494.5454 17712.486 0
-2437.5134 6571.8345 17923.275 0
-2327.3315 6561.5225 17895.152 0
-2215.5088 6545.3755 17851.113 0
-2119.3757 6576.2866 17935.418 0
-2076.0017 6782.8511 18498.779 65536
-1975.3333 6814.8545 18586.061 65536
-1868.4937 6828.0967 18622.176 65536
-1774.3757 6892.4233 18797.613 0
-1660.3087 6882.6963 18771.084 0
-1545.2157 6867.0093 18728.301 65536
-1439.3893 6893.2646 18799.906 65536
-1334.3218 6927.8794 18894.311 65536
-1225.4009 6947.0093 18946.484 65536
-1118.3015 6981.3833 19040.232 65536
-1009.5558 7012.0625 19123.902 65536
-914.25739 7155.7754 19515.85 65536
-792.00977 7099.6768 19362.852 65536
-673.2243 7060.814 19256.863 65536
-556.69177 7034.5005 19185.098 65536
-441.05399 7008.8516 19115.145 65536
-326.68527 6992.5654 19070.729 65536
-213.22191 6988.6499 19060.051 196608
-99.951973 6989.3862 19062.059 196608
13.299962 6968.1929 19004.258 196608
126.40406 6976.7612 19027.625 196608
238.84961 6958.0527 18976.604 196608
348.53064 6896.6426 18809.119 196608
457.22742 6850.312 18682.764 65536
562.3125 6778.5498 18487.047 65536
666.41211 6720.3101 18328.211 65536
772.63452 6696.834 18264.186 65536
876.60138 6662.0015 18169.186 65536
981.1153 6638.5098 18105.117 65536
1081.3295 6593.4443 17982.211 0
1180.7408 6552.0303 17869.264 131072
1276.9944 6501.3745 17731.111 131072
1379.8982 6489.7197 17699.324 131072
1475.8341 6449.2661 17588.996 196608
1570.0155 6407.0044 17473.736 196608
1673.5485 6405.7808 17470.4 196608
1770.3547 6380.4585 17401.338 196608
1854.3312 6314.2432 17220.75 196608
1935.1759 6244.8491 17031.492 196608
2032.152 6231.8228 16995.965 196608
2114.0017 6175.8389 16843.281 196608
2226.051 6209.1543 16934.143 196608
2306.6345 6155.6157 16788.127 196608
2382.6326 6094.7871 16622.23 196608
2476.9766 6083.8633 16592.438 196608
2550.0352 6023.4966 16427.801 196608
2628.0586 5978.8784 16306.113 196608
2715.4822 5958.0571 16249.328 196608
2802.3025 5937.3892 16192.96 262144
2874.239 5887.6045 16057.184 262144
2934.5342 5817.9404 15867.189 262144
3004.6721 5771.5205 15740.59 262144
3081.5791 5740.5142 15656.026 262144
3148.0344 5692.4258 15524.876 393216
3209.9768 5639.1479 15379.572 393216
3260.1047 5568.6406 15187.277 393216
3327.5437 5530.7036 15083.813 393216
3396.0396 5496.4688 14990.444 393216
3458.0547 5453.7632 14873.974 393216
3522.2046 5416.4697 14772.264 393216
3616.5688 5426.3237 14799.139 393216
3677.2727 5386.4048 14690.269 393216
3725.8806 5331.0298 14539.246 393216
3722.8911 5206.0137 14198.29 458752
3798.6736 5194.25 14166.208 458752
3892.2378 5206.7837 14200.391 524288
3970.575 5198.8481 14178.748 524288
3937.8752 5048.8789 13769.739 524288
3991.0906 5012.9272 13671.688 524288
4119.772 5071.3071 13830.907 524288
4205.5649 5075.6411 13842.728 655360
4298.1162 5087.8091 13875.912 655360
4366.1846 5071.0835 13830.297 720896
4445.8335 5068.1768 13822.37 655360
4520.6216 5059.9355 13799.894 655360
4580.5742 5035.6782 13733.737 720896
4635.8423 5007.21 13656.097 655360
4703.5317 4992.9087 13617.092 655360
4759.5874 4966.9492 13546.293 524288
4799.4927 4925.2798 13432.649 458752
4819.3218 4864.709 13267.455 262144
4872.6553 4839.3643 13198.332 262144
4902.4082 4791.7729 13068.538 196608
4953.4038 4766.1069 12998.538 196608
5009.7036 4746.2539 12944.394 196608
5080.8125 4740.8193 12929.572 196608
5156.3901 4739.6543 12926.396 196608
5226.71 4733.7622 12910.325 196608
5287.0522 4719.1338 12870.43 196608
5355.1133 4711.7148 12850.196 196608
5424.0063 4705.2256 12832.499 131072
5491.0747 4697.356 12811.035 131072
5557.459 4689.124 12788.585 131072
5608.1602 4668.0601 12731.138 65536
5644.8325 4636.0361 12643.798 196608
5689.3013 4611.1719 12575.986 196608
5749.0098 4599.1436 12543.183 196608
5828.7739 4603.2627 12554.417 131072
5912.7246 4610.5425 12574.27 0
6012.4346 4629.7754 12626.724 0
6095.1284 4635.5928 12642.59 0
6148.2598 4619.0586 12597.496 0
6239.1021 4630.9126 12629.826 0
