# .PCD v0.7 - Point Cloud Data file format
VERSION 0.7
FIELDS x y z rgb
SIZE 4 4 4 4
TYPE F F F U
COUNT 1 1 1 1
WIDTH 1666
HEIGHT 1
VIEWPOINT 0 0 0 1 0 0 0
POINTS 1666
DATA ascii
1979.0842 5282.877 19453.002 0
2025.4689 5108.2739 18810.066 1381651
2150.6001 5140.1499 18927.441 0
2327.7327 5286.9673 19468.062 0
2414.3796 5224.0923 19236.539 0
2466.3315 5095.2256 18762.018 657930
2556.8577 5053.752 18609.299 0
2755.6855 5220.9048 19224.803 65536
2838.4675 5163.6421 19013.945 1118480
2961.5962 5181.3511 19079.154 0
3097.9929 5220.1099 19221.877 0
3275.8984 5323.5679 19602.836 0
3318.593 5207.7373 19176.316 1250066
3384.6577 5135.0552 18908.682 131585
3492.9878 5129.1074 18886.779 0
3575.6177 5086.9663 18731.605 0
3738.5054 5158.104 18993.555 65536
3856.6028 5165.0845 19019.258 65536
3941.3997 5128.3389 18883.949 65536
3985.1565 5041.707 18564.947 65536
4252.6206 5235.1357 19277.205 65536
4167.3853 4995.6196 18395.24 0
4249.5571 4963.897 18278.43 0
4340.2085 4943.4136 18203.004 0
4449.9331 4945.1226 18209.297 256
4704.4912 5103.8799 18793.885 1250581
4775.0483 5060.2803 18633.34 5725019
4887.0703 5061.6035 18638.213 5923424
5027.2539 5091.3896 18747.893 3159349
5236.895 5188.7012 19106.221 5922398
5061.772 4908.7505 18075.365 724237
5401.3223 5129.1772 18887.037 1711901
0 0 0 0
0 0 0 0
0 0 0 0
0 0 0 0
0 0 0 0
6107.7646 5156.9805 18989.416 6646119
6010.3599 4982.668 18347.549 256
6163.3848 5018.4775 18479.41 131586
6290.8398 5032.5776 18531.33 394758
6437.8623 5061.5767 18638.113 197379
6664.855 5151.4058 18968.889 0
6801.6313 5169.6758 19036.164 0
6977.5493 5216.6118 19208.994 0
7146.0088 5256.5493 19356.057 0
7330.9175 5307.1304 19542.309 0
0 0 0 0
7435.6948 5217.6519 19212.826 0
7766.168 5367.124 19763.223 0
7774.2778 5292.6797 19489.098 256
7973.3403 5348.5117 19694.686 256
7732.1162 5111.6572 18822.523 256
7861.5059 5123.0747 18864.566 0
8008.9824 5145.7925 18948.219 0
8077.1758 5117.647 18844.578 0
8092.9229 5057.4956 18623.086 0
8134.457 5014.8657 18466.109 0
8183.1519 4977.7261 18329.352 0
8304.6748 4985.2808 18357.17 0
8380.8154 4965.75 18285.254 0
8416.0967 4922.8198 18127.172 0
8470.7314 4892.1519 18014.244 2
8510.3799 4853.7026 17872.664 258
8475.0957 4773.9912 17579.145 2
8448.8789 4701.2676 17311.355 2
8458.7412 4650.1274 17123.045 2
8471.9619 4602.0283 16945.93 514
8876.9277 4765.3574 17547.354 66563
9179.166 4870.3867 17934.1 4279882
9153.0322 4800.7739 17677.766 7109238
8399.4502 4355.5239 16038.232 8293511
8198.7109 4203.7251 15479.268 7108723
7375.8984 3739.8787 13771.259 3159861
8028.7764 4026.2366 14825.707 257
8169.5244 4052.345 14921.845 526601
7766.4141 3811.0181 14033.213 1974048
8514.4229 4133.6777 15221.335 131844
8593.4062 4128.1616 15201.022 1842463
7875.9595 3744.1465 13786.974 258
8247.5352 3880.418 14288.763 2
8262.6865 3847.925 14169.115 460809
8462.4717 3901.2048 14365.306 131587
8437.5547 3850.8667 14179.946 1
8767.2676 3961.7747 14588.341 256
8387.9541 3753.252 13820.503 256
8780.2656 3890.6948 14326.604 256
9063.085 3977.4453 14646.045 256
9378.71 4076.8054 15011.915 256
9110.583 3922.9348 14445.321 0
9203.0215 3925.7434 14455.664 0
9251.7559 3910.0305 14397.804 0
9294.6133 3892.1436 14331.939 0
9360.9951 3884.3438 14303.219 0
9366.0967 3851.4839 14182.221 0
9412.1094 3835.8845 14124.778 0
9468.124 3824.6008 14083.229 0
9476.2891 3794.3555 13971.857 0
8323.9863 3304.0146 12166.288 0
8289.8662 3262.1345 12012.073 0
8271.3789 3227.0684 11882.95 256
8123.2407 3142.4407 11571.328 0
8145.4233 3124.5691 11505.52 0
9728.6182 3700.811 13627.4 0
9803.9912 3698.6909 13619.595 256
9876.6201 3695.5789 13608.135 256
9974.6465 3701.9436 13631.571 256
10077.923 3710.1379 13661.745 256
9997.3721 3651.0674 13444.231 256
10118.812 3666.1162 13499.646 1
10314.02 3707.4448 13651.828 1
10456.842 3729.4446 13732.837 2
10636.317 3764.075 13860.355 256
10637.743 3735.6475 13755.679 1
10941.195 3812.907 14040.169 1
10943.779 3784.9409 13937.189 256
11019.485 3782.4941 13928.181 256
13028.34 4438.6997 16344.508 395271
14508.606 4906.4375 18066.848 65793
0 0 0 0
0 0 0 0
0 0 0 0
0 0 0 0
0 0 0 0
0 0 0 0
0 0 0 0
0 0 0 0
0 0 0 0
0 0 0 0
0 0 0 0
0 0 0 0
0 0 0 0
0 0 0 0
0 0 0 0
0 0 0 0
0 0 0 0
15539.173 4637.1943 17075.42 197379
14444.442 4282.5366 15769.474 0
12512.087 3685.7104 13571.796 0
15588.137 4562.416 16800.066 723466
16769.812 4877.0347 17958.58 263171
16987.35 4909.0557 18076.488 921615
0 0 0 0
0 0 0 0
0 0 0 0
0 0 0 0
18054.812 5057.6021 18623.479 2171425
0 0 0 0
0 0 0 0
-9864.6367 2993.2812 10786.03 0
-9828.2012 3001.7324 10816.482 0
-9761.2764 3000.9209 10813.559 0
-9702.7139 3002.687 10819.923 0
-9650.7988 3006.5474 10833.833 0
-9584.2109 3005.8579 10831.349 0
-9532.373 3009.8162 10845.612 0
-9474.8662 3012.0264 10853.576 0
-9417.3154 3014.2527 10861.599 0
-9357.3555 3015.7332 10866.934 0
-9303.373 3019.1746 10879.334 0
-9238.2266 3019.0154 10878.76 0
-9177.3926 3020.2732 10883.293 0
-9130.9414 3026.3159 10905.067 0
-9067.6143 3026.8118 10906.854 0
-9010.5908 3029.4341 10916.304 0
-8951.1289 3031.2686 10922.914 0
-8896.2705 3034.7004 10935.28 0
-8840.374 3037.8259 10946.543 65536
-8787.042 3041.8857 10961.172 0
-8727.6211 3043.8823 10968.366 0
-8673.7051 3047.8435 10982.64 0
-8600.3457 3044.9807 10972.324 0
-8537.917 3045.9739 10975.903 0
-8479.1445 3048.2964 10984.272 0
-8416.8115 3049.3652 10988.124 0
-8350.25 3048.9072 10986.473 0
-8294.5039 3052.4216 10999.137 0
-8240.7666 3056.7371 11014.688 0
-8193.8564 3063.6746 11039.686 0
-8134.792 3066.1428 11048.58 0
-8076.1685 3068.8184 11058.222 0
-8018.9937 3072.093 11070.021 0
-7959.0415 3074.3494 11078.151 0
-7914.1045 3082.4915 11107.491 65536
-7869.1782 3090.7747 11137.339 65536
-7821.7295 3098.1992 11164.093 65536
-7776.8164 3106.7639 11194.955 65536
-7725.0654 3112.7209 11216.421 65536
-7687.0215 3124.3533 11258.337 0
-7641.7671 3133.2334 11290.335 0
-7594.8511 3141.5835 11320.424 0
-7544.2295 3148.5364 11345.478 0
-7493.5972 3155.6096 11370.967 0
-7440.9893 3161.9729 11393.895 0
-7394.874 3171.2371 11427.277 0
-7349.9985 3181.2092 11463.212 0
-7304.0923 3190.918 11498.196 0
-7253.3428 3198.6741 11526.146 0
-7205.3735 3207.8159 11559.088 0
-7158.2441 3217.5115 11594.024 0
-7110.6372 3227.1792 11628.86 0
-7060.1182 3235.7014 11659.569 0
-7014.1255 3246.4875 11698.437 0
-6966.0728 3256.5269 11734.612 0
-6921.1416 3268.2434 11776.832 0
-6874.9443 3279.595 11817.736 0
-6827.4883 3290.5745 11857.3 0
-6772.084 3297.9124 11883.741 0
-6705.5977 3299.9512 11891.088 0
-6661.5679 3313.2024 11938.837 0
-6621.2378 3328.5986 11994.316 0
-6583.7256 3345.7622 12056.164 0
-6552.0889 3366.3225 12130.251 0
-6506.8823 3380.2905 12180.584 0
-6471.5874 3399.7798 12250.812 0
-6434.5527 3418.7881 12319.307 0
-6397.9834 3438.4844 12390.28 65536
-6361.6299 3458.7563 12463.329 65536
-6323.3638 3478.4543 12534.309 65536
-6284.1807 3498.1113 12605.141 65536
-6286.4849 3541.6147 12761.901 0
-6214.3442 3543.7295 12769.521 0
-6174.438 3564.5049 12844.385 0
-6120.7051 3577.7183 12891.998 0
-6078.5679 3598.1311 12965.554 0
-6046.3628 3625.0225 13062.454 0
-6017.333 3654.542 13168.825 0
-5973.9189 3675.9883 13246.105 0
-5937.0181 3702.0686 13340.084 0
-5907.9258 3733.7898 13454.389 0
-5868.4653 3759.7395 13547.896 0
-5827.4883 3785.426 13640.454 0
-5789.9053 3814.0725 13743.68 0
-5755.6528 3845.7642 13857.879 0
-5706.3301 3868.1614 13938.584 256
-5665.4473 3897.0229 14042.585 256
-5620.873 3924.1707 14140.409 256
-5575.2334 3951.3875 14238.482 256
-5535.2617 3983.522 14354.277 256
-5477.0801 4003.3528 14425.735 0
-5416.9814 4022.3909 14494.337 256
-5371.002 4052.6978 14603.545 0
-5319.2808 4079.5967 14700.473 0
-5261.5244 4102.6875 14783.68 0
-5203.9268 4126.689 14870.167 0
-5224.2139 4214.3491 15186.043 0
-5085.1006 4174.2437 15041.525 0
-5033.0728 4205.4678 15154.039 0
-4980.4771 4237.3467 15268.912 0
-4920.8057 4264.2778 15365.956 0
-4864.3945 4295.1055 15477.041 0
-4802.1279 4321.8521 15573.42 0
-4733.1411 4343.4829 15651.364 0
-4659.0107 4361.1665 15715.086 0
-4597.1812 4391.3237 15823.755 0
-4537.1089 4424.4536 15943.136 0
-4470.5884 4452.5752 16044.469 0
-4397.7642 4475.5073 16127.103 0
-4315.4253 4489.562 16177.748 0
-4248.6333 4520.8008 16290.314 0
-4176.2607 4547.4194 16386.232 0
-4104.8818 4576.4175 16490.725 0
-4027.3223 4599.7749 16574.891 0
-3946.8445 4620.8872 16650.967 0
-3866.0686 4642.7275 16729.666 0
-3787.5601 4668.5151 16822.59 0
-3722.5955 4712.8481 16982.34 0
-3647.6028 4746.6021 17103.971 0
-3572.762 4782.4956 17233.309 0
-3482.2473 4798.9072 17292.447 0
-3395.5125 4821.6851 17374.523 0
-3304.2048 4839.1938 17437.615 0
-3218.5051 4866.3159 17535.348 0
-3141.4368 4908.7397 17688.219 0
-3094.7971 5003.2959 18028.943 0
-2995.1511 5015.8657 18074.238 0
-2909.0034 5052.8174 18207.391 0
-2856.7605 5153.791 18571.24 0
-2884.8765 5413.6802 19507.727 256
-2780.856 5436.9868 19591.711 256
-2536.8291 5176.6348 18653.555 131842
-2517.0969 5371.0972 19354.283 1382424
-2477.4294 5539.6084 19961.498 3356213
-2270.8125 5332.9907 19216.969 1513752
-2167.4409 5359.7998 19313.574 256
-2119.9133 5535.4248 19946.424 256
0 0 0 0
0 0 0 0
0 0 0 0
0 0 0 0
0 0 0 0
0 0 0 0
0 0 0 0
0 0 0 0
-1044.5892 5491.3311 19787.535 0
-910.11804 5391.4131 19427.49 197379
0 0 0 0
0 0 0 0
0 0 0 0
0 0 0 0
0 0 0 0
0 0 0 0
0 0 0 0
0 0 0 0
0 0 0 0
0 0 0 0
0 0 0 0
0 0 0 0
606.52673 5533.8281 19940.67 0
0 0 0 0
0 0 0 0
0 0 0 0
1073.3409 5496.7363 19807.014 65536
0 0 0 0
0 0 0 0
0 0 0 0
0 0 0 0
0 0 0 0
0 0 0 0
0 0 0 0
0 0 0 0
2047.16 5275.9717 19011.508 65793
2148.28 5246.9756 18907.021 0
2340.761 5432.9106 19577.023 0
2400.4705 5307.667 19125.719 0
2486.3906 5249.0825 18914.613 0
2575.1143 5201.2275 18742.174 0
2789.3237 5400.29 19459.477 1907996
2820.6641 5243.5522 18894.686 65792
2953.5771 5280.4082 19027.494 0
3054.6038 5259.6416 18952.664 0
3164.105 5254.4253 18933.867 0
3359.1819 5386.7979 19410.859 0
3442.0994 5336.4917 19229.586 0
3656.0715 5486.0718 19768.584 0
3550.5029 5161.7827 18600.037 0
3635.9492 5126.3936 18472.516 65536
3738.7964 5116.894 18438.283 65536
3820.3972 5079.6851 18304.205 65536
3911.4519 5056.7593 18221.594 0
3987.8071 5016.5767 18076.801 65536
4077.8154 4995.2271 17999.869 0
4124.5063 4923.2632 17740.553 0
4205.7505 4895.104 17639.082 0
4334.6748 4922.459 17737.654 256
4632.6426 5135.9238 18506.857 329478
0 0 0 0
5070.0732 5366.064 19336.146 5527381
4986.1343 5160.2593 18594.547 0
5086.499 5149.9834 18557.52 2433828
5218.0322 5171.0312 18633.363 394758
5444.5312 5283.3589 19038.127 1447960
0 0 0 0
0 0 0 0
0 0 0 0
0 0 0 0
0 0 0 0
0 0 0 0
6134.1411 5196.5757 18725.41 256
6268.5938 5215.8472 18794.854 256
6366.9399 5204.9268 18755.502 66050
6404.4395 5145.4966 18541.352 3685178
6544.7461 5169.2778 18627.045 0
6685.3379 5192.4893 18710.686 256
6849.7412 5233.1333 18857.143 658441
7161.6836 5383.3721 19398.516 1
7400.7817 5474.9614 19728.549 328967
7476.2314 5444.5181 19618.85 1
0 0 0 0
7356.5225 5195.2861 18720.764 0
7636.6699 5312.7773 19144.133 256
7829.334 5366.8506 19338.98 256
7919.73 5350.2705 19279.236 256
7649.3472 5093.9111 18355.467 256
7733.1484 5077.3057 18295.631 256
7823.5176 5065.4131 18252.777 256
7945.2144 5073.8516 18283.186 256
8017.5298 5050.9531 18200.672 0
8253.1504 5130.1748 18486.141 0
8579.8096 5263.1616 18965.346 0
8368.7539 5067.1226 18258.938 0
8257.4482 4935.7271 17785.465 0
8347.4033 4926.4316 17751.969 2
8529.6416 4971.1519 17913.115 2
8401.208 4835.939 17425.887 2
8343.9971 4744.5176 17096.459 1
8337.4131 4683.7373 16877.441 256
8327.292 4622.438 16656.555 256
8304.9688 4555.8857 16416.74 256
8416.1816 4563.2827 16443.395 256
8935.8154 4789.4155 17258.244 1448473
8425.1191 4464.4463 16087.246 1644826
8058.938 4222.4897 15215.375 526345
7575.333 3925.0608 14143.616 2
8171.791 4187.6387 15089.794 2
8193.2217 4153.0425 14965.129 4
8282.0996 4153.0098 14965.01 3
8327.1162 4131.2178 14886.485 3
8407.9736 4127.4775 14873.008 2
8382.9043 4072.3577 14674.388 1
8357.4492 4018.1868 14479.188 65537
8432.8262 4013.105 14460.877 65537
8513.6006 4010.6687 14452.098 1
8583.9307 4003.4104 14425.942 2
8683.8066 4009.9385 14449.466 2
8735.0938 3994.1216 14392.472 0
8428.9805 3816.7751 13753.419 0
8901.1885 3991.8867 14384.418 0
9018.0664 4005.8281 14434.655 0
9116.2432 4011.2791 14454.296 65536
9226.6816 4021.9722 14492.828 0
9296.292 4014.8354 14467.111 0
9306.1855 3982.2751 14349.783 0
9362.8896 3970.1555 14306.111 0
9378.1689 3940.8469 14200.501 0
9423.7764 3924.6919 14142.287 0
9509.5605 3925.4065 14144.863 0
9504.8418 3889.0784 14013.956 0
8339.7432 3382.7146 12189.319 0
8358.8145 3361.2517 12111.979 0
8322.9053 3318.2356 11956.975 256
8085.605 3196.3354 11517.718 0
9691.9209 3799.167 13689.969 0
9778.9844 3801.3821 13697.951 0
9848.7803 3796.9041 13681.815 0
9927.6875 3795.9832 13678.496 0
10032.67 3804.9666 13710.867 256
10079.115 3791.7832 13663.361 256
9956.7881 3715.8252 13389.654 256
10080.109 3732.0203 13448.012 0
10302.19 3784.2373 13636.171 0
10479.469 3819.3101 13762.553 0
10633.039 3845.2666 13856.085 0
10684.836 3834.3018 13816.574 0
11909.328 4241.1216 15282.515 0
11891.571 4202.7451 15144.229 256
11066.25 3881.6777 13987.289 256
11289.516 3930.4658 14163.093 256
14281.397 4935.2969 17783.914 0
0 0 0 0
0 0 0 0
0 0 0 0
0 0 0 0
0 0 0 0
16186.632 5355.8677 19299.404 6318951
0 0 0 0
0 0 0 0
0 0 0 0
0 0 0 0
0 0 0 0
0 0 0 0
0 0 0 0
0 0 0 0
0 0 0 0
0 0 0 0
17825.096 5471.5068 19716.102 723723
16345.779 4984.6548 17961.771 1118481
15896.205 4816.103 17354.41 0
14358.158 4322.0737 15574.22 256
16274.567 4867.5693 17539.865 2106403
0 0 0 0
0 0 0 0
0 0 0 0
0 0 0 0
0 0 0 0
0 0 0 0
18823.203 5388.2441 19416.072 855823
0 0 0 0
0 0 0 0
-8605.8115 2667.2336 9409.626 0
-8563.3418 2671.4314 9424.4346 0
-9545.8584 2997.5454 10574.919 0
-9703.3984 3067.21 10820.686 0
-9672.8975 3077.9685 10858.641 0
-9622.2627 3082.4219 10874.352 0
-9561.7676 3083.7551 10879.056 0
-9504.083 3086.0195 10887.044 0
-9444.4385 3087.6741 10892.881 0
-9386.2412 3089.8281 10900.479 0
-9325.3574 3091.1213 10905.042 0
-9266.5889 3093.1384 10912.158 0
-9206.0312 3094.5833 10917.255 0
-9150.0781 3097.6067 10927.922 0
-9096.4512 3101.467 10941.54 0
-9038.8818 3104.0288 10950.578 0
-8979.5156 3106.0066 10957.555 0
-8921.7812 3108.5811 10966.638 0
-8862.1719 3110.5359 10973.534 65536
-8803.2666 3112.7688 10981.411 0
-8743.8652 3114.8579 10988.781 0
-8688.5586 3118.4485 11001.448 0
-8627.5391 3120.0273 11007.018 0
-8565.9473 3121.4214 11011.937 0
-8507.7197 3124.0732 11021.291 0
-8446.123 3125.5186 11026.391 0
-8387.1602 3127.969 11035.035 0
-8326.7988 3129.9326 11041.963 0
-8268.2725 3132.6223 11051.452 0
-8203.2246 3132.865 11052.308 0
-8145.4766 3135.9219 11063.092 0
-8089.0039 3139.5229 11075.796 0
-8028.0659 3141.4363 11082.546 0
-7962.3394 3141.4919 11082.742 0
-7918.1235 3150.1062 11113.132 65536
-7875.3926 3159.4607 11146.134 65536
-7829.8115 3167.8213 11175.629 65536
-7786.8584 3177.3972 11209.411 65536
-7741.4482 3186.127 11240.208 65536
-7698.1353 3195.8796 11274.614 0
-7653.0186 3205.0479 11306.959 0
-7603.2319 3212.4058 11332.916 0
-7552.6309 3219.5479 11358.112 0
-7500.8652 3226.3176 11381.995 0
-7449.9346 3233.573 11407.592 0
-7399.9731 3241.3867 11435.157 0
-7356.687 3252.2961 11473.644 0
-7311.9521 3262.7629 11510.57 0
-7262.4331 3271.2727 11540.591 0
-7213.1504 3280.0522 11571.563 0
-7166.6562 3290.281 11607.649 0
-7118.0352 3299.7229 11640.959 0
-7071.2017 3310.1868 11677.874 0
-7019.2588 3318.4424 11706.999 0
-6973.6577 3329.8916 11747.391 0
-6928.2681 3341.6743 11788.957 0
-6882.5039 3353.5156 11830.732 0
-6832.5542 3363.5403 11866.098 0
-6774.5044 3369.7454 11887.989 0
-6709.0186 3372.3435 11897.154 0
-6663.7524 3385.2688 11942.753 0
-6622.479 3400.5227 11996.566 0
-6584.1001 3417.6106 12056.851 0
-6549.4531 3437.0334 12125.371 0
-6510.9873 3454.8618 12188.268 0
-6471.4268 3472.5044 12250.508 0
-6430.5952 3489.8582 12311.729 0
-6390.4458 3507.9861 12375.683 65536
-6354.1636 3528.6838 12448.701 65536
-6314.9673 3548.2319 12517.664 65536
-6277.8491 3569.4277 12592.439 65536
-6246.8843 3594.6753 12681.511 0
-6211.7402 3618.1062 12764.171 0
-6170.1089 3638.2905 12835.378 0
-6129.3799 3659.519 12910.27 0
-6077.7178 3674.6758 12963.74 0
-6044.3169 3701.4045 13058.035 0
-6013.8779 3730.6655 13161.264 0
-5968.9443 3751.5879 13235.075 0
-5932.0215 3778.1714 13328.857 0
-5900.7822 3809.1428 13438.121 0
-5859.3306 3834.2817 13526.808 0
-5814.8125 3858.0852 13610.783 0
-5777.9575 3887.7168 13715.319 0
-5743.2212 3919.6423 13827.947 0
-5700.6421 3947.0645 13924.689 256
-5667.2578 3981.7551 14047.072 256
-5623.249 4009.9065 14146.387 256
-5572.8809 4034.3088 14232.475 256
-5529.8804 4064.8792 14340.322 256
-5473.269 4086.2451 14415.698 256
-5415.0718 4107.0874 14489.228 256
-5364.1616 4134.2202 14584.947 0
-5308.2329 4158.312 14669.94 0
-5250.8486 4182.0493 14753.684 0
-5196.7964 4209.2925 14849.793 0
-5137.0908 4232.8184 14932.789 0
-5075.3799 4255.4897 15012.771 0
-5016.46 4281.355 15104.02 0
-4966.1138 4315.6138 15224.879 0
-4904.4614 4341.1357 15314.918 0
-4842.7695 4367.5879 15408.236 0
-4783.7632 4397.5283 15513.863 0
-4723.0771 4427.0718 15618.087 0
-4646.001 4442.1274 15671.202 0
-4580.3311 4468.9297 15765.756 0
-4522.5562 4504.7139 15891.997 0
-4454.3447 4531.4082 15986.172 0
-4382.4976 4555.4868 16071.117 0
-4304.5947 4574.2031 16137.147 0
-4229.8203 4597.1729 16218.18 0
-4163.4409 4630.5503 16335.932 0
-4088.3987 4655.6577 16424.506 0
-4009.8323 4677.8813 16502.908 0
-3939.7314 4711.3438 16620.959 0
-3856.9641 4730.9897 16690.268 0
-3783.3521 4763.1997 16803.9 0
-3708.417 4795.4453 16917.658 0
-3635.7153 4832.457 17048.23 0
-3548.6516 4851.9536 17117.012 0
-3454.1392 4862.1167 17152.865 0
-3384.4805 4908.9468 17318.074 0
-3309.8911 4951.3379 17467.625 0
-3221.8274 4975.665 17553.447 0
-3122.8337 4984.1758 17583.473 0
-3035.4192 5012.397 17683.033 0
-2957.4988 5058.8818 17847.025 0
-2871.3325 5094.1963 17971.609 0
-2786.2563 5134.248 18112.906 0
-2708.1704 5190.9175 18312.828 256
-2625.0681 5242.3154 18494.152 790028
-2626.9998 5475.4414 19316.588 263685
-2582.3831 5628.4204 19856.277 1053972
0 0 0 0
-2356.0457 5651.6592 19938.26 131842
-2137.5369 5399.0542 19047.105 0
-2111.4055 5631.2822 19866.373 0
0 0 0 0
0 0 0 0
0 0 0 0
0 0 0 0
0 0 0 0
0 0 0 0
0 0 0 0
0 0 0 0
0 0 0 0
-907.49481 5491.0049 19371.494 1250323
-804.41077 5574.4927 19666.027 131586
-677.71594 5494.9302 19385.342 263172
0 0 0 0
0 0 0 0
0 0 0 0
0 0 0 0
0 0 0 0
0 0 0 0
0 0 0 0
0 0 0 0
0 0 0 0
0 0 0 0
0 0 0 0
0 0 0 0
0 0 0 0
0 0 0 0
0 0 0 0
0 0 0 0
0 0 0 0
0 0 0 0
0 0 0 0
0 0 0 0
0 0 0 0
0 0 0 0
2030.8566 5658.3564 19961.887 65536
0 0 0 0
2232.2837 5568.9121 19646.34 0
2345.5342 5560.5801 19616.945 0
2422.6658 5471.4644 19302.559 0
2510.1758 5412.7871 19095.553 0
2650.47 5468.0825 19290.627 0
2793.7854 5524.7676 19490.604 65536
2927.1514 5558.0464 19608.008 65536
2974.9871 5432.5913 19165.42 65536
3070.6682 5400.5376 19052.338 65536
3166.9016 5371.6997 18950.604 65536
3268.4204 5353.5 18886.396 65536
3376.2949 5346.5742 18861.963 65536
3452.2178 5291.1216 18666.334 65536
3542.2124 5260.0181 18556.605 65536
3625.0828 5220.5327 18417.307 65536
3697.7776 5169.1382 18235.994 65536
3773.8848 5125.3047 18081.355 65536
3867.6699 5107.2427 18017.635 196608
3931.8625 5052.1289 17823.201 196608
4001.5112 5006.7339 17663.055 131072
4046.4985 4933.5923 17405.021 131072
3978.6819 4729.9922 16686.748 131072
3999.8079 4639.4614 16367.368 131072
4548.7896 5150.9634 18171.875 196608
4838.1367 5351.5532 18879.527 196609
4911.8936 5309.9854 18732.883 262145
5018.0234 5304.4819 18713.469 327682
5053.5073 5226.1582 18437.152 393217
5299.0107 5363.7441 18922.535 393216
5305.1128 5258.3208 18550.617 393216
5455.123 5296.9253 18686.809 524288
5481.3687 5216.2114 18402.062 589824
5661.3657 5282.1074 18634.533 589824
5651.6772 5171.8921 18245.709 524288
5764.4844 5175.813 18259.541 393216
6066.9771 5346.7563 18862.605 131073
6182.7837 5349.957 18873.898 2
5820.4014 4946.6416 17451.057 257
5926.0127 4948.2227 17456.635 256
6290.3647 5162.0806 18211.096 0
6426.4312 5184.5337 18290.307 256
6513.9922 5167.7593 18231.129 1
6920.3311 5400.293 19051.475 855566
7261.1162 5575.0068 19667.842 1514010
0 0 0 0
0 0 0 0
0 0 0 0
7348.5122 5300.772 18700.379 0
7317.9731 5200.0938 18345.201 256
7603.8931 5323.9438 18782.127 256
7496.3276 5172.6934 18248.535 256
7526.6626 5119.5552 18061.072 256
7589.4941 5089.7051 17955.764 256
7681.2271 5079.7954 17920.805 256
7827.5801 5105.7842 18012.49 256
7918.7466 5095.5605 17976.422 0
8210.8027 5213.1567 18391.285 0
8365.4854 5241.5889 18491.59 0
8175.1045 5055.8799 17836.434 0
8156.3926 4979.7339 17567.803 0
8270.0098 4985.2837 17587.381 0
8292.2324 4936.2876 17414.529 1
8351.2344 4910.125 17322.23 1
8163.1499 4741.0938 16725.912 2
8158.3901 4681.3218 16515.045 2
8167.6426 4630.9155 16337.219 2
8169.7935 4577.7148 16149.534 2
8121.0015 4497.5361 15866.676 2
8136.8599 4454.5918 15715.175 2
8100.939 4384.5977 15468.244 261
8179.1338 4377.2451 15442.307 258
8104.2695 4289.0518 15131.172 258
8179.7344 4281.4805 15104.462 2
8182.9141 4236.6484 14946.301 2
8277.915 4239.8086 14957.45 2
8377.2812 4245.1138 14976.165 2
8382.9346 4203.3184 14828.718 2
8405.5371 4170.8027 14714.007 2
8426.8574 4138.3267 14599.436 2
8475.8271 4119.9531 14534.616 3
8533.8984 4106.3296 14486.554 2
8589.3945 4091.7515 14435.125 2
8657.1426 4083.24 14405.098 0
8715.2529 4070.3953 14359.782 0
8466.2686 3915.7627 13814.262 0
8880.4658 4067.8857 14350.929 0
9013.7373 4089.6543 14427.727 256
9125.2705 4101.2427 14468.608 0
9255.9482 4121.1392 14538.8 0
9487.2412 4185.0503 14764.271 0
9495.8955 4150.4795 14642.31 0
9439.543 4088.3813 14423.235 0
9410.0332 4038.9221 14248.75 0
9479.6367 4032.5068 14226.117 0
9558.5068 4030.1116 14217.668 0
9566.7783 3998.2527 14105.274 0
8377.6504 3470.8652 12244.725 0
8363.7129 3435.2493 12119.077 0
8298.6582 3379.4258 11922.14 0
8087.5752 3265.5847 11520.523 0
9655.5098 3865.9524 13638.537 0
9717.1523 3858.2434 13611.341 0
9773.3447 3848.5149 13577.021 0
9861.9229 3851.5947 13587.885 65536
9982.79 3867.1321 13642.699 0
10090.207 3877.251 13678.397 0
9915.6074 3779.7073 13334.277 0
10031.851 3793.6965 13383.629 0
10315.098 3870.1243 13653.255 0
10547.146 3926.2996 13851.434 0
10719.634 3959.6042 13968.928 0
10831.64 3970.228 14006.406 0
10896.459 3963.5256 13982.763 0
10943.711 3950.5833 13937.104 0
11168.402 4001.4082 14116.406 0
11481.361 4082.8635 14403.77 0
12039.573 4249.6821 14992.282 256
13125.523 4598.96 16224.485 0
15607.921 5428.8657 19152.277 1513752
0 0 0 0
0 0 0 0
0 0 0 0
0 0 0 0
0 0 0 0
0 0 0 0
0 0 0 0
0 0 0 0
0 0 0 0
0 0 0 0
0 0 0 0
0 0 0 0
0 0 0 0
0 0 0 0
0 0 0 0
0 0 0 0
17124.936 5299.4897 18695.855 0
15138.451 4654.5503 16420.6 0
17866.41 5458.1162 19255.467 1184530
0 0 0 0
0 0 0 0
0 0 0 0
0 0 0 0
0 0 0 0
0 0 0 0
17118.891 5005.3237 17658.078 0
0 0 0 0
0 0 0 0
-8590.3574 2718.2683 9392.7285 0
-8553.3418 2724.2588 9413.4287 0
-9755.7432 3127.6846 10807.43 0
-9747.0088 3145.5952 10869.318 0
-9589.2842 3115.3408 10764.777 0
-9628.0449 3148.9426 10880.886 0
-9570.1475 3151.1726 10888.59 0
-9512.0928 3153.3801 10896.219 0
-9454.083 3155.6335 10904.005 0
-9394.8525 3157.5076 10910.48 0
-9337.1562 3159.9265 10918.839 0
-9278.3662 3162.0071 10926.027 0
-9221.6416 3164.8259 10935.768 0
-9159.8936 3165.9478 10939.645 0
-9104.7256 3169.3767 10951.493 0
-9048.0469 3172.325 10961.681 0
-8986.2012 3173.4917 10965.712 0
-8925.6787 3175.1458 10971.428 0
-8864.1328 3176.4583 10975.962 65536
-8805.6357 3178.8901 10984.365 0
-8744.6943 3180.4695 10989.823 0
-8685.4736 3182.7031 10997.541 0
-8626.6562 3185.1199 11005.892 0
-8566.9326 3187.2361 11013.204 0
-8508.3867 3189.8262 11022.154 0
-8447.3438 3191.5134 11027.984 0
-8388.5703 3194.0911 11036.891 0
-8331.2246 3197.2573 11047.832 0
-8272.5352 3199.9536 11057.149 0
-8213.1846 3202.4363 11065.728 0
-8155.4507 3205.5935 11076.638 0
-8094.4175 3207.4954 11083.209 0
-8033.9219 3209.6433 11090.63 0
-7975.0679 3212.4875 11100.458 0
-7925.9355 3219.3284 11124.096 65536
-7884.3237 3229.3643 11158.775 65536
-7841.499 3239.0696 11192.311 65536
-7793.8677 3246.9385 11219.501 65536
-7748.4897 3255.8904 11250.433 65536
-7704.3506 3265.5225 11283.717 0
-7657.9429 3274.3545 11314.233 0
-7611.1484 3283.1758 11344.716 0
-7557.5664 3289.2009 11365.534 0
-7505.2788 3295.9031 11388.693 0
-7457.6714 3304.8005 11419.438 0
-7405.8223 3311.9653 11444.195 0
-7359.7583 3321.874 11478.434 0
-7315.248 3332.6758 11515.758 0
-7266.1636 3341.5781 11546.519 0
-7216.0767 3350.1848 11576.259 0
-7170.4292 3361.0381 11613.762 0
-7123.939 3371.7034 11650.614 0
-7077.9019 3382.7944 11688.938 0
-7030.9297 3393.6543 11726.464 0
-6985.0059 3405.2429 11766.507 0
-6936.8745 3415.9783 11803.603 0
-6889.5356 3427.3279 11842.819 0
-6837.8481 3436.7253 11875.292 0
-6781.0913 3443.7449 11899.548 0
-6718.6655 3448.0034 11914.262 0
-6668.3047 3458.6096 11950.911 0
-6626.0107 3473.6738 12002.964 0
-6586.1958 3490.3794 12060.688 0
-6549.8037 3509.2866 12126.021 0
-6509.7881 3526.6516 12186.023 0
-6472.3633 3545.8267 12252.281 0
-6433.4502 3564.6133 12317.196 0
-6395.1587 3584.1807 12384.81 65536
-6356.9912 3604.2739 12454.241 65536
-6319.7778 3625.3884 12527.2 65536
-6278.5059 3644.6501 12593.757 65536
-6245.853 3669.4404 12679.418 0
-6211.7251 3693.959 12764.14 0
-6166.3521 3712.314 12827.563 0
-6120.9561 3731.1145 12892.527 0
-6075.6372 3750.4397 12959.303 0
-6033.6094 3772.3184 13034.902 0
-6004.8179 3803.1494 13141.437 0
-5966.5107 3828.6868 13229.679 0
-5928.8062 3855.2986 13321.633 0
-5891.8706 3883.1367 13417.826 0
-5854.8472 3911.6812 13516.458 0
-5809.272 3935.2258 13597.814 0
-5770.2495 3963.9365 13697.022 0
-5730.5908 3993.0259 13797.538 0
-5695.856 4026.4404 13912.999 256
-5657.7798 4058.4429 14023.58 256
-5614.0508 4087.2861 14123.246 256
-5569.5967 4116.4702 14224.088 256
-5522.0044 4144.1978 14319.898 256
-5469.6025 4169.1274 14406.041 256
-5412.6147 4191.2988 14482.652 0
-5363.7114 4220.5488 14583.723 0
-5300.2822 4239.1416 14647.968 0
-5250.9873 4269.8486 14754.073 0
-5185.4917 4288.2012 14817.489 0
-5119.7632 4306.9922 14882.419 0
-5058.0815 4329.9082 14961.604 0
-4998.0581 4355.0894 15048.614 0
-4944.8955 4387.2749 15159.829 0
-4886.5742 4415.9932 15259.063 0
-4833.5166 4450.6445 15378.797 0
-4770.1987 4477.002 15469.873 0
-4705.5034 4503.0771 15559.974 0
-4634.0845 4523.6348 15631.009 0
-4568.8237 4551.168 15726.146 0
-4505.1147 4581.4287 15830.71 0
-4440.7085 4612.2563 15937.231 0
-4366.1328 4633.6353 16011.105 0
-4293.8555 4658.4609 16096.888 0
-4222.1392 4685.04 16188.729 0
-4151.0601 4713.582 16287.354 0
-4083.1318 4747.1509 16403.348 0
-4029.4263 4799.3018 16583.551 0
-3917.4143 4782.8799 16526.807 0
-3844.9204 4815.103 16638.15 0
-3768.2034 4843.5986 16736.615 0
-3692.1567 4874.5254 16843.479 0
-3611.7251 4901.2246 16935.736 0
-3535.6694 4935.5645 17054.393 0
-3469.564 4986.23 17229.463 0
-3381.5332 5007.5098 17302.994 0
-3296.542 5034.7661 17397.176 0
-3216.8235 5072.1016 17526.186 0
-3130.991 5101.9727 17629.402 0
-3044.4812 5132.771 17735.824 0
-2959.5327 5168.5049 17859.299 0
-2908.863 5268.9888 18206.512 0
-2794.6914 5257.7681 18167.74 0
-2709.6731 5302.6982 18322.99 0
-2627.5801 5357.354 18511.85 65793
-2550.0381 5426.4722 18750.682 329221
-2515.1479 5596.8184 19339.297 131842
-2479.4041 5781.4878 19977.406 329221
-2319.8655 5681.5508 19632.082 256
-2220.2224 5725.4868 19783.898 256
0 0 0 0
0 0 0 0
0 0 0 0
0 0 0 0
0 0 0 0
0 0 0 0
0 0 0 0
0 0 0 0
0 0 0 0
0 0 0 0
-915.31812 5654.4658 19538.492 0
0 0 0 0
0 0 0 0
0 0 0 0
0 0 0 0
0 0 0 0
0 0 0 0
0 0 0 0
0 0 0 0
0 0 0 0
0 0 0 0
0 0 0 0
0 0 0 0
0 0 0 0
0 0 0 0
0 0 0 0
0 0 0 0
0 0 0 0
0 0 0 0
0 0 0 0
0 0 0 0
0 0 0 0
0 0 0 0
0 0 0 0
0 0 0 0
2032.3208 5781.1616 19976.279 65536
2137.5388 5744.8579 19850.834 0
2235.521 5693.9219 19674.83 0
2346.4871 5679.4766 19624.914 0
2411.719 5560.9448 19215.34 131585
2511.6636 5529.5537 19106.869 65793
2633.9944 5548.0303 19170.715 0
2770.7532 5594.1055 19329.922 0
2861.5457 5547.4004 19168.537 65536
2949.4675 5498.9204 19001.02 65536
3042.8657 5463.8491 18879.834 65536
3133.9236 5427.2197 18753.264 65536
3234.4734 5408.9795 18690.236 65536
3355.217 5424.5991 18744.209 65536
3441.3579 5385.0684 18607.613 65536
3515.2185 5329.3809 18415.191 65536
3558.3467 5231.8706 18078.254 65536
3649.324 5208.3677 17997.041 65536
3733.9751 5177.4312 17890.143 65536
3821.2361 5151.7261 17801.32 196608
3883.447 5094.5439 17603.732 196608
3953.0305 5049.7803 17449.057 262144
4033.3726 5020.6978 17348.564 262144
4078.8252 4950.7168 17106.752 262144
4139.0234 4901.603 16937.043 262144
4192.9824 4847.6079 16750.469 262144
4270.4502 4822.665 16664.281 327680
3966.7849 4378.1929 15128.447 393216
3990.5691 4306.8228 14881.834 393218
4042.467 4268.2314 14748.485 458752
4107.8784 4245.2437 14669.053 458752
4172.6504 4222.564 14590.687 458752
4201.6406 4165.3359 14392.939 589824
4276.8066 4155.2544 14358.104 655360
5250.4292 5001.4126 17281.926 655360
5347.7568 4996.3813 17264.541 458752
5391.8179 4942.7104 17079.086 657160
5903.6328 5311.8916 18354.758 131072
5608.6885 4954.9517 17121.385 0
5712.688 4956.896 17128.104 65536
5847.5981 4985.1245 17225.645 65536
5968.4561 5000.6084 17279.146 0
6178.6479 5089.1484 17585.09 0
6374.6763 5163.272 17841.217 0
6719.5405 5353.5493 18498.703 0
7203.6406 5646.8457 19512.162 1447702
0 0 0 0
0 0 0 0
7530.9087 5631.416 19458.846 0
7264.8447 5350.2964 18487.463 0
7180.9312 5209.7026 18001.654 0
7293.4219 5213.6353 18015.242 0
7414.2056 5223.2959 18048.623 0
7483.834 5197.1562 17958.301 256
7584.1113 5192.7368 17943.029 256
7687.8198 5190.7563 17936.186 256
7824.2139 5210.5972 18004.744 256
8284.5254 5442.7075 18806.781 256
8453.7305 5479.9351 18935.418 0
8342.6572 5336.8877 18441.131 0
8297.5107 5239.1768 18103.498 0
8111.3247 5056.0532 17470.732 0
8197.8018 5045.3711 17433.82 1
8367.2939 5085.4092 17572.168 2
8223.6914 4936.5151 17057.68 2
8036.9448 4765.665 16467.322 2
8030.8154 4704.7383 16256.795 2
8085.4224 4680.418 16172.759 2
8081.5039 4623.189 15975.01 2
8040.2446 4546.1753 15708.896 2
8048.167 4498.4194 15543.879 2
8131.2686 4493.2905 15526.156 66051
8296.7197 4533.272 15664.31 2
8108.7871 4381.4229 15139.607 2
8196.3086 4380.1089 15135.067 2
8194.3555 4331.5278 14967.199 2
8285.2168 4332.5244 14970.644 256
8372.542 4331.6699 14967.691 256
8408.2393 4304.4048 14873.479 256
8426.0098 4268.6245 14749.845 256
8465.8369 4244.6401 14666.968 0
8521.0137 4228.7622 14612.104 0
8586.2422 4218.1431 14575.409 0
8618.6396 4191.7681 14484.273 0
8671.7158 4175.8726 14429.348 0
8757.6143 4175.9395 14429.578 0
8789.96 4150.7168 14342.423 0
8913.4658 4168.6118 14404.258 0
9043.5781 4189.2266 14475.491 0
9134.2705 4191.3643 14482.878 0
9287.1084 4221.7129 14587.744 0
9343.0098 4207.8418 14539.814 0
9443.6592 4214.1938 14561.764 0
9441.8467 4175.1226 14426.756 0
9487.2207 4157.4316 14365.628 0
9605.2207 4171.5986 14414.581 0
9692.3105 4172.21 14416.691 0
9491.667 4050.0359 13994.53 0
8354.3389 3533.7788 12210.651 0
9724.0947 4077.7461 14090.28 0
8272.0107 3439.2041 11883.857 0
8149.2041 3359.4612 11608.312 0
9773.7881 3995.3608 13805.605 0
9848.8047 3992.5093 13795.752 0
9891.5088 3976.7141 13741.173 0
10040.284 4003.4719 13833.634 0
10207.43 4037.0613 13949.697 0
10531.52 4131.6807 14276.646 0
10029.542 3903.2983 13487.492 0
10155.047 3920.8057 13547.987 0
10501.96 4022.8491 13900.589 0
10704.752 4068.5242 14058.415 0
10839.06 4087.6643 14124.553 0
10938.783 4093.5684 14144.953 0
11208.349 4162.457 14382.991 0
11250.237 4146.3896 14327.472 0
11404.123 4171.5317 14414.348 0
11668.608 4236.4536 14638.679 256
12336.854 4445.9194 15362.471 0
15120.33 5408.9893 18690.27 328965
0 0 0 0
0 0 0 0
0 0 0 0
0 0 0 0
0 0 0 0
0 0 0 0
0 0 0 0
0 0 0 0
0 0 0 0
0 0 0 0
0 0 0 0
0 0 0 0
0 0 0 0
0 0 0 0
0 0 0 0
0 0 0 0
0 0 0 0
17352.025 5482.3545 18943.777 855309
17280.502 5424.5591 18744.07 0
17217.773 5370.248 18556.402 131586
0 0 0 0
0 0 0 0
0 0 0 0
0 0 0 0
0 0 0 0
0 0 0 0
0 0 0 0
0 0 0 0
0 0 0 0
-8600.4756 2777.3601 9403.792 0
-8564.9717 2783.9863 9426.2275 0
-8501.8008 2781.6477 9418.3096 0
-8837.5635 2910.6677 9855.1553 0
-9698.5947 3215.5613 10887.487 0
-9639.085 3217.2969 10893.363 0
-9578.0137 3218.5305 10897.54 0
-9508.8057 3217.0286 10892.454 0
-9464.0068 3223.8203 10915.45 0
-9404.3359 3225.6047 10921.493 0
-9345.8418 3227.821 10928.996 0
-9289.8936 3230.9531 10939.602 0
-9226.1279 3231.3918 10941.087 0
-9166.2539 3233.2092 10947.24 0
-9105.8252 3234.8557 10952.815 0
-9048.583 3237.666 10962.331 0
-8992.2871 3240.8584 10973.14 0
-8928.4639 3241.3643 10974.853 0
-8863.8174 3241.5769 10975.572 0
-8803.5557 3243.4077 10981.771 0
-8746.3584 3246.4036 10991.915 0
-8695.2432 3251.7192 11009.912 0
-8635.8574 3253.9985 11017.63 0
-8575.5713 3255.9712 11024.31 0
-8515.9922 3258.2446 11032.007 0
-8457.9795 3261.1572 11041.869 0
-8395.9268 3262.5457 11046.57 0
-8341.3535 3266.8855 11061.264 0
-8285.7266 3270.8779 11074.781 0
-8225.2227 3272.9941 11081.946 0
-8168.1816 3276.533 11093.929 0
-8115.665 3281.9592 11112.302 0
-8056.126 3284.6116 11121.282 0
-7999.8193 3288.6367 11134.91 0
-7945.6177 3293.6011 11151.72 65536
-7895.062 3300.1733 11173.973 0
-7847.3521 3308.0564 11200.664 0
-7796.8306 3314.8794 11223.766 0
-7752.7852 3324.5972 11256.669 0
-7709.0562 3334.6211 11290.608 0
-7661.4004 3343.1074 11319.342 0
-7616.042 3352.7556 11352.01 0
-7564.7993 3359.9626 11376.411 0
-7513.3306 3367.1982 11400.911 0
-7466.6895 3376.749 11433.248 0
-7416.9424 3385.0574 11461.379 0
-7363.0161 3391.595 11483.515 0
-7319.5723 3403.1284 11522.565 0
-7272.4341 3413.146 11556.483 0
-7221.7524 3421.6753 11585.363 0
-7173.3936 3431.4807 11618.562 0
-7126.0117 3441.9482 11654.004 0
-7080.0815 3453.3293 11692.539 0
-7035.7041 3465.7007 11734.427 0
-6988.7163 3477.021 11772.756 0
-6944.4292 3489.9277 11816.457 0
-6894.8789 3500.4263 11852.004 0
-6839.2944 3508.0464 11877.805 0
-6780.9146 3514.3765 11899.237 0
-6720.5815 3519.8171 11917.658 0
-6672.8755 3532.0579 11959.104 0
-6627.3594 3545.7332 12005.406 0
-6588.0996 3563.0898 12064.175 0
-6552.8125 3583.0007 12131.591 0
-6518.3545 3603.8132 12202.06 0
-6473.9014 3619.5059 12255.192 0
-6437.2622 3639.9736 12324.494 0
-6398.1245 3659.4841 12390.554 65536
-6355.874 3677.6475 12452.053 65536
-6315.4688 3697.3196 12518.659 65536
-6275.7622 3717.8735 12588.253 65536
-6234.9551 3738.2646 12657.295 0
-6194.4468 3759.3347 12728.635 0
-6154.1699 3781.0681 12802.222 0
-6110.2173 3801.0588 12869.908 0
-6073.8589 3826.3406 12955.509 0
-6034.2905 3850.2236 13036.373 0
-6001.0962 3878.8474 13133.291 0
-5963.1484 3905.1133 13222.224 0
-5914.5874 3925.0374 13289.684 0
-5882.9624 3956.8918 13397.539 0
-5850.4502 3989.0156 13506.306 0
-5805.9614 4013.7542 13590.066 0
-5767.0664 4043.1111 13689.467 0
-5727.4478 4072.7944 13789.971 0
-5688.9697 4104.1621 13896.179 256
-5647.4751 4134.2461 13998.038 256
-5609.251 4167.6597 14111.172 256
-5566.124 4198.3892 14215.219 256
-5514.6538 4223.6758 14300.836 256
-5457.1846 4245.0879 14373.334 256
-5402.9731 4269.7554 14456.855 256
-5354.1626 4299.5566 14557.76 0
-5289.2432 4317.189 14617.46 0
-5237.3994 4346.2617 14715.896 0
-5179.6055 4371.2993 14800.67 0
-5117.5757 4393.5659 14876.062 0
-5058.7563 4419.4194 14963.6 0
-4997.7729 4444.2744 15047.755 0
-4936.499 4469.772 15134.087 0
-4876.8936 4497.7554 15228.834 0
-4818.9434 4528.3511 15332.429 0
-4754.2227 4553.6426 15418.062 0
-4692.5796 4582.9336 15517.238 0
-4625.6743 4608.1567 15602.641 0
-4555.9463 4631.5425 15681.821 0
-4489.9429 4659.77 15777.396 0
-4425.4741 4690.8286 15882.558 0
-4353.7124 4715.3428 15965.559 0
-4336.6504 4801.5122 16257.317 0
-4322.2964 4894.6753 16572.756 0
-4229.1895 4900.9229 16593.908 0
-4144.0469 4916.9175 16648.064 0
-4044.3638 4916.0205 16645.027 0
-3951.2034 4923.2056 16669.355 0
-3881.7549 4961.0654 16797.545 0
-3800.3474 4985.2363 16879.385 0
-3712.9631 5002.666 16938.398 0
-3636.8159 5036.6284 17053.391 0
-3555.4136 5065.0518 17149.629 0
-3468.2185 5086.6572 17222.781 0
-3381.812 5110.7676 17304.418 0
-3294.2788 5134.6353 17385.23 0
-3218.6177 5179.1528 17535.961 0
-3127.084 5200.2534 17607.404 0
-3049.3977 5246.6406 17764.465 0
-2984.7522 5319.5967 18011.486 0
-2908.5537 5376.6245 18204.576 0
-2811.4871 5397.9927 18276.926 0
-2733.5505 5459.2842 18484.451 256
-2680.2373 5576.9438 18882.832 256
-2561.8711 5563.6118 18837.691 513
-2596.219 5895.8662 19962.662 66049
-2347.3098 5585.8774 18913.078 256
0 0 0 0
0 0 0 0
-2119.7393 5890.5869 19944.787 0
0 0 0 0
0 0 0 0
0 0 0 0
0 0 0 0
0 0 0 0
0 0 0 0
0 0 0 0
0 0 0 0
0 0 0 0
0 0 0 0
0 0 0 0
0 0 0 0
0 0 0 0
0 0 0 0
0 0 0 0
0 0 0 0
0 0 0 0
0 0 0 0
0 0 0 0
0 0 0 0
367.91953 5864.2095 19855.477 0
0 0 0 0
0 0 0 0
0 0 0 0
0 0 0 0
0 0 0 0
0 0 0 0
0 0 0 0
0 0 0 0
0 0 0 0
0 0 0 0
1664.9794 5860.5928 19843.23 65536
1792.7571 5892.9458 19952.773 65536
1901.8802 5863.77 19853.988 65536
2010.2969 5835.9517 19759.799 65536
2127.5208 5835.3608 19757.799 65536
2224.2261 5781.4971 19575.424 65536
2290.8557 5658.6973 19159.639 0
2439.3508 5740.1704 19435.496 0
2571.8394 5778.313 19564.643 328708
2638.8657 5672.4404 19206.17 65536
2742.1758 5650.1069 19130.553 65536
2841.186 5621.0454 19032.154 65536
2933.2769 5581.0449 18896.717 65536
3019.4033 5533.0635 18734.258 65536
3123.8384 5520.8535 18692.916 65536
3215.6519 5487.9409 18581.479 65536
3353.3503 5532.9229 18733.781 65536
3440.1021 5493.6548 18600.824 65536
3525.6929 5455.0352 18470.064 65536
3542.177 5315.0537 17996.104 65536
3603.2041 5248.1553 17769.594 65536
3685.4185 5215.0483 17657.498 131072
3766.6628 5182.4395 17547.09 196608
3823.0681 5118.3335 17330.035 196608
3825.8562 4987.6914 16887.697 196608
3946.6592 5013.6499 16975.588 196608
3902.4055 4833.8594 16366.841 196608
3968.2778 4795.9092 16238.346 262144
4079.5669 4813.3462 16297.386 262144
4209.0596 4850.9546 16424.723 327680
4280.1821 4821.1108 16323.675 393216
4112.0732 4529.0972 15334.953 393217
4125.9893 4445.8848 15053.207 458752
4103.5527 4327.8647 14653.606 458752
4082.4653 4216.144 14275.333 524288
4160.2603 4209.0127 14251.188 655360
4230.7339 4194.9067 14203.428 655360
4573.52 4446.0776 15053.861 720896
5242.3022 4998.4409 16924.094 458752
5392.1772 5044.5527 17080.223 327680
5954.0747 5467.2979 18511.584 1183759
5680.0762 5121.0718 17339.307 0
5696.4243 5044.293 17079.342 65536
5808.2456 5053.2651 17109.721 0
5911.4204 5054.5356 17114.023 0
6230.7832 5237.4868 17733.473 0
6455.0474 5335.7432 18066.156 65536
6588.7114 5357.1191 18138.533 65536
6830.7607 5464.5142 18502.158 0
0 0 0 0
7211.1978 5588.9131 18923.357 65536
6873.9146 5245.6943 17761.262 65536
7022.6714 5278.1592 17871.184 0
7070.1562 5234.6763 17723.957 0
7183.6943 5240.6572 17744.207 0
7306.6309 5253.2227 17786.752 0
7391.2114 5238.2456 17736.041 256
7492.1665 5235.1313 17725.498 256
7590.3325 5230.1831 17708.742 0
8160.397 5546.0869 18778.354 0
8383.0156 5620.5171 19030.365 0
8439.8672 5583.3037 18904.365 0
8428.4102 5502.4736 18630.684 65536
8277.1543 5333.6543 18059.084 0
8030.5273 5108.4897 17296.705 0
8371.8916 5258.3306 17804.047 65793
8312.4688 5155.8408 17457.029 0
8156.249 4996.5796 16917.791 256
7921.2544 4793.5269 16230.279 0
7962.7744 4760.6787 16119.06 2
7997.3828 4724.5283 15996.659 2
8023.1709 4684.0781 15859.699 2
8006.1958 4619.8911 15642.372 2
8021.1182 4575.3726 15491.637 2
8054.187 4542.0986 15378.975 2
8083.4043 4507.4229 15261.567 2
8108.4312 4471.2061 15138.942 2
8209.2793 4477.1353 15159.019 1
8255.0957 4453.249 15078.143 2
8304.8018 4431.9517 15006.031 256
8446.5215 4459.689 15099.946 256
8492.2207 4436.6782 15022.035 256
8460.8135 4374.2817 14810.769 256
8499.1328 4348.8481 14724.653 0
8552.3623 4331.4844 14665.861 0
8606.8389 4315.0962 14610.373 0
8659.3564 4298.0625 14552.7 0
8720.8613 4285.7832 14511.124 0
8826.709 4295.3228 14543.423 0
8929.0215 4302.9731 14569.327 0
8990.1475 4290.8198 14528.177 0
9096.2568 4300.1626 14559.811 0
9205.0908 4310.6055 14595.169 0
9333.0664 4329.7329 14659.933 0
9397.5967 4319.3462 14624.764 0
9455.8506 4306.2915 14580.562 0
9521.6816 4296.8931 14548.74 0
9610.7568 4298.0591 14552.688 0
9715.2148 4306.022 14579.65 0
9828.2334 4317.605 14618.868 0
9888.2627 4305.9111 14579.273 0
9946.916 4293.8252 14538.353 0
10241.902 4383.0884 14840.587 0
10147.877 4305.7686 14578.791 0
10137.749 4265.0542 14440.938 0
10196.873 4253.9141 14403.22 0
10168.776 4206.876 14243.954 0
10039.85 4119.2451 13947.246 0
10165.974 4136.8369 14006.811 0
10287.731 4152.3809 14059.439 0
10629.544 4255.7778 14409.529 1250323
10585.66 4204.334 14235.348 65793
10469.027 4125.0415 13966.873 0
10704.114 4184.4922 14168.165 0
10798.569 4188.4678 14181.625 0
10946.472 4212.9507 14264.522 0
11048.597 4219.5757 14286.953 0
11433.045 4333.0986 14671.329 0
11603.862 4364.5513 14777.823 256
11827.533 4415.2617 14949.521 256
11995.756 4444.6704 15049.096 256
0 0 0 0
0 0 0 0
0 0 0 0
0 0 0 0
0 0 0 0
0 0 0 0
0 0 0 0
0 0 0 0
0 0 0 0
0 0 0 0
0 0 0 0
0 0 0 0
0 0 0 0
0 0 0 0
0 0 0 0
0 0 0 0
0 0 0 0
0 0 0 0
0 0 0 0
0 0 0 0
18154.596 5815.9858 19692.197 0
17326.936 5515.2817 18674.051 263172
0 0 0 0
0 0 0 0
0 0 0 0
0 0 0 0
0 0 0 0
0 0 0 0
0 0 0 0
0 0 0 0
0 0 0 0
-8598.918 2832.7368 9402.0889 0
-8600.5176 2851.7964 9465.3486 0
-8508.8086 2839.9631 9426.0732 0
-9689.1299 3255.3491 10804.774 0
-8420.3027 2847.9246 9452.498 0
-9642.7061 3283.2727 10897.455 0
-9584.6533 3285.5747 10905.095 0
-9524.6289 3287.2268 10910.579 0
-9465.0938 3289.0723 10916.704 0
-9407.8516 3291.7454 10925.576 0
-9350.46 3294.4028 10934.396 0
-9290.6182 3296.228 10940.455 0
-9232.4668 3298.6833 10948.604 0
-9173.5029 3300.8811 10955.898 0
-9115.75 3303.5493 10964.754 0
-9057.0098 3305.895 10972.54 0
-8996.6729 3307.688 10978.491 0
-8935.1367 3309.0627 10983.054 0
-8875.1279 3311.0278 10989.576 0
-8813.9326 3312.5764 10994.716 0
-8755.3428 3315.1338 11003.205 0
-8695.3604 3317.1992 11010.06 0
-8638.7246 3320.582 11021.288 0
-8578.0342 3322.4465 11027.476 0
-8507.5215 3320.5051 11021.033 0
-8452.1416 3324.4866 11034.247 0
-8398.6221 3329.2676 11050.115 0
-8341.0244 3332.4944 11060.826 0
-8285.4658 3336.5938 11074.433 0
-8234.7832 3342.738 11094.826 0
-8177.9102 3346.449 11107.143 0
-8123.0972 3351.0696 11122.479 0
-8071.5952 3357.1431 11142.637 0
-8020.168 3363.3486 11163.233 65536
-7970.6816 3370.4783 11186.897 0
-7919.2197 3376.8853 11208.163 0
-7870.4448 3384.5566 11233.625 0
-7817.6196 3390.6028 11253.692 0
-7768.7661 3398.4907 11279.873 0
-7719.5522 3406.3564 11305.98 0
-7671.418 3414.8413 11334.143 0
-7621.6787 3422.7561 11360.411 0
-7571.519 3430.6213 11386.517 0
-7518.4062 3437.2781 11408.612 0
-7469.0986 3445.8125 11436.938 0
-7425.1553 3457 11474.07 0
-7372.8633 3464.4727 11498.873 0
-7322.291 3472.9004 11526.845 0
-7276.8301 3483.9348 11563.47 0
-7230.3066 3494.6655 11599.086 0
-7177.1299 3502.3567 11624.613 0
-7130.2524 3513.301 11660.938 0
-7082.6743 3524.1118 11696.82 0
-7036.3296 3535.7568 11735.471 0
-6989.9219 3547.6023 11774.787 0
-6943.6016 3559.7327 11815.049 0
-6893.6982 3570.2554 11849.975 0
-6841.4556 3579.771 11881.558 0
-6783.2412 3586.3279 11903.32 0
-6720.603 3590.6592 11917.696 0
-6671.9736 3602.6477 11957.486 0
-6629.3394 3618.1658 12008.992 0
-6584.2368 3632.6602 12057.101 0
-6548.6792 3652.7976 12123.938 0
-6512.2373 3672.8843 12190.608 0
-6465.5073 3687.5547 12239.301 0
-6430.189 3709.1423 12310.952 0
-6390.2466 3728.5288 12375.297 65536
-6348.4292 3747.26 12437.467 65536
-6306.6431 3766.4507 12501.163 65536
-6270.6279 3789.5874 12577.955 65536
-6249.0386 3822.105 12685.884 0
-6206.2314 3842.2815 12752.852 0
-6162.6401 3862.4646 12819.842 0
-6116.7388 3881.6877 12883.644 0
-6073.7061 3903.2412 12955.183 0
-6043.6558 3933.7991 13056.605 0
-6000.3843 3956.4341 13131.733 0
-5950.5449 3975.2778 13194.277 0
-5901.4824 3995.1506 13260.237 0
-5860.499 4021.1052 13346.383 0
-5824.9443 4051.5479 13447.424 0
-5789.3594 4082.8162 13551.206 0
-5761.4873 4120.4824 13676.224 0
-5719.9121 4149.2866 13771.827 256
-5681.4624 4181.2275 13877.841 0
-5639.9854 4211.8481 13979.474 0
-5600.1445 4244.6245 14088.263 0
-5553.1387 4272.8833 14182.056 256
-5501.8442 4298.6626 14267.618 256
-5442.1001 4318.5435 14333.604 256
-5389.6089 4344.9033 14421.096 256
-5334.6357 4370.0825 14504.667 0
-5298.271 4411.5825 14642.409 0
-5228.8105 4426.4521 14691.763 0
-5173.7075 4454.1865 14783.815 0
-5134.4102 4496.7227 14924.996 0
-5085.5312 4532.2148 15042.798 0
-5022.8535 4556.46 15123.27 0
-4968.0361 4588.8491 15230.771 0
-4879.3359 4590.5625 15236.459 0
-4813.21 4613.9819 15314.188 0
-4752.4727 4643.5679 15412.387 0
-4679.9102 4662.5356 15475.344 0
-4615.0562 4690.0981 15566.825 0
-4550.7197 4719.3247 15663.831 0
-4489.3403 4752.9028 15775.279 0
-4424.7197 4784.4092 15879.851 0
-4369.3105 4827.4653 16022.759 0
-4453.6729 5030.3091 16696.014 0
-4381.2944 5061.3281 16798.969 0
-4335.417 5125.1226 17010.707 0
-4180.7031 5060.231 16795.326 0
-4049.5847 5021.4209 16666.514 0
-3913.5874 4974.4648 16510.662 0
-3847.353 5016.0474 16648.678 0
-3775.5693 5052.3989 16769.332 0
-3698.8276 5083.9077 16873.912 0
-3628.4143 5126.1128 17013.994 0
-3555.999 5167.8286 17152.453 0
-3482.5305 5210.4312 17293.854 0
-3431.8032 5290.6841 17560.221 0
-3389.6077 5389.5366 17888.32 0
-3407.2239 5592.9727 18563.541 0
-3240.5127 5497.3247 18246.078 0
-3153.321 5534.6245 18369.879 0
-3068.2034 5578.3696 18515.072 0
-3015.5366 5686.5645 18874.18 0
-2928.7949 5736.3799 19039.521 0
-2806.9875 5718.7593 18981.037 0
-2748.9492 5835.021 19366.92 0
-2673.3972 5922.646 19657.754 0
-2569.3403 5952.2427 19755.988 0
0 0 0 0
0 0 0 0
-2243.6292 6023.4922 19992.471 256
-2119.0955 6007.3008 19938.73 0
-1992.0664 5981.6978 19853.752 0
-1887.843 6025.6626 19999.676 0
0 0 0 0
0 0 0 0
0 0 0 0
0 0 0 0
0 0 0 0
0 0 0 0
0 0 0 0
0 0 0 0
0 0 0 0
0 0 0 0
0 0 0 0
0 0 0 0
0 0 0 0
0 0 0 0
0 0 0 0
0 0 0 0
0 0 0 0
0 0 0 0
0 0 0 0
0 0 0 0
0 0 0 0
0 0 0 0
0 0 0 0
0 0 0 0
0 0 0 0
0 0 0 0
0 0 0 0
0 0 0 0
0 0 0 0
0 0 0 0
0 0 0 0
1911.6412 6012.4692 19955.885 65536
2024.1086 5994.2935 19895.559 65536
2127.3655 5952.354 19756.357 65536
2232.1714 5918.9087 19645.35 65536
2333.0818 5878.9727 19512.799 65536
2396.6309 5753.1328 19095.125 65536
2550.7307 5846.2124 19404.064 65536
2637.7615 5784.1675 19198.133 65536
2730.093 5738.4097 19046.258 65536
2821.6731 5694.7788 18901.443 65536
2909.3059 5646.8281 18742.291 65536
3008.9648 5624.8945 18669.492 65536
3106.5432 5600.77 18589.422 65536
3196.8726 5565.6821 18472.961 65536
3270.9622 5505.5908 18273.514 65536
3356.4709 5467.9634 18148.625 65536
3441.3281 5431.6514 18028.102 65536
3523.4385 5393.3276 17900.902 65536
3590.365 5334.6895 17706.277 65536
3648.647 5266.9121 17481.318 131072
3710.0569 5207.2788 17283.391 196608
3542.9363 4838.7441 16060.193 196608
3632.498 4830.9111 16034.195 327680
3687.3477 4778.4951 15860.222 393216
3696.9768 4671.5508 15505.266 393216
3648.4304 4498.0845 14929.517 393216
3762.6677 4528.7842 15031.411 393216
3822.2 4493.7432 14915.107 393216
3842.8044 4415.5605 14655.612 393216
3928.2798 4413.7314 14649.541 393216
3948.9888 4340.7891 14407.439 458752
3959.6306 4260.1123 14139.667 458752
4025.1936 4240.6499 14075.068 524288
4117.4272 4249.5054 14104.462 655360
4241.9438 4290.6616 14241.062 655360
4288.0605 4252.459 14114.264 720896
4883.0479 4749.5913 15764.288 655360
5188.1128 4951.3164 16433.83 458752
5758.9341 5394.5264 17904.881 393216
5390.7007 4957.979 16455.943 196608
5535.4141 5000.3545 16596.592 0
5671.354 5033.4595 16706.471 0
5998.4395 5232.1528 17365.949 0
6175.1938 5295.2153 17575.26 0
6440.8706 5431.1621 18026.479 0
6568.7393 5448.3574 18083.551 0
6647.8521 5425.21 18006.723 0
6572.1152 5278.4282 17519.541 0
6779.356 5359.9541 17790.133 0
6732.2354 5240.96 17395.182 0
6824.5894 5232.5015 17367.107 0
6903.4595 5214.1118 17306.07 0
7002.042 5210.9312 17295.514 0
7150.4243 5244.3677 17406.492 0
7250.7939 5242.1387 17399.094 256
7343.0659 5234.2007 17372.746 256
7399.2793 5201.1357 17263.002 256
8241.4375 5713.8789 18964.84 256
8315.1084 5687.1753 18876.207 0
8351.6758 5636.1426 18706.826 0
8323.459 5543.3062 18398.693 0
7811.8516 5135.1196 17043.889 0
7846.7095 5092.0044 16900.785 0
7882.1489 5050.3516 16762.537 197379
7943.6401 5026.2227 16682.451 0
7947.7104 4966.8042 16485.236 0
7910.4419 4883.3135 16208.124 0
