# .PCD v0.7 - Point Cloud Data file format
VERSION 0.7
FIELDS x y z rgb
SIZE 4 4 4 4
TYPE F F F U
COUNT 1 1 1 1
WIDTH 1641
HEIGHT 1
VIEWPOINT 0 0 0 1 0 0 0
POINTS 1641
DATA ascii
8141.8833 4834.1045 14871.357 2
8223.0703 4829.876 14858.35 2
8267.4707 4804.3608 14779.855 2
8290.46 4767.0698 14665.137 2
8316.1787 4732.1084 14557.583 2
8341.5176 4697.6523 14451.585 2
8394.9463 4679.5581 14395.92 1
8480.2881 4679.4375 14395.55 0
8549.6484 4670.5889 14368.327 0
8640.4492 4673.5127 14377.322 0
8661.1152 4638.8154 14270.581 0
7660.4736 4063.092 12499.46 256
8838.0781 4642.6675 14282.432 256
8955.5 4659.5957 14334.51 256
9074.3838 4676.9595 14387.925 256
9181.9639 4688.2266 14422.588 256
9437.3047 4774.0332 14686.558 256
9312.4062 4667.6797 14359.377 256
9295.6094 4616.9482 14203.311 256
9330.2021 4592.4253 14127.87 0
9390.7568 4581.0039 14092.734 0
9452.4414 4570.3315 14059.902 0
8297.8594 3976.9246 12234.379 0
8275.5762 3931.7913 12095.533 0
8272.374 3896.4224 11986.727 0
8258.5234 3856.6851 11864.481 0
8092.2993 3747.0649 11527.253 0
9627.0801 4420.3081 13598.379 0
9691.7734 4412.9653 13575.79 0
9739.0205 4397.8657 13529.338 0
9845.4482 4409.5186 13565.186 0
9965.9883 4427.2515 13619.739 0
9963.3779 4390.4312 13506.468 0
9867.168 4313.2842 13269.137 0
10028.753 4349.1582 13379.497 0
10303.562 4433.1831 13637.987 0
10494.732 4480.1909 13782.6 0
10612.657 4495.4448 13829.524 0
10753.685 4520.1748 13905.603 0
11344.941 4732.3325 14558.271 0
10910.687 4516.7432 13895.045 0
11085.913 4554.8071 14012.144 0
11265.395 4594.0386 14132.832 0
11973.809 4846.792 14910.389 0
14004.25 5627.0347 17310.682 0
0 0 0 0
0 0 0 0
0 0 0 0
0 0 0 0
0 0 0 0
0 0 0 0
0 0 0 0
0 0 0 0
0 0 0 0
0 0 0 0
0 0 0 0
0 0 0 0
0 0 0 0
0 0 0 0
0 0 0 0
0 0 0 0
0 0 0 0
17433.691 6186.8726 19032.934 0
16086.397 5671.9419 17448.832 0
17846.584 6252.2637 19234.1 1052432
0 0 0 0
0 0 0 0
0 0 0 0
0 0 0 0
0 0 0 0
0 0 0 0
16401.18 5499.312 16917.764 0
0 0 0 0
0 0 0 0
-8490.7119 3072.9739 9283.7754 0
-9879.2324 3598.897 10872.645 0
-9815.5303 3599.2339 10873.662 0
-9683.4385 3574.3311 10798.428 0
-9697.6455 3603.4575 10886.422 0
-9640.3486 3606.2278 10894.791 0
-9583.9229 3609.3633 10904.264 65536
-9525.4893 3611.78 10911.565 65536
-9466.1035 3613.8665 10917.869 0
-9404.5527 3615.1494 10921.745 65536
-9342.751 3616.3533 10925.382 65536
-9284.7764 3619.0657 10933.576 65536
-9226.7803 3621.8083 10941.861 65536
-9171.8516 3625.8015 10953.926 65536
-9110.4746 3627.2852 10958.408 65536
-9047.0869 3627.9834 10960.518 65536
-8986.168 3629.6895 10965.672 65536
-8926.3174 3631.8552 10972.214 65536
-8877.4951 3638.5725 10992.509 65536
-8819.0527 3641.4172 11001.103 65536
-8759.1074 3643.6797 11007.938 65536
-8701.2412 3646.8469 11017.506 65536
-8639.5342 3648.4407 11022.321 65536
-8578.4336 3650.3169 11027.989 65536
-8521.3643 3653.9502 11038.966 65536
-8466.248 3658.4839 11052.663 65536
-8407.5186 3661.5149 11061.82 65536
-8348.0859 3664.2861 11070.191 65536
-8291.9297 3668.55 11083.073 65536
-8236.9375 3673.4014 11097.729 65536
-8178.2114 3676.6519 11107.551 65536
-8122.9067 3681.5068 11122.218 65536
-8067.8472 3686.5532 11137.463 65536
-8013.4883 3692.0059 11153.937 65536
-7966.478 3700.9631 11180.997 0
-7922.5137 3711.4985 11212.825 0
-7879.3633 3722.5969 11246.355 0
-7835.6509 3733.6174 11279.649 0
-7787.9341 3742.9038 11307.704 0
-7744.2632 3754.313 11342.172 0
-7694.2119 3762.8022 11367.819 0
-7644.73 3771.7229 11394.77 0
-7599.6235 3782.9814 11428.782 0
-7546.2129 3790.2717 11450.808 0
-7497.1543 3799.9001 11479.896 0
-7453.207 3812.3203 11517.419 0
-7406.3452 3823.4663 11551.092 0
-7354.9912 3832.4797 11578.322 0
-7308.7422 3844.3491 11614.181 0
-7263.2393 3856.8401 11651.918 0
-7218.4648 3869.9629 11691.563 0
-7173.1279 3883.0356 11731.058 0
-7126.4648 3895.6411 11769.14 0
-7081.7881 3909.5925 11811.288 0
-7031.8604 3920.8953 11845.435 0
-6978.3047 3930.3833 11874.1 0
-6918.2026 3936.3406 11892.097 0
-6858.835 3942.8425 11911.74 0
-6804.4019 3952.3467 11940.453 0
-6760.3921 3968.1697 11988.256 0
-6720.7617 3986.9272 12044.925 0
-6684.5156 4008.1187 12108.945 0
-6646 4028.3948 12170.202 65536
-6605.7114 4048.0312 12229.525 65536
-6567.0625 4069.1204 12293.238 65536
-6527.3433 4090.0134 12356.358 65536
-6489.3301 4112.4634 12424.182 65536
-6449.6162 4134.3394 12490.271 65536
-6408.2944 4155.6821 12554.751 65536
-6369.2798 4179.042 12625.323 65536
-6333.7065 4205.2437 12704.481 65536
-6292.4058 4228.229 12773.922 65536
-6245.2275 4247.7778 12832.981 65536
-6208.6494 4275.1094 12915.553 65536
-6166.9761 4299.5728 12989.459 65536
-6139.9561 4335.002 13096.494 0
-6100.8032 4362.6646 13180.066 0
-6061.8896 4391.2207 13266.337 0
-6025.2593 4422.2051 13359.943 0
-5992.0225 4456.5405 13463.675 0
-5947.9897 4483.6675 13545.629 0
-5905.9209 4513.0396 13634.365 0
-5867.2046 4545.8267 13733.419 0
-5829.1289 4580.042 13836.786 0
-5789.2207 4613.7764 13938.701 0
-5752.1846 4650.8125 14050.591 0
-5709.3447 4684.1772 14151.391 0
-5651.3931 4705.957 14217.188 0
-5595.6133 4730.2334 14290.53 0
-5540.3413 4755.6943 14367.45 0
-5491.8418 4787.8564 14464.615 0
-5429.8174 4809.0625 14528.682 0
-5373.8779 4836.4312 14611.364 0
-5318.1304 4864.8735 14697.293 0
-5254.6021 4887.0303 14764.229 0
-5199.6152 4918.0181 14857.847 0
-5137.5801 4943.2944 14934.211 0
-5079.8384 4973.6641 15025.96 0
-5022.1763 5005.1992 15121.231 0
-4964.7778 5038.1514 15220.782 0
-4902.6997 5067.4897 15309.417 0
-4840.4014 5097.7056 15400.702 0
-4773.9429 5124.6206 15482.015 0
-4710.8091 5156.2329 15577.519 0
-4644.6411 5185.7246 15666.617 0
-4582.6675 5221.2012 15773.796 0
-4510.8623 5246.7256 15850.906 0
-4437.313 5271.2661 15925.047 0
-4362.1714 5294.9438 15996.579 0
-4311.229 5349.7046 16162.018 0
-4306.8135 5466.0107 16513.391 0
-4194.5034 5447.6133 16457.811 0
-4097.6323 5448.8682 16461.602 0
-4030.6743 5490.9346 16588.688 0
-3944.7617 5508.6406 16642.18 0
-3875.4922 5551.0962 16770.443 0
-3794.5242 5578.5957 16853.521 0
-3708.7803 5600.3735 16919.314 0
-3630.0938 5634.3193 17021.869 0
-3543.7476 5657.9824 17093.357 0
-3452.3452 5674.7314 17143.957 0
-3366.4919 5701.897 17226.027 0
-3286.8613 5741.6372 17346.088 0
-3203.6489 5777.4912 17454.406 0
-3117.3259 5809.9482 17552.461 0
-3053.7195 5888.4561 17789.643 0
-2960.5625 5913.5698 17865.514 0
-2867.2642 5940.2593 17946.145 0
-2791.2356 6006.1724 18145.275 0
-2428.9502 5436.6616 16424.723 855308
-2421.8315 5647.7051 17062.309 0
-2377.7478 5787.2261 17483.814 657929
-2385.1333 6070.4937 18339.596 0
-2451.0747 6537.062 19749.148 0
-2348.801 6579.3662 19876.953 0
-2219.7961 6547.3066 19780.1 0
-2114.1675 6584.4663 19892.361 0
0 0 0 0
0 0 0 0
0 0 0 0
0 0 0 0
0 0 0 0
0 0 0 0
0 0 0 0
0 0 0 0
0 0 0 0
0 0 0 0
0 0 0 0
-665.03845 6296.6094 19022.715 0
0 0 0 0
0 0 0 0
0 0 0 0
0 0 0 0
0 0 0 0
0 0 0 0
0 0 0 0
247.59114 6511.2329 19671.117 65793
0 0 0 0
0 0 0 0
601.01288 6540.4526 19759.393 65536
723.2887 6584.5039 19892.477 65536
0 0 0 0
0 0 0 0
0 0 0 0
0 0 0 0
0 0 0 0
0 0 0 0
0 0 0 0
1658.5879 6542.9897 19767.057 65536
1783.6049 6570.7466 19850.914 65536
1893.7131 6543.5439 19768.73 65536
1998.3606 6501.7524 19642.475 65536
2097.9429 6449.0049 19483.117 0
2196.7229 6399.4365 19333.367 0
2293.9221 6350.4209 19185.285 0
2385.9705 6292.4629 19010.189 1315859
2492.3206 6275.7583 18959.723 0
2632.0986 6341.0303 19156.916 0
2725.7676 6294.4141 19016.084 65536
2811.1948 6233.2344 18831.254 0
2909.9158 6205.0874 18746.219 0
2990.7358 6142.2524 18556.387 0
3098.4705 6137.1973 18541.115 0
3204.4507 6129.1328 18516.752 0
3292.3286 6088.1294 18392.877 0
3396.1089 6078.2241 18362.951 0
3440.8352 5966.5327 18025.52 0
3513.6238 5908.7778 17851.037 0
3601.2219 5878.585 17759.82 65536
3670.5032 5821.0615 17586.037 0
3758.4514 5795.5078 17508.836 131072
3820.5046 5732.4771 17318.414 196608
3902.9949 5702.6147 17228.195 196608
3948.0464 5620.9746 16981.553 196608
3972.7341 5515.1357 16661.803 196608
4057.4138 5495.7031 16603.094 196608
4152.6577 5491.1616 16589.375 196608
4190.0273 5412.0776 16350.454 196609
3892.5588 4913.8867 14845.365 262144
3931.9756 4853.6299 14663.323 262144
3991.7288 4820.5454 14563.373 393216
4033.5393 4767.6572 14403.592 393216
4091.3447 4735.4805 14306.382 458752
4128.5586 4681.2656 14142.593 458752
5047.6885 5609.2427 16946.109 655360
5197.0483 5662.2402 17106.221 458752
5287.8369 5650.6143 17071.098 458752
5552.604 5821.8403 17588.389 1249554
5574.9932 5737.3042 17332.996 256
5566.5928 5624.7246 16992.881 0
5685.8857 5642.8843 17047.744 0
5806.2524 5661.4556 17103.85 0
5962.6821 5713.9463 17262.43 1
6176.9629 5819.1611 17580.295 0
6371.9624 5903.0132 17833.621 1
6633.6323 6044.8745 18262.199 131586
6926.8384 6210.4438 18762.4 2302496
7462.5181 6584.7178 19893.121 0
7297.6929 6338.8516 19150.334 0
7197.6128 6155.9111 18597.652 0
7053.0273 5941.0171 17948.434 0
7133.6812 5919.4258 17883.205 0
7244.542 5923.1665 17894.506 0
7346.7188 5919.8008 17884.338 0
7427.9976 5899.9326 17824.314 0
7521.3281 5890.0615 17794.492 256
7635.1382 5896.2788 17813.275 256
8112.9971 6179.6201 18669.279 256
8196.1465 6158.7241 18606.15 256
8382.126 6214.6245 18775.031 256
8159.6206 5970.1782 18036.533 256
8021.9897 5793.3667 17502.367 256
8030.5205 5725.2871 17296.691 256
8167.1011 5749.0659 17368.529 0
8121.2612 5645.4434 17055.475 0
7983.5615 5481.3062 16559.6 0
8018.3306 5438.1377 16429.184 0
7997.8755 5359.0049 16190.114 0
8016.5552 5307.6641 16035.009 2
7970.7222 5215.3184 15756.023 2
7973.3428 5156.4526 15578.184 2
7967.665 5093.6338 15388.4 258
8197.873 5181.3276 15653.333 258
8005.1479 5002.7456 15113.818 2
8061.0679 4981.791 15050.513 2
8123.0972 4965.0308 14999.877 2
8154.7461 4930.2666 14894.852 2
8266.6836 4944.2695 14937.156 2
8332.9023 4930.9209 14896.828 2
8361.4902 4895.8198 14790.783 2
8371.2812 4850.5571 14654.04 2
8408.96 4822.2192 14568.43 2
8461.1338 4802.6865 14509.419 256
8530.5566 4793.2402 14480.881 256
8566.0508 4765.1089 14395.894 256
8639.2529 4758.3022 14375.33 256
8683.0703 4735.6035 14306.755 256
7480.105 4039.9646 12205.156 256
8852.9395 4735.5015 14306.446 256
8970.7764 4752.8843 14358.961 256
9104.4443 4778.2485 14435.588 256
9214.0342 4790.6191 14472.962 256
9317.8955 4799.811 14500.731 256
9394.459 4794.9009 14485.897 256
9317.4102 4712.3892 14236.621 256
9386.4775 4704.5977 14213.082 0
9483.502 4710.8325 14231.918 0
9551.5596 4702.6953 14207.335 0
9405.7754 4590.3384 13867.893 0
8287.1426 4009.2742 12112.438 0
8281.6699 3972.1221 12000.196 0
8021.1138 3814.3035 11523.41 0
8026.8916 3784.7351 11434.081 0
9619.9014 4497.7725 13588.24 0
9713.4727 4503.7124 13606.186 0
9783.1738 4498.5781 13590.675 0
9873.6309 4502.9946 13604.018 0
10064.7 4552.8511 13754.64 0
10074.117 4520.395 13656.586 0
9929.5557 4419.9175 13353.033 0
10098.519 4459.4854 13472.572 0
10421.397 4565.8652 13793.956 0
10607.166 4610.981 13930.257 0
10757.971 4640.3174 14018.885 0
10862.181 4649.2593 14045.898 0
10933.728 4644.1909 14030.587 0
10999.693 4636.8462 14008.397 0
11187.216 4680.4688 14140.186 0
11556.717 4799.0083 14498.307 0
11755.186 4845.2964 14638.147 256
0 0 0 0
0 0 0 0
0 0 0 0
0 0 0 0
0 0 0 0
0 0 0 0
0 0 0 0
0 0 0 0
0 0 0 0
0 0 0 0
0 0 0 0
0 0 0 0
0 0 0 0
0 0 0 0
0 0 0 0
0 0 0 0
0 0 0 0
0 0 0 0
17896.955 6467.4009 19538.695 920589
17450.525 6265.4214 18928.494 0
0 0 0 0
0 0 0 0
0 0 0 0
0 0 0 0
0 0 0 0
0 0 0 0
0 0 0 0
0 0 0 0
0 0 0 0
0 0 0 0
-9913.5518 3652.3538 10839.515 0
-9608.207 3563.0127 10574.366 0
-9831.4434 3669.7993 10891.29 0
-9771.2686 3671.5112 10896.37 0
-9710.4932 3673.0188 10900.845 0
-9652.3604 3675.5527 10908.365 0
-9593.6348 3677.894 10915.313 65536
-9536.0635 3680.7124 10923.678 0
-9477.8945 3683.3372 10931.468 0
-9418.415 3685.4856 10937.844 0
-9357.0439 3686.9185 10942.096 65536
-9299.7871 3690.0037 10951.253 65536
-9241.6074 3692.7637 10959.443 65536
-9183.6113 3695.637 10967.971 65536
-9116.5625 3694.8821 10965.73 65536
-9056.3379 3696.9023 10971.727 65536
-9002.3008 3701.4956 10985.358 65536
-8942.5225 3703.7781 10992.133 65536
-8882.2803 3705.9014 10998.434 65536
-8824.6543 3709.155 11008.09 65536
-8767.543 3712.6753 11018.538 65536
-8696.377 3710.2522 11011.347 65536
-8631.7119 3710.5874 11012.341 65536
-8580.0361 3716.5542 11030.049 65536
-8523.1572 3720.3411 11041.288 65536
-8463.8184 3723.1055 11049.492 65536
-8416.9795 3731.4536 11074.269 65536
-8361.1934 3735.9365 11087.572 65536
-8303.377 3739.5757 11098.373 65536
-8251.8516 3746.1294 11117.823 65536
-8197.6367 3751.5579 11133.934 65536
-8151.4619 3760.7844 11161.316 0
-8100.7637 3768.0581 11182.903 0
-8048.6729 3774.7988 11202.909 65536
-7998.5229 3782.5701 11225.973 65536
-7945.0947 3788.9087 11244.784 0
-7895.3652 3797.1335 11269.194 0
-7847.6685 3806.4851 11296.948 0
-7798.3579 3815.2092 11322.839 0
-7751.6494 3825.3687 11352.99 0
-7701.5342 3834.0103 11378.638 0
-7650.8911 3842.5403 11403.953 0
-7604.2544 3853.2529 11435.746 0
-7557.9502 3864.3291 11468.618 0
-7504.6118 3871.9771 11491.315 0
-7459.0679 3883.8242 11526.477 0
-7412.4478 3895.3254 11560.609 0
-7362.6069 3905.333 11590.311 0
-7315.0234 3916.7393 11624.162 0
-7266.5732 3927.8943 11657.268 0
-7221.187 3940.9358 11695.973 0
-7175.1118 3953.8513 11734.304 0
-7129.6646 3967.3696 11774.424 0
-7082.772 3980.3435 11812.928 0
-7033.7104 3992.3464 11848.551 0
-6980.3901 4002.1509 11877.647 0
-6919.9771 4008.0466 11895.146 0
-6860.2827 4014.4851 11914.254 0
-6809.9761 4026.6086 11950.234 0
-6762.0405 4040.4048 11991.179 0
-6719.8755 4057.9795 12043.337 0
-6684.1807 4079.8816 12108.338 0
-6647.8154 4101.8472 12173.527 65536
-6603.4321 4119.2935 12225.306 65536
-6564.3809 4140.4917 12288.218 65536
-6524.1338 4161.4043 12350.282 65536
-6485.4849 4183.8237 12416.819 65536
-6444.1016 4204.9746 12479.592 65536
-6409.2915 4230.958 12556.705 65536
-6378.2583 4260.0752 12643.12 65536
-6335.6689 4282.0771 12708.417 65536
-6292.0898 4303.9326 12773.281 65536
-6246.2544 4324.7598 12835.092 65536
-6207.2876 4350.916 12912.719 65536
-6177.5098 4384.249 13011.646 65536
-6135.7197 4409.7939 13087.458 0
-6093.4341 4435.6343 13164.146 0
-6044.3945 4457.166 13228.049 0
-6005.6094 4486.9268 13316.374 0
-5968.3096 4518.6064 13410.394 0
-5930.9507 4551.0991 13506.825 0
-5901.6006 4590.7129 13624.392 0
-5858.4717 4620.5615 13712.978 0
-5818.2021 4653.5396 13810.85 0
-5782.0522 4690.8032 13921.441 0
-5740.5229 4724.7217 14022.105 0
-5693.5879 4755.1245 14112.335 0
-5642.7729 4783.1479 14195.503 0
-5578.9336 4800.814 14247.933 0
-5520.5415 4823.7842 14316.104 0
-5467.9263 4852.6001 14401.626 0
-5417.1577 4883.998 14494.809 0
-5366.7993 4916.7866 14592.118 0
-5309.0728 4943.791 14672.263 0
-5258.3584 4978.3354 14774.784 0
-5211.7412 5017.9985 14892.497 0
-5153.043 5047.1992 14979.159 0
-5110.0454 5093.0757 15115.312 0
-5022.7705 5095.6733 15123.021 0
-4949.9434 5113.29 15175.305 0
-4893.5156 5148.8154 15280.738 0
-4825.9502 5173.7446 15354.723 0
-4765.9893 5207.9448 15456.223 0
-4699.3911 5236.0933 15539.762 0
-4632.6689 5265.2295 15626.233 0
-4571.9248 5302.4917 15736.819 0
-4503.6201 5332.3579 15825.458 0
-4456.7275 5389.3916 15994.723 0
-4503.6865 5564.877 16515.531 0
-4418.2231 5580.9116 16563.119 0
-4341.1304 5608.4912 16644.971 0
-4211.082 5567.3457 16522.859 0
-4073.9912 5514.7036 16366.627 0
-4000.0427 5547.0483 16462.619 0
-3932.1262 5589.5894 16588.873 0
-3862.0227 5631.1299 16712.158 0
-3786.1306 5666.2002 16816.24 0
-3714.2129 5709.2817 16944.098 0
-3639.896 5750.9741 17067.834 0
-3552.1995 5773.311 17134.125 0
-3469.5454 5805.4038 17229.371 0
-3395.8081 5854.8223 17376.035 0
-3307.4785 5881.3931 17454.893 0
-3224.823 5920.0996 17569.768 0
-3208.3555 6086.9712 18065.012 0
-3098.1919 6081.4814 18048.719 0
-3013.5225 6127.4355 18185.102 0
-2930.6108 6180.5146 18342.631 0
-2843.1238 6227.6733 18482.59 0
-2747.6365 6260.395 18579.701 0
-2487.4402 5904.8589 17524.535 0
-2381.2446 5899.8013 17509.525 0
-2509.6296 6502.0425 19296.865 0
-2446.3362 6641.5737 19710.969 0
-2299.2139 6556.106 19457.316 0
-2202.1377 6611.8486 19622.75 0
-2094.8767 6641.5347 19710.854 0
-2003.3281 6727.5024 19965.99 0
0 0 0 0
0 0 0 0
0 0 0 0
0 0 0 0
0 0 0 0
0 0 0 0
0 0 0 0
0 0 0 0
0 0 0 0
0 0 0 0
0 0 0 0
0 0 0 0
0 0 0 0
0 0 0 0
0 0 0 0
0 0 0 0
0 0 0 0
0 0 0 0
251.36485 6729.1704 19970.939 0
0 0 0 0
0 0 0 0
0 0 0 0
0 0 0 0
0 0 0 0
951.33295 6643.9878 19718.135 0
0 0 0 0
0 0 0 0
1316.7827 6714.7397 19928.113 0
0 0 0 0
0 0 0 0
1647.6921 6616.7178 19637.201 65536
1764.8031 6618.2183 19641.656 65536
1880.2048 6613.521 19627.715 65536
1986.707 6579.8979 19527.928 65536
2101.2468 6575.1372 19513.799 65536
2200.9136 6526.769 19370.25 65536
2262.0271 6374.563 18918.531 65536
2175.6296 5840.7603 17334.303 0
2442.3296 6260.3027 18579.428 65536
2603.3958 6384.4971 18948.014 65536
2696.4753 6338.5757 18811.729 65536
2786.7781 6290.0439 18667.693 65536
2877.6504 6246.4653 18538.359 0
2976.2688 6222.2944 18466.625 0
3075.5229 6201.1245 18403.797 0
3142.1992 6117.9785 18157.035 0
3308.7861 6228.4243 18484.818 65536
3354.0356 6110.7085 18135.459 65536
3411.5154 6021.9102 17871.922 65536
3468.6792 5937.9336 17622.695 65536
3538.7737 5880.3672 17451.85 0
3629.6111 5859.5664 17390.115 196608
3708.8735 5821.7476 17277.877 196608
3668.1797 5602.7476 16627.924 196608
3671.0542 5460.0366 16204.385 262144
3713.3755 5381.7939 15972.175 262144
3754.9543 5306.4023 15748.426 262144
3837.5334 5291.209 15703.335 262144
4057.4993 5461.6689 16209.229 393216
4122.1289 5419.9775 16085.497 393216
4149.0659 5331.7407 15823.626 393216
3985.1885 5007.6445 14861.769 393216
4029.561 4953.6084 14701.399 458752
3932.0918 4731.1982 14041.326 524288
4024.8379 4742.1484 14073.825 589824
4102.1006 4734.7812 14051.96 655360
4158.6714 4704.3008 13961.5 851968
4956.8037 5497.459 16315.448 720896
5144.1992 5595.8252 16607.381 458752
4934.1831 5266.3252 15629.484 1315345
5744.4102 6017.8003 17859.725 197122
5555.5742 5714.3857 16959.246 0
5643.8262 5701.7144 16921.639 0
5760.0415 5717.2417 16967.723 0
6077.7383 5928.7788 17595.525 1
6294.8506 6036.7002 17915.816 0
6468.4849 6100.0288 18103.764 0
6562.3813 6087.3208 18066.049 65536
6971.5347 6362.748 18883.467 0
6828.0503 6133.061 18201.797 0
6709.6567 5932.7236 17607.232 0
6819.9458 5937.6362 17621.812 65536
6930.522 5942.647 17636.684 0
6983.2344 5898.6318 17506.055 0
7118.1348 5924.313 17582.271 0
7220.1992 5922.3169 17576.348 0
7318.082 5916.9976 17560.561 0
7388.2212 5889.7104 17479.578 256
7549.3779 5934.7314 17613.191 256
8213.3799 6368.4121 18900.275 256
8274.7559 6329.4355 18784.602 256
8324.2666 6282.5435 18645.434 256
8149.1499 6069.5771 18013.389 256
8097.1772 5952.6641 17666.412 256
8021.0479 5821.2119 17276.287 256
8302.4111 5949.252 17656.285 0
8111.9067 5740.1899 17035.828 0
7852.042 5487.8062 16286.8 0
7883.5693 5442.7441 16153.063 0
7930.8164 5409.4883 16054.367 0
7962.1387 5366.2905 15926.163 256
7921.9937 5276.5059 15659.699 2
7948.7075 5232.8213 15530.052 2
7948.7158 5172.7607 15351.802 2
8237.9072 5300.1187 15729.777 2
8018.8555 5101.2925 15139.698 2
8069.0996 5076.2939 15065.508 2
8148.3394 5069.8857 15046.488 2
8184.2021 5036.9204 14948.653 512
8279.7842 5041.022 14960.827 0
8344.6904 5026.5581 14917.901 0
8376.2949 4992.5503 14816.972 1
8384.5967 4945.5054 14677.35 1
8438.1865 4925.8657 14619.064 1
8534.3057 4931.2007 14634.897 0
8577.2158 4905.9937 14560.088 0
8600.0977 4869.9487 14453.112 0
8682.5742 4868.0293 14447.416 0
8748.3105 4856.8545 14414.25 256
8807.2441 4842.1543 14370.624 0
8895.3535 4843.625 14374.987 0
9018.5322 4863.981 14435.4 0
9123.7842 4874.376 14466.252 256
9244.1885 4892.5967 14520.328 256
9281.4072 4866.8604 14443.946 256
9379.1074 4873.02 14462.227 256
9413.8799 4846.6694 14384.024 256
9494.3193 4844.0928 14376.377 256
9597.6533 4853.1392 14403.225 0
9682.0176 4852.5181 14401.381 0
8659.0889 4301.8086 12766.977 0
9818.25 4835.3047 14350.295 0
9941.1387 4853.6626 14404.778 0
9698.7119 4694.8687 13933.506 0
9730.7109 4670.4795 13861.125 0
9783.5234 4656.4062 13819.358 0
9882.2393 4664.2334 13842.587 0
9972.4414 4667.9453 13853.604 0
10091.869 4685.1646 13904.707 0
10215.799 4704.1777 13961.135 0
10230.935 4673.1899 13869.169 526344
9722.7832 4405.5864 13074.971 0
10238.212 4602.353 13658.938 0
10554.748 4707.3203 13970.461 0
10712.253 4740.2754 14068.266 0
10847.766 4763.0645 14135.898 0
10939.985 4766.6392 14146.509 0
11309.448 4890.0352 14512.726 0
11353.587 4871.9629 14459.091 0
11595.308 4938.3105 14655.997 256
13436.73 5679.8833 16856.85 256
14421.193 6050.9126 17957.996 855822
0 0 0 0
0 0 0 0
0 0 0 0
0 0 0 0
0 0 0 0
0 0 0 0
0 0 0 0
0 0 0 0
0 0 0 0
0 0 0 0
0 0 0 0
0 0 0 0
0 0 0 0
0 0 0 0
0 0 0 0
0 0 0 0
0 0 0 0
0 0 0 0
0 0 0 0
0 0 0 0
0 0 0 0
0 0 0 0
0 0 0 0
0 0 0 0
0 0 0 0
0 0 0 0
0 0 0 0
0 0 0 0
0 0 0 0
0 0 0 0
-9945.7334 3728.8423 10874.702 0
-9886.0615 3730.7141 10880.161 0
-9830.4727 3734.1616 10890.215 0
-9772.5918 3736.7781 10897.846 0
-9713.251 3738.8679 10903.94 0
-9653.4414 3740.804 10909.587 0
-9597.7168 3744.3601 10919.958 0
-9539.3545 3746.9287 10927.448 0
-9477.8691 3748.2969 10931.438 0
-9417.3516 3750.0698 10936.609 65536
-9357.5654 3752.1604 10942.706 65536
-9298.2832 3754.4839 10949.482 0
-9240.5508 3757.4695 10958.19 0
-9179.7705 3759.2502 10963.384 0
-9118.0371 3760.6638 10967.505 0
-9055.5459 3761.7817 10970.767 0
-8992.0059 3762.478 10972.796 0
-8928.0293 3762.9998 10974.318 65536
-8870.3008 3766.1821 10983.599 65536
-8812.3018 3769.2964 10992.682 65536
-8756.0625 3773.2153 11004.11 65536
-8698.9746 3776.8247 11014.637 65536
-8641.6074 3780.3667 11024.967 65536
-8585.8857 3784.6882 11037.569 65536
-8527.3643 3787.8318 11046.738 65536
-8473.7393 3793.2173 11062.443 65536
-8425.9883 3801.3359 11086.121 65536
-8377.1592 3809.0935 11108.745 65536
-8319.5938 3812.9697 11120.049 65536
-8259.0947 3815.5527 11127.582 65536
-8205.7568 3821.5129 11144.964 65536
-8156.6787 3829.5691 11168.459 65536
-8110.0039 3838.8955 11195.659 65536
-8059.8442 3846.7136 11218.459 65536
-8008.3594 3854.0237 11239.778 65536
-7956.0469 3861.0554 11260.285 65536
-7907.7705 3870.1819 11286.901 65536
-7858.8784 3879.1604 11313.086 65536
-7808.4951 3887.5515 11337.558 0
-7760.0435 3897.0586 11365.284 0
-7709.127 3905.4841 11389.855 0
-7659.0898 3914.5083 11416.174 0
-7612.1494 3925.2908 11447.619 0
-7563.0317 3935.135 11476.329 0
-7515.6694 3946.0798 11508.248 0
-7464.1152 3955.0044 11534.275 0
-7416.8887 3966.4089 11567.536 0
-7369.3516 3977.8591 11600.929 0
-7316.9536 3986.8772 11627.229 0
-7270.6826 3999.4377 11663.859 0
-7224.4097 4012.2385 11701.191 0
-7178.6558 4025.5793 11740.099 0
-7132.7637 4039.104 11779.541 0
-7085.7358 4052.2473 11817.872 0
-7035.4487 4063.771 11851.479 0
-6983.2979 4074.4404 11882.596 0
-6923.7266 4080.9539 11901.592 0
-6862.7798 4086.783 11918.591 0
-6813.5776 4099.8008 11956.556 0
-6764.8027 4113.3521 11996.077 0
-6722.1079 4130.9287 12047.337 0
-6683.3008 4151.2988 12106.744 0
-6647.7236 4174.1406 12173.358 65536
-6603.2046 4191.8086 12224.885 65536
-6565.249 4214.082 12289.844 65536
-6525.1108 4235.4404 12352.132 65536
-6483.9121 4256.5889 12413.809 65536
-6443.4961 4278.7432 12478.42 65536
-6407.7036 4304.5205 12553.595 65536
-6381.6597 4337.5303 12649.864 65536
-6339.5972 4360.3096 12716.297 65536
-6298.7905 4384.5127 12786.884 65536
-6251.4351 4404.6938 12845.738 65536
-6207.562 4427.8569 12913.291 65536
-6167.0786 4454.0483 12989.674 65536
-6129.0513 4482.6997 13073.233 0
-6081.3037 4504.8872 13137.94 0
-6032.561 4526.9048 13202.151 0
-5986.3916 4551.459 13273.761 0
-5946.4912 4581.499 13361.369 0
-5914.729 4618.7075 13469.883 0
-5891.8345 4663.9565 13601.846 0
-5852.5825 4697.3359 13699.192 0
-5807.9473 4727.2754 13786.507 0
-5768.5171 4762.3687 13888.854 0
-5722.5239 4792.9844 13978.14 0
-5682.6401 4829.6943 14085.199 0
-5634.1812 4860.1055 14173.889 0
-5575.1343 4882.167 14238.229 0
-5529.939 4917.2261 14340.475 0
-5479.4639 4948.6138 14432.014 0
-5419.9956 4972.7495 14502.401 0
-5367.4907 5004.1577 14593.999 0
-5336.9214 5057.3828 14749.225 0
-5284.9297 5091.7471 14849.443 0
-5236.0024 5130.2812 14961.823 0
-5190.4932 5173.5537 15088.021 0
-5109.6592 5182.5186 15114.168 0
-5028.8042 5191.7832 15141.187 0
-4963.3228 5217.5464 15216.322 0
-4899.7925 5246.355 15300.338 0
-4833.9258 5273.7046 15380.1 0
-4765.8726 5299.6763 15455.843 0
-4693.521 5321.7959 15520.352 0
-4635.2368 5361.0723 15634.896 0
-4574.1372 5398.6318 15744.435 0
-4527.4858 5455.1699 15909.321 0
-4555.4028 5605.8833 16348.857 0
-4523.063 5687.3984 16586.586 0
-4518.251 5807.9307 16938.104 0
-4358.8657 5730.7349 16712.971 0
-4192.8462 5641.0127 16451.309 0
-4057.6047 5589.4038 16300.797 0
-3980.5535 5617.3877 16382.408 0
-3914.2246 5662.2861 16513.35 0
-3846.0188 5706.7095 16642.904 0
-3770.3848 5742.1646 16746.305 0
-3706.5566 5798.0103 16909.172 0
-3655.4995 5877.5024 17141 0
-3574.3455 5911.7729 17240.947 0
-3514.6133 5984.5439 17453.174 0
-3449.0171 6051.4512 17648.301 0
-3426.2759 6200.1064 18081.834 0
-3318.1516 6198.877 18078.25 0
-3204.2605 6186.4321 18041.955 0
-3179.5901 6351.3467 18522.908 0
-3125.1562 6466.5063 18858.756 0
-3029.9907 6502.8159 18964.648 0
-2885.509 6432.0015 18758.129 0
-2833.9287 6570.9028 19163.215 0
-2745.8132 6633.1763 19344.828 0
-2641.262 6659.4517 19421.459 0
-2543.7537 6706.6992 19559.25 0
-2448.7256 6765.3237 19730.221 0
-2346.2986 6808.3755 19855.775 0
-2218.0103 6776.9702 19764.186 0
-2083.177 6720.9365 19600.77 0
-1977.8049 6758.9448 19711.617 0
-1869.9661 6792.7788 19810.289 0
-1759.1653 6819.6777 19888.736 0
0 0 0 0
0 0 0 0
0 0 0 0
0 0 0 0
0 0 0 0
0 0 0 0
0 0 0 0
0 0 0 0
0 0 0 0
0 0 0 0
0 0 0 0
0 0 0 0
0 0 0 0
0 0 0 0
0 0 0 0
0 0 0 0
0 0 0 0
0 0 0 0
0 0 0 0
0 0 0 0
0 0 0 0
0 0 0 0
0 0 0 0
0 0 0 0
0 0 0 0
0 0 0 0
1440.2737 6857.2295 19998.252 0
1545.8181 6798.6812 19827.504 0
1661.1368 6788.3711 19797.436 65536
1769.9512 6754.6021 19698.951 65536
1878.6414 6724.5791 19611.395 65536
1985.9667 6693.4644 19520.65 65536
2090.7292 6657.6226 19416.125 65536
2196.2874 6627.9321 19329.535 65536
2262.3816 6488.019 18921.496 65536
2409.9607 6583.9722 19201.332 65536
2505.8821 6536.501 19062.889 65536
2591.6025 6467.6802 18862.18 65536
2689.7996 6434.4106 18765.154 65536
2773.2666 6369.958 18577.186 65536
2868.7046 6336.8833 18480.729 0
2965.835 6309.8496 18401.887 0
3063.6814 6286.2075 18332.938 0
3146.8762 6235.1597 18184.062 0
3220.3186 6168.8188 17990.588 65536
3299.5779 6117.5269 17841.002 65536
3396.2695 6100.7427 17792.053 65536
3468.5347 6042.4199 17621.961 65536
3529.3799 5968.2051 17405.523 65536
3543.6335 5821.6733 16978.182 196608
3655.2937 5838.8496 17028.275 196608
3419.3081 5314.7432 15499.783 196608
3503.6223 5302.9277 15465.325 262144
3576.0642 5274.2065 15381.563 262144
3526.8447 5071.9561 14791.726 262144
3590.6262 5038.0972 14692.979 262144
3713.1487 5086.3105 14833.588 393216
3724.4565 4983.4775 14533.689 393216
3784.5474 4949.1011 14433.434 393216
3865.8352 4943.3525 14416.67 393216
3898.248 4876.7119 14222.319 458752
3903.7253 4779.9175 13940.031 524288
4033.1182 4835.7222 14102.778 655360
4081.6138 4794.2329 13981.78 655360
4198.3652 4832.9727 14094.761 851968
4245.4912 4791.6152 13974.146 851968
5055.5728 5596.4209 16321.262 720896
5091.5742 5530.1655 16128.036 458752
5092.2979 5428.749 15832.268 327680
5287.9678 5535.0688 16142.336 65536
5547.9634 5703.731 16634.217 0
5661.6094 5718.6631 16677.766 0
6056.6577 6012.4287 17534.496 256
6316.0425 6163.8608 17976.129 0
6588.4087 6322.7139 18439.404 0
6565.7871 6197.9082 18075.424 0
6564.0308 6096.5 17779.68 65536
6483.9878 5926.7476 17284.617 0
6717.6274 6044.541 17628.148 0
6670.2139 5909.7085 17234.926 0
6767.3853 5905.1167 17221.535 0
6839.1665 5878.8384 17144.896 0
6952.9092 5888.8696 17174.152 0
7079.8589 5909.6357 17234.713 0
7179.1016 5907.0117 17227.061 0
7299.2158 5921.3931 17269.002 256
7390.1191 5912.0073 17241.631 256
8105.9341 6395.9634 18653.027 256
8387.6816 6528.9814 19040.957 256
8446.1582 6486.9766 18918.455 256
8291.2236 6284.3213 18327.438 0
7873.2944 5890.1704 17177.945 256
7847.9346 5796.0396 16903.424 256
8016.0435 5845.3672 17047.283 460551
7624.6646 5490.5732 16012.57 0
7801.3179 5548.5278 16181.587 0
7834.8149 5504.4941 16053.169 0
7872.7656 5464.6108 15936.854 0
7899.8872 5418.2485 15801.645 2
7905.96 5358.709 15628.005 2
7915.4761 5302.8589 15465.125 2
7925.645 5248.7236 15307.245 2
7982.1826 5226.1753 15241.486 2
8011.9746 5186.8184 15126.707 2
8096.5781 5183.4253 15116.812 2
8171.7979 5174.1655 15089.807 2
8182.9712 5124.9946 14946.405 2
8308.3789 5147.6558 15012.494 2
8313.4502 5096.0713 14862.055 2
8329.1465 5052.0156 14733.571 2
8443.377 5068.0195 14780.245 0
8501.8779 5050.5879 14729.408 0
8481.1514 4986.9258 14543.745 0
8558.1523 4981.4326 14527.726 0
8594.1006 4952.3926 14443.033 0
8688.7695 4957.4297 14457.724 0
8799.6865 4971.5483 14498.899 256
8908.5361 4984.2363 14535.901 256
9036.7881 5007.4321 14603.549 256
9043.5518 4963.5073 14475.448 256
9157.4082 4978.6348 14519.565 0
9273.9053 4994.9014 14567.005 0
9340.9561 4984.4819 14536.618 0
9395.2236 4967.4951 14487.078 0
9479.3525 4966.4609 14484.062 0
9572.4551 4970.106 14494.691 0
9683.6367 4982.9878 14532.261 0
9782.1387 4989.1753 14550.306 0
9839.2402 4974.3237 14506.993 0
10010.029 5016.707 14630.6 0
9856.9688 4897.4556 14282.816 1250580
10181.714 5015.6108 14627.402 256
10194.605 4979.4448 14521.929 197636
10202.535 4941.4834 14411.218 256
10190.831 4894.7231 14274.848 0
10040.871 4782.8779 13948.665 0
10157.378 4798.7544 13994.967 0
10265.477 4810.4326 14029.025 0
10385.014 4827.2402 14078.042 0
10002.027 4612.0581 13450.491 1644569
9577.7119 4381.3828 12777.756 65793
10923.979 4957.9297 14459.182 0
10852.447 4887.0195 14252.382 0
10990.84 4911.0078 14322.34 256
11106.711 4924.6416 14362.102 256
11488.693 5055.1597 14742.74 514
12440.736 5432.6362 15843.604 2633003
0 0 0 0
0 0 0 0
0 0 0 0
0 0 0 0
0 0 0 0
0 0 0 0
0 0 0 0
0 0 0 0
0 0 0 0
0 0 0 0
0 0 0 0
0 0 0 0
0 0 0 0
0 0 0 0
0 0 0 0
0 0 0 0
0 0 0 0
0 0 0 0
0 0 0 0
0 0 0 0
0 0 0 0
0 0 0 0
0 0 0 0
0 0 0 0
0 0 0 0
0 0 0 0
0 0 0 0
0 0 0 0
0 0 0 0
0 0 0 0
0 0 0 0
0 0 0 0
0 0 0 0
-9941.5195 3791.8669 10870.095 0
-9885.499 3795.1626 10879.542 0
-9825.8887 3797.1143 10885.137 0
-9770.415 3800.7012 10895.419 0
-9709.6279 3802.2549 10899.873 0
-9649.1738 3803.9609 10904.764 0
-9592.0498 3807.0117 10913.51 0
-9532.7148 3809.2209 10919.842 0
-9467.5156 3809.1006 10919.497 0
-9408.498 3811.4832 10926.327 0
-9356.6416 3816.8198 10941.626 0
-9294.6553 3818.0698 10945.209 0
-9231.665 3818.9226 10947.654 0
-9168.0752 3819.5371 10949.416 0
-9109.0303 3822.0679 10956.671 0
-9049.4082 3824.3914 10963.331 0
-8986.2939 3825.2615 10965.826 0
-8932.0322 3829.9402 10979.238 65536
-8876.0186 3833.9314 10990.68 65536
-8818.2051 3837.1985 11000.045 65536
-8760.2373 3840.4465 11009.356 65536
-8700.21 3842.8337 11016.2 65536
-8643.0752 3846.5452 11026.839 65536
-8590.2607 3852.25 11043.193 65536
-8536.5547 3857.6399 11058.645 65536
-8479.8721 3861.7578 11070.449 65536
-8428.3682 3868.3171 11089.253 65536
-8371.9209 3872.6931 11101.798 65536
-8312.0898 3875.5608 11110.019 65536
-8261.1865 3882.6709 11130.4 65536
-8204.4463 3887.1296 11143.183 65536
-8161.2622 3898.1362 11174.735 65536
-8110.3018 3905.5789 11196.07 65536
-8061.7617 3914.3196 11221.128 65536
-8007.1558 3920.2363 11238.089 65536
-7957.6587 3928.7749 11262.566 65536
-7911.2476 3938.9946 11291.863 65536
-7862.2568 3948.0945 11317.949 65536
-7814.3335 3957.8914 11346.034 0
-7766.6753 3967.9946 11374.997 0
-7716.1587 3976.802 11400.245 0
-7666.0903 3985.9985 11426.608 0
-7617.936 3996.3635 11456.321 0
-7570.4819 4007.2861 11487.634 0
-7523.7368 4018.7861 11520.601 0
-7470.335 4026.9092 11543.887 0
-7423.8335 4038.937 11578.367 0
-7375.9419 4050.4268 11611.304 0
-7325.188 4060.5466 11640.314 0
-7276.707 4072.1311 11673.523 0
-7232.502 4086.3545 11714.298 0
-7188.3696 4100.8965 11755.984 0
-7140.6929 4113.6816 11792.636 0
-7092.645 4126.5044 11829.396 0
-7042.2871 4138.2266 11862.999 0
-6988.0713 4147.896 11890.718 0
-6925.79 4152.9263 11905.139 0
-6869.2866 4161.5615 11929.892 0
-6824.0054 4177.2456 11974.854 0
-6774.6821 4190.7607 12013.597 0
-6727.2373 4205.7368 12056.529 0
-6684.0356 4223.7178 12108.075 0
-6645.8394 4245.2876 12169.908 65536
-6601.7427 4263.521 12222.178 65536
-6564.7812 4286.8193 12288.968 65536
-6524.1069 4308.1904 12350.231 65536
-6481.9629 4329.0664 12410.076 65536
-6441.8184 4351.7734 12475.171 65536
-6406.8071 4378.5176 12551.838 65536
-6374.3394 4407.6509 12635.353 65536
-6333.394 4431.5464 12703.854 65536
-6292.2573 4455.8833 12773.62 65536
-6250.5688 4480.4189 12843.957 65536
-6204.5469 4502.4165 12907.018 65536
-6156.7896 4523.6904 12968.003 65536
-6119.7031 4553.4434 13053.294 0
-6076.0884 4579.04 13126.673 0
-6023.4268 4598.3965 13182.161 0
-5983.3882 4628.0264 13267.102 0
-5934.3657 4651.4062 13334.124 0
-5890.7173 4679.6885 13415.2 0
-5856.1548 4716.0635 13519.476 0
-5821.3335 4753.2393 13626.048 0
-5781.064 4786.9521 13722.692 0
-5743.7183 4824.0869 13829.146 0
-5711.1738 4866.3901 13950.415 0
-5673.4585 4905.4688 14062.442 0
-5628.7476 4939.5771 14160.22 0
-5585.272 4975.8213 14264.12 0
-5516.9214 4990.6807 14306.717 0
-5463.4277 5019.6548 14389.777 0
-5417.3433 5056.4668 14495.306 0
-5367.0933 5090.5171 14592.918 0
-5327.8496 5136.2969 14724.153 0
-5274.3706 5169.6533 14819.775 0
-5209.8994 5193.1851 14887.234 0
-5122.8091 5194.5942 14891.273 0
-5071.1084 5232.5693 15000.137 0
-5021.6729 5274.2827 15119.716 0
-4946.6982 5290.2036 15165.355 0
-4881.7588 5317.6465 15244.025 0
-4841.7388 5373.7852 15404.958 0
-4783.5444 5411.5278 15513.153 0
-4723.1582 5448.2251 15618.354 0
-4654.7275 5476.9292 15700.639 0
-4590.7803 5512.1899 15801.722 0
-4524.5063 5546.0718 15898.85 0
-4493.6235 5625.707 16127.139 0
-4408.9897 5640.0542 16168.268 0
-4395.0659 5747.5093 16476.307 0
-4244.8418 5677.5566 16275.775 0
-4125.1143 5646.0835 16185.552 0
-4033.9563 5653.144 16205.792 0
-3967.1331 5695.4868 16327.175 0
-3902.6921 5743.459 16464.697 0
-3830.1396 5781.6538 16574.189 0
-3762.4597 5829.415 16711.105 0
-3672.5388 5844.3721 16753.982 0
-3615.0288 5913.1782 16951.229 0
-3540.406 5957.1353 17077.24 0
-3466.0874 6004.2139 17212.199 0
-3383.5803 6039.54 17313.469 0
-3318.7468 6109.6177 17514.359 0
-3278.9233 6231.7671 17864.523 0
-3136.0249 6159.6372 17657.748 0
-3155.8992 6413.291 18384.896 0
-3064.9402 6451.832 18495.381 0
-2963.8396 6471.0977 18550.609 0
-2814.4744 6382.4019 18296.346 0
-2828.9463 6673.0435 19129.523 0
-2751.6516 6762.4966 19385.959 0
-2642.1316 6777.1113 19427.854 0
-2540.707 6814.7744 19535.822 0
-2218.4758 6235.4282 17875.02 0
-2277.6804 6723.8213 19275.088 0
-2242.3743 6970.1675 19981.287 0
-2123.0886 6968.4292 19976.303 0
-1995.0021 6935.8857 19883.01 0
-1856.8433 6862.0225 19671.268 0
-1753.0691 6913.8403 19819.812 0
-1641.1284 6938.5967 19890.781 0
0 0 0 0
0 0 0 0
0 0 0 0
0 0 0 0
0 0 0 0
0 0 0 0
0 0 0 0
0 0 0 0
0 0 0 0
0 0 0 0
0 0 0 0
0 0 0 0
0 0 0 0
0 0 0 0
0 0 0 0
0 0 0 0
0 0 0 0
0 0 0 0
0 0 0 0
0 0 0 0
0 0 0 0
0 0 0 0
0 0 0 0
0 0 0 0
0 0 0 0
0 0 0 0
1542.9811 6903.8286 19791.113 0
1644.2706 6835.9136 19596.422 65536
1752.8427 6805.2578 19508.541 65536
1860.053 6773.4468 19417.348 65536
1963.91 6733.8545 19303.85 65536
2068.7373 6701.7754 19211.889 65536
2175.0242 6677.5347 19142.398 65536
2283.4895 6662.0581 19098.033 65536
2394.6367 6655.501 19079.236 65536
2489.9644 6607.5581 18941.799 65536
2578.8237 6547.3403 18769.172 65536
2678.1279 6517.5347 18683.729 65536
2756.5818 6441.3809 18465.42 0
2862.1199 6431.9233 18438.309 0
2970.3477 6428.9854 18429.887 0
3057.2136 6381.665 18294.234 0
3133.2942 6315.855 18105.578 0
3226.2925 6287.3843 18023.961 65536
3309.0454 6241.4194 17892.193 65536
3408.2307 6228.3457 17854.715 65536
3476.4724 6161.2207 17662.289 65536
3520.6277 6056.5952 17362.359 131072
3580.3186 5983.8931 17153.945 196608
3643.5608 5920.9883 16973.617 196608
3374.3701 5335.8042 15296.078 262144
3391.25 5221.8135 14969.303 327680
3424.2295 5137.8071 14728.483 327680
3473.8108 5082.2778 14569.298 327680
3538.0022 5050.3052 14477.642 327680
3604.9114 5023.6372 14401.193 327680
3656.1675 4976.8989 14267.209 327680
3719.792 4948.7349 14186.471 393216
3798.2217 4941.0776 14164.521 393216
3877.6614 4935.0396 14147.211 458752
3945.6575 4915.002 14089.77 458752
3995.553 4873.7183 13971.423 655360
4090.4399 4887.8784 14012.016 655360
4170.3467 4883.9302 14000.696 851968
4243.4355 4872.3076 13967.379 851968
4314.3052 4858.6323 13928.177 655360
4650.9722 5139.1694 14732.388 524288
5220.646 5662.0454 16231.31 262144
5545.2549 5904.9863 16927.744 131072
5461.3384 5711.9932 16374.494 0
5567.1084 5720.6772 16399.389 256
5608.6265 5664.1738 16237.411 395014
6316.979 6271.6299 17978.797 4474435
6607.605 6451.0469 18493.129 921358
6736.04 6468.8359 18544.125 0
6320.7749 5972.3247 17120.783 65536
6467.5522 6014.1919 17240.803 0
6378.8403 5839.1855 16739.115 0
6519.3013 5876.1177 16844.988 0
6627.5962 5883.3789 16865.803 0
6719.3281 5875.9395 16844.477 0
6860.459 5911.2822 16945.793 0
7004.5967 5948.1562 17051.5 0
7106.73 5948.8179 17053.396 0
7202.9019 5944.5405 17041.135 256
7313.4102 5952.0503 17062.662 256
8209.4805 6589.9438 18891.303 2434854
8362.4639 6622.1782 18983.709 592650
8317.8594 6499.1689 18631.08 256
8134.5767 6272.46 17981.176 256
7716.0835 5872.6133 16834.941 256
7700.8618 5786 16586.648 256
7702.7725 5714.2866 16381.068 0
7765.4814 5688.9023 16308.3 0
7815.1797 5654.7305 16210.34 0
7873.0176 5627.2085 16131.443 0
7865.2695 5554.0361 15921.681 0
7919.2974 5525.707 15840.47 0
7996.582 5514.0806 15807.141 256
7978.1299 5437.4751 15587.537 256
7987.7183 5381.5195 15427.13 256
8037.6431 5353.7017 15347.385 2
8035.999 5292.5439 15172.065 2
8083.3984 5264.686 15092.205 256
8166.9146 5260.7036 15080.789 0
8284.3896 5278.4458 15131.649 256
8348.5273 5262.1865 15085.04 2
8482.0889 5289.5669 15163.53 1
8368.4082 5163.8086 14803.021 0
8568.3496 5232.1768 14999.012 66049
8664.6084 5236.4771 15011.338 0
8541.04 5109.1895 14646.444 256
8590.6143 5086.9985 14582.83 256
8648.3506 5070.0361 14534.204 256
8727.1016 5065.6069 14521.507 256
8940.5547 5138.686 14731.003 0
8679.0449 4940.0049 14161.445 2698027
8652.1582 4877.4014 13981.981 131842
9103.8135 5083.188 14571.906 0
9217.4971 5098.1641 14614.839 0
9328.1953 5111.2256 14652.281 0
9522.8428 5169.6182 14819.676 0
9762.2314 5251.0063 15052.989 0
9593.3408 5113.3013 14658.232 0
9611.75 5077.0083 14554.191 0
9728.2627 5092.7197 14599.23 0
9830.0967 5100.5371 14621.641 0
9895.8398 5089.6543 14590.443 0
8824.0088 4498.9634 12897.118 256
10183.453 5147.3691 14755.894 0
10904.361 5464.7002 15665.583 3487284
0 0 0 0
10613.251 5229.5078 14991.359 328965
10136.354 4952.9438 14198.538 0
10079.04 4884.2764 14001.689 256
10227.622 4915.6929 14091.75 0
10384.638 4950.6196 14191.874 0
10478.118 4954.938 14204.254 0
10624.44 4983.9771 14287.499 0
10775.742 5014.8721 14376.065 0
10985.828 5072.4229 14541.046 0
11133.81 5100.6245 14621.891 256
11515.009 5234.4033 15005.394 256
11534.691 5203.0532 14915.523 0
11813.164 5288.0264 15159.113 1185558
0 0 0 0
0 0 0 0
0 0 0 0
0 0 0 0
0 0 0 0
0 0 0 0
0 0 0 0
0 0 0 0
0 0 0 0
0 0 0 0
0 0 0 0
0 0 0 0
0 0 0 0
0 0 0 0
0 0 0 0
0 0 0 0
0 0 0 0
0 0 0 0
0 0 0 0
0 0 0 0
0 0 0 0
0 0 0 0
0 0 0 0
0 0 0 0
0 0 0 0
0 0 0 0
0 0 0 0
17290.023 6377.7256 18282.939 0
0 0 0 0
0 0 0 0
0 0 0 0
0 0 0 0
0 0 0 0
0 0 0 0
-9944.5469 3857.6462 10873.404 0
-9887.6914 3860.6799 10881.955 0
-9829.7959 3863.3442 10889.466 0
-9771.6357 3865.9392 10896.78 0
-9708.5322 3866.6006 10898.644 0
-9649.9072 3869.0662 10905.594 0
-9590.2607 3871.1528 10911.475 0
-9530.1143 3873.0642 10916.863 0
-9472.623 3876.0886 10925.388 0
-9417.2285 3880.0188 10936.466 65536
-9357.0234 3882.0076 10942.071 65536
-9296.5244 3883.9016 10947.41 0
-9238.167 3886.7236 10955.364 0
-9175.8887 3887.9241 10958.748 0
-9113.9961 3889.3064 10962.644 0
-9053.46 3891.2915 10968.239 0
-8990.0605 3892.0659 10970.422 0
-8929.9561 3894.2883 10976.687 65536
-8870.9678 3897.0337 10984.425 65536
-8810.3291 3899.0898 10990.221 65536
-8761.6309 3906.5 11011.107 65536
-8700.0342 3908.228 11015.978 65536
-8642.2041 3911.687 11025.728 65536
-8587.3633 3916.5623 11039.469 65536
-8536.4414 3923.313 11058.497 65536
-8477.2979 3926.3616 11067.09 65536
-8422.8643 3931.6553 11082.012 65536
-8369.9678 3937.7561 11099.208 65536
-8309.9756 3940.5889 11107.192 65536
-8262.3115 3949.3606 11131.916 65536
-8212.5869 3957.28 11154.239 65536
-8166.2964 3966.9971 11181.628 65536
-8116.248 3975.0332 11204.279 65536
-8065.1362 3982.677 11225.824 65536
-8015.5918 3991.2288 11249.929 65536
-7959.3623 3996.5676 11264.978 65536
-7912.9277 4006.957 11294.262 65536
-7868.3325 4018.4639 11326.695 65536
-7817.7139 4027.0659 11350.942 0
-7768.6978 4036.6511 11377.959 0
-7717.5605 4045.2925 11402.316 0
-7668.0347 4054.9392 11429.507 0
-7618.2559 4064.623 11456.803 0
-7572.0864 4076.425 11490.068 0
-7526.0986 4088.5403 11524.217 0
-7474.8081 4097.9707 11550.799 0
-7423.6455 4107.6475 11578.073 0
-7378.1099 4120.6475 11614.717 0
-7325.5039 4129.9072 11640.816 0
-7278.4287 4142.4912 11676.286 0
-7232.1309 4155.7637 11713.697 0
-7186.0923 4169.4453 11752.261 0
-7138.6914 4182.5972 11789.331 0
-7092.5469 4196.7529 11829.232 0
-7041.4951 4208.2593 11861.665 0
-6986.3677 4217.5381 11887.819 0
-6924.8726 4223.123 11903.562 0
-6868.1333 4231.7539 11927.888 0
-6823.1523 4247.8853 11973.356 0
-6781.4316 4266.4077 12025.565 0
-6731.3174 4279.9878 12063.843 0
-6686.9761 4297.5698 12113.401 65536
-6650.5151 4320.6548 12178.471 65536
-6606.729 4339.4365 12231.409 65536
-6567.4424 4361.6245 12293.949 65536
-6527.9746 4384.1899 12357.554 65536
-6486.271 4405.75 12418.324 65536
-6447.4453 4429.7837 12486.067 65536
-6413.959 4458.0884 12565.85 65536
-6373.8325 4482.3901 12634.348 65536
-6327.6162 4502.938 12692.265 65536
-6285.7642 4527.1245 12760.438 65536
-6241.5869 4550.208 12825.502 65536
-6199.0098 4575.0415 12895.5 65536
-6154.9141 4599.3623 12964.052 65536
-6114.0552 4626.7495 13041.248 0
-6068.2339 4651.0361 13109.704 0
-6020.3433 4674.3481 13175.413 0
-5969.0371 4695.5879 13235.28 0
-5928.6294 4726.0825 13321.234 0
-5884.918 4754.7344 13401.993 0
-5849.6758 4791.1074 13504.518 0
-5805.8179 4821.3389 13589.729 0
-5762.8638 4853.1841 13679.491 0
-5735.4893 4899.2485 13809.331 0
-5708.0054 4946.5566 13942.676 0
-5671.3315 4987.1763 14057.169 0
-5627.8203 5022.9087 14157.887 0
-5578.5474 5054.5049 14246.945 0
-5520.7896 5079.2686 14316.747 0
-5460.2612 5102.2197 14381.438 0
-5405.9395 5131.792 14464.792 0
-5360.6221 5171.0059 14575.322 0
-5309.0117 5205.3379 14672.093 0
-5256.3687 5239.7871 14769.193 0
-5183.1973 5254.5952 14810.934 0
-5108.8335 5268.6855 14850.648 0
-5043.3096 5292.5479 14917.909 0
-4982.8101 5322.6313 15002.704 0
-4924.1943 5355.8599 15096.363 0
-4859.4331 5383.5132 15174.311 0
-4811.9731 5431.7427 15310.252 0
-4749.2046 5464.2183 15401.789 0
-4691.251 5503.6182 15512.846 0
-4621.5073 5530.4893 15588.586 0
-4549.1362 5555.251 15658.38 0
-4471.522 5574.5107 15712.667 0
-4401.9839 5604.875 15798.254 0
-4328.1396 5630.96 15871.779 0
-4262.3008 5668.8555 15978.594 0
-4187.5098 5696.3003 16055.951 0
-4106.0273 5715.7104 16110.661 0
-4047.9517 5769.4077 16262.017 0
-4000.8 5841.6831 16465.736 0
-3926.668 5877.1997 16565.846 0
-3848.9143 5908.9834 16655.434 0
-3747.7087 5905.4907 16645.588 0
-3671.363 5942.0435 16748.619 0
-3582.334 5959.5347 16797.92 0
-3501.3147 5991.7349 16888.682 0
-3425.9431 6035.7861 17012.848 0
-3369.4209 6116.7344 17241.014 0
-3265.6982 6114.3887 17234.4 0
-3208.7546 6202.311 17482.225 0
-3105.2002 6203.0068 17484.186 0
-3017.3679 6236.2446 17577.873 0
-2931.3367 6275.7236 17689.15 0
-3016.8203 6698.9966 18882.215 0
-2895.0061 6676.877 18819.867 0
-2863.7212 6870.1626 19364.674 0
-2781.5442 6952.4312 19596.561 0
-2495.2234 6509.3354 18347.623 0
-2042.3951 5571.5205 15704.239 986893
-2140.0059 6117.354 17242.76 1052686
-1999.2922 6002.5625 16919.201 1184529
-2109.2563 6668.0918 18795.104 0
0 0 0 0
0 0 0 0
-1850.2681 6954.2227 19601.609 0
-1738.8363 6974.5479 19658.9 0
-1633.0939 7022.2661 19793.402 0
-1524.0387 7062.0405 19905.514 0
0 0 0 0
0 0 0 0
0 0 0 0
0 0 0 0
0 0 0 0
0 0 0 0
0 0 0 0
0 0 0 0
0 0 0 0
0 0 0 0
0 0 0 0
0 0 0 0
0 0 0 0
0 0 0 0
0 0 0 0
0 0 0 0
0 0 0 0
0 0 0 0
0 0 0 0
0 0 0 0
0 0 0 0
0 0 0 0
0 0 0 0
0 0 0 0
1431.5411 7051.9253 19877 0
1532.2462 6972.605 19653.424 0
1629.8386 6891.3604 19424.422 65536
1745.7008 6893.0039 19429.055 65536
1845.8615 6836.291 19269.199 65536
1960.3284 6836.0942 19268.645 65536
2068.6086 6815.5347 19210.695 65536
2172.4353 6783.2207 19119.613 65536
2274.0242 6747.4785 19018.869 65536
2375.9155 6715.9775 18930.078 65536
2466.2483 6656.1279 18761.383 0
2558.0852 6605.3423 18618.234 0
2648.5154 6555.2852 18477.139 0
2723.9919 6473.6763 18247.111 0
2821.0747 6447.6987 18173.889 0
2914.8655 6416.3896 18085.641 0
3008.6682 6387.3335 18003.74 0
3100.3142 6355.8516 17915.004 0
3184.8579 6312.3843 17792.484 65536
3262.915 6259.2671 17642.764 65536
3332.1836 6193.123 17456.326 65536
3402.3333 6132.561 17285.623 131072
3459.939 6053.603 17063.066 196608
3515.2749 5975.2832 16842.311 196608
3565.6389 5893.083 16610.615 262144
3375.2112 5428.0669 15299.892 262144
3396.7754 5319.4341 14993.692 262144
3445.3005 5257.498 14819.115 262144
3429.5664 5103.0347 14383.735 262144
3495.3618 5074.4463 14303.154 262144
3543.2026 5021.7686 14154.674 262144
3607.8652 4994.8232 14078.723 393216
3677.4802 4975.7993 14025.103 393216
3767.5425 4984.6724 14050.111 393216
3869.8728 5009.0396 14118.795 524288
3939.3882 4990.7998 14067.383 655360
3999.3533 4961.4702 13984.712 720896
4097.0806 4979.2271 14034.763 851968
4231.2344 5039.6621 14205.108 851968
4329.9409 5056.3389 14252.115 851968
4585.46 5251.981 14803.564 720896
4822.4463 5419.4307 15275.548 589824
4939.4844 5448.3848 15357.161 458752
5187.4917 5618.1304 15835.616 196608
5153.3984 5481.7515 15451.211 131072
5275.375 5513.2554 15540.01 65536
5346.8711 5491.8262 15479.608 0
5522.1719 5575.9375 15716.689 0
6047.0293 6004.3398 16924.211 0
5820.1079 5684.4648 16022.59 0
5855.6704 5627.1279 15860.978 65536
6022.7124 5695.9546 16054.977 0
6186.7148 5759.8042 16234.947 0
6379.4736 5848.0537 16483.693 0
6499.5537 5868.0171 16539.963 0
6589.9526 5860.9873 16520.148 0
6712.2554 5882.123 16579.723 0
6866.2803 5930.043 16714.793 0
6924.231 5894.8047 16615.469 0
7006.8857 5881.2939 16577.387 0
7147.4014 5916.0508 16675.354 0
0 0 0 0
0 0 0 0
7980.292 6341.647 17874.967 131585
8068.2095 6327.2812 17834.473 0
7464.4399 5777.8833 16285.906 0
7532.6333 5756.0293 16224.307 0
7641.1685 5765.165 16250.057 0
7662.5698 5709.1519 16092.175 0
7755.5015 5707.1577 16086.554 0
7829.209 5691.2383 16041.683 0
7903.2231 5675.9209 15998.509 0
7979.1367 5662.3164 15960.162 0
8017.0024 5622.3486 15847.506 256
8018.2935 5557.957 15666.008 2
8021.1577 5496.1206 15491.713 2
8053.6504 5455.7603 15377.95 2
8040.1709 5385.5117 15179.943 1
8174.2759 5414.5806 15261.879 2
7894.7544 5172.0361 14578.227 258
7962.0317 5159.4863 14542.854 1
8370.8799 5366.1719 15125.43 2
8263.5664 5241.0933 14772.876 0
8329.3584 5227.2812 14733.943 0
8385.9043 5208.0151 14679.639 0
8750.4268 5378.4424 15160.017 0
8530.3838 5189.7554 14628.172 256
8589.5967 5173.0562 14581.103 256
8667.5732 5167.8794 14566.51 256
8754.1592 5167.8862 14566.53 65793
8794.2764 5140.73 14489.985 131842
8332.1689 4823.3696 13595.454 256
8927.2666 5118.2275 14426.56 256
9110.5664 5173.6284 14582.716 256
9221.5518 5187.3066 14621.269 256
9317.3027 5192.2393 14635.172 0
9376.3652 5176.8242 14591.723 0
9391.8896 5137.8745 14481.937 0
9416.5791 5104.6006 14388.148 0
9501.5566 5104.3115 14387.335 0
9640.0234 5132.5083 14466.811 65536
9742.1689 5141.0381 14490.854 0
8387.8193 4387.5469 12367.017 0
8222.6055 4263.7627 12018.11 0
10501.586 5398.6128 15216.87 0
10942.714 5577.3545 15720.683 0
10656.026 5385.252 15179.211 0
10681.735 5352.9258 15088.095 0
9926.1631 4932.875 13904.112 0
10027.984 4942.3306 13930.764 0
10251 5010.8721 14123.96 0
10445.1 5064.2812 14274.502 0
10619.146 5107.1846 14395.433 0
10772.759 5139.6548 14486.954 0
0 0 0 0
11069.097 5197.9473 14651.262 0
11372.784 5298.8716 14935.733 0
11663.423 5392.1997 15198.794 0
11763.06 5396.4683 15210.826 0
12052.931 5487.2798 15466.792 0
0 0 0 0
