# .PCD v0.7 - Point Cloud Data file format
VERSION 0.7
FIELDS x y z rgb
SIZE 4 4 4 4
TYPE F F F U
COUNT 1 1 1 1
WIDTH 1624
HEIGHT 1
VIEWPOINT 0 0 0 1 0 0 0
POINTS 1624
DATA ascii
-9109.6523 2833.906 10435.219 0
-9071.2646 2841.3079 10462.475 0
-9019.1631 2844.4875 10474.183 0
-8971.7715 2849.2065 10491.56 0
-8916.3906 2851.4365 10499.771 65536
-8868.8447 2856.2217 10517.392 65536
-8814.5166 2858.8752 10527.162 65536
-8758.5176 2861.0203 10535.061 65536
-8702.8105 2863.2925 10543.428 65536
-8643.9502 2864.553 10548.069 65536
-8586.999 2866.4688 10555.124 65536
-8521.5303 2865.5488 10551.736 65536
-8460.2549 2866.0356 10553.529 0
-8399.0879 2866.5667 10555.484 0
-8335.5186 2866.2798 10554.428 0
-8280.252 2868.8652 10563.948 0
-8215.5908 2868.2104 10561.537 0
-8146.2725 2865.9067 10553.055 0
-8096.1182 2870.3621 10569.46 0
-8042.7349 2873.7329 10581.873 0
-7984.8779 2875.5464 10588.55 0
-7923.3916 2876.0708 10590.481 0
-7862.6841 2876.8887 10593.493 65536
-7802.7881 2878.019 10597.655 65536
-7742.6724 2879.0862 10601.585 65536
-7698.5308 2886.1597 10627.631 65536
-7650.5742 2891.908 10648.798 65536
-7600.8638 2897.0835 10667.855 65536
-7553.001 2903.0564 10689.85 65536
-7504.7925 2908.9968 10711.724 65536
-7453.2422 2913.7322 10729.16 65536
-7402.6641 2918.9326 10748.311 65536
-7358.1968 2926.6543 10776.743 0
-7309.4717 2932.803 10799.385 0
-7253.9624 2936.3145 10812.315 0
-7208.8188 2944.1226 10841.066 0
-7143.5312 2943.77 10839.769 0
-7078.6841 2943.5942 10839.121 0
-7020.9253 2946.3901 10849.416 0
-6958.0171 2947.0566 10851.87 0
-6898.6558 2949.252 10859.954 0
-6837.4839 2950.707 10865.312 65536
-6770.0225 2949.4502 10860.685 65536
-6702.9399 2948.3359 10856.581 65536
-6635.6821 2947.1218 10852.11 196608
-6578.1841 2950.261 10863.67 196608
-6508.9438 2948.144 10855.875 262144
-6429.7422 2941.4277 10831.144 262144
-6356.6875 2937.4163 10816.372 0
-5645.4141 2635.3894 9704.2266 6119262
-5724.5332 2699.907 9941.7979 1449499
-6333.9878 3018.5054 11114.964 1024
-6755.6484 3253.3818 11979.844 256
-5910.5122 2876.7002 10592.799 0
-5742.1543 2824.8479 10401.864 0
-5774.8022 2871.8281 10574.858 65536
-5712.0962 2871.9004 10575.125 65536
-5721.8931 2908.833 10711.12 65536
-5734.4199 2947.9995 10855.343 65536
-5718.0522 2973.0342 10947.527 65536
-5674.6558 2984.4302 10989.49 65536
-5666.6846 3014.9392 11101.833 65536
-5642.751 3037.5747 11185.183 65536
-5690.2031 3099.6357 11413.709 65536
-5656.731 3118.5803 11483.469 65536
-5615.814 3133.8333 11539.634 65536
-5588.0659 3156.9031 11624.583 65536
-5527.4038 3161.7231 11642.332 65536
-5615.2236 3252.6753 11977.242 65536
-6208.8657 3642.7278 13413.522 65536
-6183.1011 3674.7959 13531.605 65536
-6132.6675 3692.8542 13598.103 65536
-6096.7861 3720.2749 13699.072 65536
-6048.7466 3740.9185 13775.087 0
-6002.6104 3763.3215 13857.582 0
-5985.3325 3804.6924 14009.921 0
-5959.1133 3841.4673 14145.335 0
-5934.3584 3880.2512 14288.148 0
-5883.7227 3902.9934 14371.893 0
-5832.5059 3926.0146 14456.662 0
-5775.96 3946.083 14530.561 0
-5746.6968 3985.6836 14676.38 0
-5707.1465 4019.2595 14800.016 0
-5691.0591 4070.6694 14989.321 0
-5650.4126 4105.8687 15118.935 0
-5584.3286 4123.4224 15183.572 0
-5534.8623 4154.0249 15296.259 0
-5494.3091 4192.4502 15437.751 0
-5445.7363 4225.958 15561.135 0
-5383.5918 4249.9097 15649.332 0
-5338.7031 4288.5645 15791.671 0
-5284.7612 4321.2012 15911.847 0
-5209.0884 4336.9336 15969.779 0
-5146.0786 4363.9893 16069.404 0
-5076.1001 4386.0464 16150.625 0
-5014.9512 4416.7305 16263.612 0
-4948.0269 4443.4336 16361.94 0
-5064.6655 4639.356 17083.381 0
-4939.5269 4617.29 17002.127 0
-4728.3882 4512.2329 16615.279 0
-4658.0586 4539.9331 16717.279 0
-4571.8726 4553.0493 16765.576 0
-4517.6885 4599.3306 16935.996 0
-4441.4219 4624.7271 17029.514 0
-4356.709 4642.3086 17094.252 0
-4277.7251 4666.979 17185.096 0
-4193.2349 4686.7021 17257.723 0
-4119.7734 4720.0508 17380.521 0
-4045.7947 4754.5059 17507.395 0
-3972.2627 4791.3198 17642.953 0
-3894.7234 4825.1646 17767.58 0
-3809.8323 4851.5352 17864.682 0
-3711.1509 4861.3521 17900.832 0
-3635.5623 4902.8921 18053.793 0
-3582.7664 4978.6309 18332.684 0
-3473.0144 4977.4917 18328.49 0
-3402.6504 5034.5581 18538.623 0
-3371.1853 5154.9243 18981.844 0
-3327.4141 5264.1567 19384.068 0
-3268.9192 5357.0952 19726.293 0
-3143.4521 5343.1113 19674.801 0
-2991.5215 5281.3271 19447.295 0
-2873.3489 5276.5698 19429.777 0
0 0 0 0
0 0 0 0
0 0 0 0
0 0 0 0
0 0 0 0
0 0 0 0
0 0 0 0
0 0 0 0
0 0 0 0
0 0 0 0
0 0 0 0
0 0 0 0
0 0 0 0
0 0 0 0
0 0 0 0
0 0 0 0
0 0 0 0
0 0 0 0
0 0 0 0
0 0 0 0
0 0 0 0
0 0 0 0
0 0 0 0
0 0 0 0
13.402195 5200.6821 19150.338 4739928
123.87547 5063.9893 18646.996 3
0 0 0 0
0 0 0 0
0 0 0 0
0 0 0 0
0 0 0 0
0 0 0 0
0 0 0 0
0 0 0 0
1188.6505 5368.1309 19766.93 1185554
1268.3881 5213.0049 19195.713 0
1382.5128 5213.1479 19196.24 0
1507.4032 5250.7695 19334.773 0
0 0 0 0
0 0 0 0
0 0 0 0
1961.5859 5236.168 19281.006 0
2072.4075 5226.6543 19245.975 0
2228.0203 5325.1914 19608.814 2039840
2389.4153 5427.0664 19983.947 0
2406.0483 5206.0649 19170.158 0
2517.9968 5201.9614 19155.049 0
2735.1873 5406.229 19907.217 197379
2821.2561 5345.1343 19682.25 1513238
2829.3418 5147.0405 18952.814 526344
2907.5264 5086.7549 18730.826 256
3133.2019 5279.437 19440.336 66049
3181.124 5169.5527 19035.711 0
3235.147 5076.7891 18694.129 0
3468.0125 5261.5171 19374.35 131586
3444.5391 5057.9653 18624.814 0
3599.6143 5121.106 18857.316 0
3734.4905 5152.5645 18973.154 0
3841.4409 5144.7783 18944.484 256
3973.635 5170.2817 19038.395 257
3945.7893 4991.9028 18381.555 2370603
4122.2202 5074.6074 18686.096 2371374
4464.6982 5352.0205 19707.607 514
4548.3867 5312.9585 19563.77 2895919
0 0 0 0
0 0 0 0
0 0 0 0
0 0 0 0
0 0 0 0
0 0 0 0
0 0 0 0
0 0 0 0
0 0 0 0
0 0 0 0
0 0 0 0
0 0 0 0
0 0 0 0
5826.7183 5012.3022 18456.672 5
5880.4937 4965.0884 18282.816 4
5952.2998 4934.5352 18170.311 4
6094.0439 4962.0171 18271.508 260
6182.415 4945.8394 18211.936 263943
6453.8521 5074.1479 18684.404 256
6472.1572 5002.4653 18420.449 256
6577.3369 4999.1973 18408.416 256
6718.3755 5022.8462 18495.496 256
6847.4141 5036.9048 18547.266 0
7005.3135 5071.4131 18674.334 0
7100.1655 5059.9141 18631.99 0
7184.1763 5041.1606 18562.936 0
7359.2207 5085.8867 18727.629 0
7500.4873 5106.2847 18802.74 0
7706.1016 5169.248 19034.588 0
7702.124 5091.8291 18749.512 0
7740.7202 5044.3628 18574.727 0
7806.7529 5015.8594 18469.77 0
7879.812 4992.5981 18384.115 0
8268.9678 5167.5107 19028.191 0
8325.7197 5132.7783 18900.297 0
8602.1465 5232.5957 19267.852 0
8306.9219 4986.6294 18362.137 0
8465.623 5016 18470.287 1
8287.3047 4847.4854 17849.77 1
8329.5449 4810.6113 17713.99 258
8457.8828 4823.7622 17762.414 260
8505.666 4791.2114 17642.555 772
8789.6445 4890.8823 18009.57 1580317
8727.6455 4797.9565 17667.391 1914680
8876.8193 4821.9492 17755.74 6060670
9561.6953 5132.9575 18900.957 8626598
9941.4697 5274.8594 19423.479 8363427
9650.3838 5061.6357 18638.33 8231071
9618.8457 4987.8398 18366.594 6649214
7887.4487 4044.1316 14891.602 1120288
7005.1636 3551.9011 13079.074 592913
7611.5 3816.9824 14055.177 394248
7703.6538 3821.2581 14070.92 7
7892.5332 3872.9053 14261.1 7
7919.2119 3844.7083 14157.27 6
7967.334 3827.405 14093.554 3
8382.9404 3985.1594 14674.45 197382
8583.7959 4038.6265 14871.33 197382
8413.0088 3917.9302 14426.894 329223
8434.0908 3888.1211 14317.128 2057
8466.0488 3863.8711 14227.833 2900285
8625.6982 3897.8022 14352.776 5200727
8341.6826 3732.5476 13744.264 132100
8946.3193 3964.2761 14597.552 256
8777.6641 3852.1846 14184.8 0
8859.5039 3851.1133 14180.854 0
8953.0566 3855.105 14195.554 0
9001.6367 3839.8391 14139.34 0
9011.9648 3808.6882 14024.634 0
9063.5605 3795.3896 13975.665 0
9121.1367 3784.8142 13936.724 0
9816.3525 4036.6362 14864.002 0
9206.293 3752.0044 13815.908 0
9239.3848 3732.2026 13742.993 0
9270.1904 3711.8325 13667.985 0
9341.1133 3707.7402 13652.915 0
9403.1445 3700.2192 13625.222 0
9433.3457 3680.4077 13552.271 0
8627.416 3337.4788 12289.512 0
8642.2773 3315.1611 12207.332 0
9493.4004 3611.3328 13297.918 0
9540.7246 3599.3699 13253.867 0
9585.3008 3586.575 13206.752 0
9617.3828 3569.3503 13143.327 0
9616.165 3540.144 13035.781 0
9650.7725 3524.4885 12978.133 1
9715.6221 3520.0381 12961.745 2
9788.3535 3518.4907 12956.047 2
9678.9307 3452.0017 12711.217 4
10087.628 3569.8999 13145.351 5
9941.4033 3491.1145 12855.24 132102
11060.813 3854.5928 14193.667 1384484
0 0 0 0
0 0 0 0
0 0 0 0
0 0 0 0
0 0 0 0
0 0 0 0
0 0 0 0
0 0 0 0
0 0 0 0
0 0 0 0
0 0 0 0
0 0 0 0
0 0 0 0
0 0 0 0
0 0 0 0
0 0 0 0
0 0 0 0
15939.997 4884.4072 17985.727 3158324
12335.424 3754.6978 13825.826 65795
12056.547 3645.5273 13423.832 789777
12519.226 3760.5427 13847.349 789778
12817.092 3824.8718 14084.228 1184534
15943.149 4726.8779 17405.66 131588
16863.564 4967.5337 18291.822 725012
0 0 0 0
0 0 0 0
0 0 0 0
0 0 0 0
17813.389 5083.4668 18718.719 594454
17287.146 4902.6729 18052.984 1713192
15564.646 4386.9395 16153.913 1713192
15090.026 4227.0923 15565.312 4478039
0 0 0 0
0 0 0 0
-9536.3389 2893.6643 10427.068 65536
-9490.2793 2898.5242 10444.581 65536
-9442.1309 2902.8059 10460.01 0
-9396.1963 2907.8293 10478.111 0
-9343.376 2910.7747 10488.725 0
-9287.0068 2912.647 10495.471 0
-9230.0166 2914.3479 10501.601 0
-9174.3184 2916.4832 10509.294 0
-9123.0957 2920.0801 10522.256 0
-9070.5488 2923.2998 10533.857 0
-9018.8828 2926.8501 10546.651 0
-8966.5254 2930.2244 10558.81 0
-8915.917 2934.2217 10573.214 0
-8862.7021 2937.4119 10584.709 65536
-8803.208 2938.5518 10588.816 65536
-8742.4082 2939.269 10591.401 65536
-8684.3672 2940.9309 10597.39 65536
-8627.2939 2942.9473 10604.655 65536
-8569.1924 2944.6396 10610.754 65536
-8506.8594 2944.8923 10611.664 0
-8445.3369 2945.4319 10613.608 0
-8387.7715 2947.3696 10620.591 0
-8324.2734 2947.2363 10620.111 0
-8258.75 2946.3787 10617.021 0
-8192.3447 2945.1907 10612.739 0
-8128.9253 2945.0659 10612.29 0
-8079.897 2950.1938 10630.768 0
-8022.7192 2952.4036 10638.73 0
-7962.6343 2953.5701 10642.934 0
-7902.2544 2954.6448 10646.807 65536
-7842.1982 2955.8589 10651.182 65536
-7783.7529 2957.7051 10657.834 65536
-7729.6958 2961.2627 10670.653 65536
-7690.0615 2970.4502 10703.76 65536
-7643.647 2977.1499 10727.902 65536
-7595.2129 2983.1694 10749.593 65536
-7545.3721 2988.7339 10769.644 65536
-7496.5171 2994.7871 10791.456 65536
-7449.3594 3001.6287 10816.109 65536
-7402.9355 3008.8879 10842.267 0
-7358.3823 3017.0417 10871.648 0
-7303.312 3020.9893 10885.873 0
-7243.5669 3023.0566 10893.322 0
-7184.8032 3025.5745 10902.396 0
-7120.8462 3025.9312 10903.681 0
-7060.0498 3027.6499 10909.874 0
-6997.1816 3028.5039 10912.951 0
-6937.7163 3030.8606 10921.443 0
-6877.1597 3032.78 10928.36 65536
-6813.2246 3033.2324 10929.99 65536
-6742.1377 3030.4788 10920.068 0
-6676.063 3029.9463 10918.149 196608
-6612.1133 3030.3777 10919.703 196608
-6547.6167 3030.564 10920.375 196608
-6458.0996 3019.0574 10878.912 65536
-6306.0903 2977.8088 10730.276 256
-5910.8833 2819.7034 10160.557 8554630
-5899.3208 2843.2351 10245.352 512
-6419.0259 3125.978 11264.19 512
-5946.7832 2926.5242 10545.477 256
-5853.5132 2911.3076 10490.645 0
-6547.8975 3291.7295 11861.462 0
-6684.6494 3397.0505 12240.978 65536
-6711.1045 3448.0212 12424.646 65536
-6675.3682 3467.8176 12495.98 65536
-5715.0229 3002.3267 10818.624 65536
-5719.936 3039.1001 10951.134 65536
-5676.5854 3050.7817 10993.228 65536
-5647.6079 3070.5496 11064.46 65536
-5611.8833 3087.0718 11123.996 65536
-5653.2651 3146.9097 11339.616 65536
-5631.875 3172.8276 11433.009 65536
-5593.5747 3189.7356 11493.936 65536
-5619.4995 3244.1387 11689.973 65536
-5522.0303 3227.7769 11631.014 65536
-5751.0288 3404.2483 12266.914 65536
-6202.6562 3718.7263 13400.108 65536
-6192.4434 3760.8928 13552.052 65536
-6139.9424 3778.1492 13614.233 65536
-6103.2065 3805.6968 13713.499 65536
-6069.9482 3836.1877 13823.37 0
-6055.0752 3879.2947 13978.702 0
-5990.9619 3891.615 14023.098 0
-5952.9048 3921.448 14130.598 0
-5917.4585 3953.8789 14247.46 0
-5874.1069 3981.8926 14348.404 0
-5832.0264 4011.6055 14455.474 0
-5773.0474 4030.4099 14523.233 0
-5742.2788 4069.7791 14665.097 0
-5694.3076 4097.9814 14766.722 0
-5660.1558 4137.168 14907.927 0
-5622.9932 4175.3652 15045.566 0
-5580.271 4210.6021 15172.54 0
-5538.915 4248.0439 15307.459 0
-5485.3462 4277.2134 15412.568 0
-5441.3042 4314.9282 15548.471 0
-5377.1807 4337.7471 15630.696 0
-5317.6304 4365.1221 15729.339 0
-5252.6875 4388.9707 15815.276 0
-5190.4233 4415.9678 15912.557 0
-5134.8701 4449.7817 16034.404 0
-5066.9053 4473.916 16121.369 0
-4997.8652 4498.0137 16208.202 0
-4928.54 4522.7954 16297.502 0
-5007.9233 4687.7734 16891.986 0
-4868.8286 4650.8066 16758.779 0
-4736.1372 4618.54 16642.51 0
-4730.688 4711.6265 16977.938 0
-4565.7729 4646.4858 16743.209 0
-4500.8975 4682.519 16873.051 0
-4416.9883 4699.9404 16935.828 0
-4349.6479 4736.2163 17066.545 0
-4270.748 4761.3374 17157.066 0
-4192.8315 4788.8101 17256.062 0
-4110.2417 4812.189 17340.307 0
-4036.1641 4846.9937 17465.721 0
-3965.0996 4887.3486 17611.139 0
-3882.4006 4915.1631 17711.365 0
-3795.6965 4939.3154 17798.396 0
-3703.8765 4958.0054 17865.744 0
-3662.5547 5047.3906 18187.834 0
-3613.3286 5130.9873 18489.068 0
-3504.0896 5131.9355 18492.486 0
-3456.7383 5226.5195 18833.311 0
-3372.6321 5270.001 18989.992 0
-3335.2844 5392.0869 19429.918 0
-3204.6831 5366.7612 19338.66 0
-3073.7283 5338.938 19238.4 0
-2951.9832 5325.5791 19190.264 0
-2841.947 5333.1196 19217.436 0
-2750.8425 5378.3057 19380.26 0
-2693.0239 5495.3647 19802.07 0
0 0 0 0
0 0 0 0
0 0 0 0
0 0 0 0
0 0 0 0
0 0 0 0
0 0 0 0
0 0 0 0
0 0 0 0
0 0 0 0
0 0 0 0
0 0 0 0
0 0 0 0
0 0 0 0
0 0 0 0
0 0 0 0
0 0 0 0
0 0 0 0
0 0 0 0
0 0 0 0
0 0 0 0
0 0 0 0
12.660516 5020.394 18090.555 6449772
124.80303 5213.563 18786.623 257
230.53899 5083.0483 18316.324 132100
331.12787 4959.1714 17869.945 6712944
0 0 0 0
0 0 0 0
0 0 0 0
813.57532 5337.1558 19231.979 260
0 0 0 0
0 0 0 0
1164.0995 5372.3096 19358.652 256
1296.702 5446.0063 19624.213 256
1376.6992 5304.8359 19115.518 0
1492.37 5312.1714 19141.949 0
1651.6387 5462.6641 19684.236 0
0 0 0 0
1839 5327.6079 19197.572 0
1944.7544 5304.8486 19115.562 0
2061.3591 5312.5659 19143.371 0
0 0 0 0
2373.8079 5509.6128 19853.412 0
2384.1409 5271.5605 18995.611 0
2505.3625 5289.1343 19058.938 131842
2692.4229 5438.1685 19595.969 257
0 0 0 0
2591.4595 4817.4653 17359.32 7239284
2894.7759 5175.2837 18648.686 256
2995.4363 5157.7632 18585.553 0
3104.127 5154.8242 18574.963 0
3211.595 5150.127 18558.035 0
3321.8625 5150.0811 18557.871 0
3441.3435 5163.8638 18607.535 0
3584.824 5211.6792 18779.834 0
3691.8635 5205.2285 18756.59 0
3787.2729 5183.2383 18677.35 256
3948.4478 5249.9443 18917.719 256
4050.8164 5236.9307 18870.826 0
4236.0718 5328.8887 19202.188 258
4398.6016 5388.1826 19415.85 1382937
4309.627 5144.2344 18536.803 1318688
0 0 0 0
0 0 0 0
0 0 0 0
0 0 0 0
0 0 0 0
0 0 0 0
0 0 0 0
0 0 0 0
0 0 0 0
0 0 0 0
0 0 0 0
0 0 0 0
5918.5718 5302.5679 19107.344 263943
5939.8096 5221.4106 18814.9 1514782
6064.2827 5232.3247 18854.229 65795
6032.561 5110.521 18415.32 1
6095.686 5071.9775 18276.432 1
6336.8384 5180.3188 18666.83 2
6373.3101 5120.4868 18451.23 256
6508.4609 5140.6187 18523.773 256
6622.1694 5143.4263 18533.891 256
6766.9648 5169.8926 18629.26 256
6914.0454 5197.2246 18727.748 0
7051.9727 5216.9189 18798.715 0
7142.0542 5201.1558 18741.914 0
7220.5913 5177.5986 18657.027 0
7408.5791 5232.0493 18853.236 0
7574.9097 5269.811 18989.307 0
7662.063 5252.1895 18925.811 0
7719.8276 5215.2241 18792.609 0
7782.9482 5182.8799 18676.059 0
7857.0293 5158.6416 18588.717 0
7897.4409 5113.2749 18425.244 0
8436.3838 5387.5142 19413.441 0
8132.5356 5123.4053 18461.748 0
8170.4834 5078.7886 18300.975 0
8355.9756 5125.8535 18470.568 0
8371.958 5069.0625 18265.928 0
8346.6807 4989.0635 17977.658 0
8429.6826 4974.9907 17926.949 2
8476.6035 4940.2407 17801.729 515
8578.0332 4937.7241 17792.66 132101
8892.5322 5056.4224 18220.381 6651518
8388.9277 4712.6768 16981.723 8033178
9513.8564 5281.0938 19029.965 8362141
9773.6768 5361.5801 19319.99 5861495
10067.545 5458.6577 19669.801 4808806
10031.257 5376.5498 19373.932 7573651
9060.8252 4801.3052 17301.088 9086889
8156.7856 4273.7568 15400.112 3161412
7200.4966 3730.8442 13443.773 65801
7573.6475 3881.1201 13985.28 10
7692.2275 3899.0947 14050.05 8
7783.2148 3902.8472 14063.571 7
7878.4341 3908.6189 14084.37 5
7893.8169 3875.0779 13963.508 5
8194.6113 3980.8857 14344.777 4
8115.1099 3901.6721 14059.338 2
8204.6318 3904.5095 14069.562 1
8310.6035 3915.0391 14107.504 3
8465.001 3947.9431 14226.071 2
8313.999 3839.1716 13834.123 0
8109.3823 3708.0154 13361.512 256
8683.5381 3932.043 14168.776 512
8757.6504 3927.5142 14152.458 256
8839.9727 3926.7192 14149.593 256
8924.7871 3927.0352 14150.73 0
8999.5127 3922.9475 14136.002 0
9034.502 3901.7751 14059.708 0
9246.5371 3956.7507 14257.809 0
10368.863 4396.7197 15843.199 0
9240.7646 3883.1079 13992.442 0
9209.876 3835.6096 13821.287 0
9285.6465 3832.9783 13811.806 0
9297.2119 3804.123 13707.827 0
9365.2891 3798.6899 13688.251 0
9399.5459 3779.7512 13620.006 0
9408.625 3751.0979 13516.757 0
9432.209 3728.6636 13435.917 0
8627.1689 3381.7915 12185.992 0
9527.3271 3703.5557 13345.442 0
9585.9785 3695.5886 13316.733 256
9620.4551 3678.5088 13255.188 256
9665.6289 3665.7634 13209.261 256
9678.0684 3640.9082 13119.698 256
9721.7773 3628.1204 13073.618 256
9772.5391 3618.1465 13037.678 2
9857.9502 3621.0571 13048.166 257
9883.8252 3602.2241 12980.303 3
10025.492 3625.5566 13064.38 3423036
10636.147 3816.8298 13753.615 2370865
0 0 0 0
0 0 0 0
0 0 0 0
0 0 0 0
0 0 0 0
0 0 0 0
0 0 0 0
0 0 0 0
0 0 0 0
0 0 0 0
0 0 0 0
0 0 0 0
0 0 0 0
0 0 0 0
0 0 0 0
0 0 0 0
0 0 0 0
0 0 0 0
16221.755 5079.5293 18303.645 328966
13811.434 4295.9746 15480.172 66050
12590.448 3890.2788 14018.282 789775
12892.4 3957.3899 14260.112 258
13324.734 4063.385 14642.056 2237736
14397.575 4362.0601 15718.306 132100
16781.209 5051.4575 18202.49 3357245
17579.676 5257.915 18946.441 725781
0 0 0 0
0 0 0 0
18339.191 5381.6631 19392.357 2239534
17319.479 5050.6855 18199.707 1713190
17398.176 5042.1445 18168.932 395529
15733.468 4531.5718 16329.126 3094844
14928.415 4273.3398 15398.61 3227202
0 0 0 0
0 0 0 0
-9562.418 2963.7185 10455.583 65536
-9520.6709 2970.0811 10478.028 65536
-9466.5957 2972.6555 10487.111 0
-9410.9355 2974.7634 10494.548 0
-9355.3291 2976.9165 10502.144 0
-9306.0039 2981.1106 10516.939 0
-9252.9834 2984.1697 10527.731 0
-9203.3301 2988.3635 10542.527 0
-9148.2383 2990.8374 10551.254 0
-9101.0303 2995.9404 10569.257 0
-9049.2939 2999.613 10582.214 0
-8995.7871 3002.7466 10593.269 0
-8948.1426 3007.8945 10611.43 0
-8895.0732 3011.2791 10623.37 65536
-8841.0566 3014.3894 10634.343 65536
-8783.7637 3016.4192 10641.503 65536
-8727.1611 3018.717 10649.609 65536
-8669.5869 3020.7102 10656.642 65536
-8610.6807 3022.2651 10662.127 65536
-8550.3916 3023.3538 10665.968 0
-8490.7344 3024.6841 10670.661 0
-8428.8008 3025.2173 10672.542 0
-8365.9443 3025.4253 10673.275 0
-8300.7598 3024.7874 10671.025 0
-8235.2588 3024.0237 10668.331 0
-8173.21 3024.5261 10670.104 0
-8113.4048 3025.8728 10674.854 0
-8051.8438 3026.5806 10677.352 0
-7992.8232 3028.2625 10683.284 0
-7935.2568 3030.5264 10691.271 65536
-7879.1792 3033.4001 10701.409 65536
-7818.5942 3034.5708 10705.54 65536
-7760.2046 3036.6204 10712.771 65536
-7708.9106 3041.5032 10729.996 65536
-7667.0068 3050.2031 10760.688 65536
-7621.5815 3057.6365 10786.912 65536
-7578.0225 3065.9514 10816.246 65536
-7528.3564 3071.9163 10837.289 65536
-7476.8296 3077.2188 10855.995 65536
-7431.5889 3085.2227 10884.232 0
-7386.6782 3093.5059 10913.454 0
-7335.5938 3099.3269 10933.99 0
-7290.1157 3107.6423 10963.325 0
-7238.5088 3113.4714 10983.89 0
-7176.7324 3114.9924 10989.256 0
-7117.7876 3117.7817 10999.097 0
-7065.9863 3123.7808 11020.261 0
-7015.0557 3130.281 11043.191 0
-6960.0151 3135.0525 11060.024 65536
-6907.103 3140.8826 11080.593 65536
-6826.5298 3134.126 11056.756 65536
-6769.2285 3138.0256 11070.514 131072
-6714.8306 3143.3611 11089.337 196608
-6653.022 3145.2996 11096.175 196608
-6571.501 3137.8633 11069.941 65536
-6414.8877 3094.0583 10915.403 921102
-5836.0425 2843.6245 10031.908 921102
0 0 0 0
-6426.4414 3196.6135 11277.204 256
-6257.418 3145.3425 11096.327 256
-6226.9092 3163.3469 11159.844 0
-6333.1704 3251.9678 11472.485 0
-6295.8965 3268.0129 11529.091 65536
-6239.2021 3274.2195 11550.986 65536
-6210.9683 3295.6658 11626.646 65536
-6163.6211 3307.3389 11667.827 65536
-6204.7417 3367.2886 11879.321 65536
-6126.748 3363.2312 11865.008 65536
-6119.8467 3398.5598 11989.642 65536
-6084.7949 3418.9036 12061.412 65536
-5989.5195 3405.4905 12014.093 65536
-6015.2324 3461.3755 12211.246 65536
-5921.5537 3449.0835 12167.882 65536
-5840.7427 3444.0752 12150.214 65536
-5866.6597 3502.6631 12356.904 65536
-6136.728 3710.354 13089.608 65536
-6208.8042 3802.1328 13413.39 65536
-6196.5444 3843.9812 13561.026 65536
-6137.4023 3857.4668 13608.602 65536
-6099.5503 3884.8723 13705.283 65536
-6120.1084 3950.7249 13937.603 0
-6036.3013 3950.0896 13935.361 0
-6001.332 3981.8398 14047.372 0
-5957.4893 4008.5154 14141.479 0
-5914.0239 4036.2124 14239.19 0
-5863.3149 4059.698 14322.044 0
-5823.1646 4091.2935 14433.509 0
-5765.8809 4111.6162 14505.204 0
-5723.4849 4143.334 14617.1 0
-5688.8516 4181.7349 14752.573 0
-5649.6797 4217.9497 14880.335 0
-5608.6113 4253.8779 15007.085 0
-5562.001 4286.6968 15122.864 0
-5502.5215 4310.5117 15206.881 0
-5446.4209 4337.8135 15303.196 0
-5919.8901 4794.9824 16916.025 0
-5674.2847 4675.4507 16494.334 0
-5282.418 4429.083 15625.182 0
-5249.7563 4480.4644 15806.45 0
-5195.2681 4514.7515 15927.409 0
-5122.4858 4534.1182 15995.732 0
-5057.5933 4561.333 16091.742 0
-4984.1006 4581.6909 16163.562 0
-4916.2534 4608.1411 16256.874 0
-4857.1499 4644.0112 16383.42 0
-4835.7158 4718.1025 16644.803 0
-4760.3506 4741.5703 16727.594 0
-4720.5146 4802.1831 16941.428 0
-4576.8115 4757.4702 16783.688 0
-4496.5454 4778.1763 16856.734 0
-4418.0225 4801.7202 16939.795 0
-4351.9116 4840.1665 17075.428 0
-4277.813 4871.3525 17185.447 0
-4196.7568 4895.9487 17272.219 0
-4120.0552 4926.9844 17381.709 0
-4027.9761 4940.7544 17430.289 0
-3954.5259 4978.7061 17564.176 0
-3880.5024 5017.9731 17702.705 0
-3792.3354 5040.6309 17782.637 0
-3700.3391 5059.3516 17848.682 0
-3618.4302 5093.3765 17968.717 0
-3528.3149 5117.5679 18054.061 0
-3438.9104 5144.3403 18148.51 0
-2980.408 4602.8267 16238.125 0
-2897.6074 4624.7056 16315.311 0
-3150.4517 5202.3506 18353.162 0
-3141.6855 5373.939 18958.502 0
-3000.6438 5323.6152 18780.967 0
-2892.825 5330.6226 18805.688 0
-2836.4094 5436.7217 19179.99 0
-2717.8882 5427.6792 19148.09 0
-2685.9192 5598.2466 19749.828 0
-2545.3284 5547.6577 19571.357 0
-2430.6567 5551.4214 19584.635 0
-2219.6323 5324.4326 18783.852 987152
-2073.8101 5238.0913 18479.25 0
-2078.6194 5543.8394 19557.887 0
0 0 0 0
-1864.2177 5598.1226 19749.391 1052688
0 0 0 0
0 0 0 0
0 0 0 0
0 0 0 0
0 0 0 0
0 0 0 0
0 0 0 0
0 0 0 0
0 0 0 0
0 0 0 0
0 0 0 0
0 0 0 0
0 0 0 0
-208.21898 5275.957 18612.836 6253419
-90.484955 4891.5161 17256.582 6910063
0 0 0 0
123.38638 5264.7715 18573.375 257
232.98335 5246.9575 18510.529 1
342.03857 5232.2837 18458.762 65794
460.13724 5329.4814 18801.662 1
580.36768 5408.561 19080.645 1
693.90112 5409.5796 19084.236 1
808.07501 5414.6021 19101.957 0
940.93958 5528.2002 19502.713 723723
1063.0116 5560.4258 19616.4 0
0 0 0 0
1267.8672 5438.9438 19187.83 0
1384.8401 5450.4873 19228.555 0
1486.5618 5404.8208 19067.449 0
1595.3693 5389.562 19013.617 0
1774.7798 5599.0586 19752.693 0
1830.3652 5416.1548 19107.434 65536
1929.1344 5374.9385 18962.029 65536
2039.3688 5368.4536 18939.15 65536
2221.3743 5541.6953 19550.324 65536
2369.8899 5618.3203 19820.645 0
2376.5928 5367.4111 18935.473 0
2567.01 5535.3408 19527.904 1579288
2680.7654 5530.5835 19511.123 0
2744.0664 5426.4468 19143.742 256
2891.5767 5490.4976 19369.705 3619127
2882.1836 5263.124 18567.562 512
3027.8955 5325.311 18786.949 395013
3214.7537 5452.8672 19236.949 855820
3225.2278 5282.7534 18636.812 256
3305.1543 5233.9185 18464.529 0
3445.3586 5280.6089 18629.246 0
3562.0918 5289.5386 18660.748 0
3680.708 5300.6392 18699.912 0
3821.8572 5342.5898 18847.906 0
3952.2341 5367.5205 18935.859 256
4093.3638 5405.2695 19069.033 256
4216.5835 5417.9727 19113.846 256
4417.9844 5527.8301 19501.408 461067
0 0 0 0
0 0 0 0
0 0 0 0
0 0 0 0
0 0 0 0
0 0 0 0
0 0 0 0
0 0 0 0
0 0 0 0
0 0 0 0
0 0 0 0
0 0 0 0
0 0 0 0
6074.3115 5558.6479 19610.129 2436144
6042.0737 5425.0542 19138.83 516
6096.3125 5372.6094 18953.811 260
6089.5659 5269.2959 18589.336 260
6050.6724 5142.3442 18141.469 3
6261.3394 5228.2207 18444.428 2
6383.9302 5238.8633 18481.975 256
6544.8135 5280.0391 18627.236 256
6661.6641 5284.9121 18644.428 256
6795.9409 5303.2241 18709.029 256
6948.6357 5335.0879 18821.441 0
7088.7559 5356.4404 18896.77 0
7205.7314 5359.9106 18909.012 0
7278.0376 5330.5576 18805.459 0
7456.5693 5378.7178 18975.361 0
7614.6382 5410.9014 19088.9 0
7698.1733 5389.9551 19015.004 0
7677.0527 5297.3989 18688.48 0
7769.1309 5284.48 18642.902 0
7855.019 5267.7725 18583.961 0
7918.4009 5236.6445 18474.146 0
8014.4341 5227.666 18442.471 0
8100.8955 5212.7705 18389.922 0
8236.6396 5229.5615 18449.158 256
8297.6025 5199.0552 18341.537 256
8390.3486 5188.9971 18306.053 256
8411.2725 5135.3462 18116.781 256
7520.3232 4533.3613 15993.062 2
8551.0889 5090.3828 17958.156 514
8741.7988 5139.7578 18132.344 4739924
9183.4189 5333.6572 18816.395 258
9228.7246 5295.4844 18681.725 1055259
9031.1309 5120.499 18064.4 1450533
0 0 0 0
0 0 0 0
9765.666 5346.2959 18860.98 8429217
8611.5186 4660.9463 16443.164 6386297
7892.7412 4223.9756 14901.594 5136484
7555.1509 3998.4399 14105.935 2437170
7667.9468 4013.5979 14159.41 2173741
7803.5552 4040.238 14253.393 260
7784.9468 3987.3188 14066.7 2
8055.0942 4081.8484 14400.188 3
8134.1445 4078.5713 14388.627 4
8259.9424 4098.5591 14459.141 3
8285.4434 4068.8801 14354.438 2
8253.873 4012.0649 14154.002 1
8376.749 4030.7122 14219.787 2
8467.7812 4033.8181 14230.744 258
8480.2314 3999.7979 14110.726 1
8594.0898 4013.8062 14160.145 256
8667.4414 4008.8081 14142.512 256
8742.6562 4004.759 14128.228 256
8817.1758 4000.4717 14113.103 0
8877.751 3989.998 14076.153 0
8952.2861 3985.9358 14061.821 0
9043.7832 3989.4309 14074.151 0
9116.2441 3984.541 14056.901 0
9191.5713 3980.9817 14044.344 0
9230.8926 3962.0325 13977.494 0
9330.165 3968.9233 14001.805 0
9389.334 3958.7839 13966.034 0
9429.4238 3940.8481 13902.759 0
9338.29 3868.8582 13648.789 0
9494.7012 3899.7834 13757.888 0
9374.5156 3817.5422 13467.753 0
9407.2861 3798.4548 13400.415 0
9432.9004 3776.8223 13324.099 0
9430.291 3744.3438 13209.519 0
9656.8652 3802.6479 13415.208 0
9634.126 3762.6279 13274.023 0
9693.5293 3755.0784 13247.39 0
9677.1836 3718.5432 13118.499 0
9732.7744 3710.0134 13088.406 256
9819.9873 3713.5771 13100.979 2
9890.8818 3710.9626 13091.755 258
9721.2832 3618.8623 12766.838 395273
10188.451 3763.3965 13276.734 2304814
11218.49 4112.0239 14506.643 724238
0 0 0 0
0 0 0 0
0 0 0 0
0 0 0 0
0 0 0 0
0 0 0 0
0 0 0 0
0 0 0 0
0 0 0 0
0 0 0 0
0 0 0 0
0 0 0 0
0 0 0 0
0 0 0 0
0 0 0 0
0 0 0 0
0 0 0 0
0 0 0 0
0 0 0 0
16815.471 5342.3799 18847.166 65792
13702.168 4324.457 15256.077 263428
13812.309 4330.5605 15277.61 66308
13908.537 4332.252 15283.576 66822
14096.712 4362.3745 15389.845 1514269
16638.156 5115.6577 18047.322 1843492
17572.299 5368.2666 18938.49 2830387
17834.58 5413.7148 19098.826 856597
17425.078 5255.9575 18542.281 1844263
16579.748 4969.5503 17531.875 132103
16136.94 4806.6167 16957.068 988956
16522.803 4891.0049 17254.779 1778215
16272.276 4787.1333 16888.334 1712422
15899.743 4648.8623 16400.533 330767
0 0 0 0
0 0 0 0
-9624.3672 3045.4624 10523.318 65536
-9570.5078 3048.2285 10532.876 65536
-9513.5342 3050.0322 10539.109 0
-9457.3926 3052.1292 10546.354 0
-9405.8857 3055.759 10558.897 0
-9348.2432 3057.4314 10564.676 0
-9288.1025 3058.3035 10567.689 0
-9234.6582 3061.4075 10578.415 0
-9182.5479 3064.999 10590.825 0
-9127.332 3067.5967 10599.802 0
-9072.4004 3070.3267 10609.234 0
-9015.4424 3072.4045 10616.414 0
-8963.9053 3076.3716 10630.122 0
-8907.918 3078.8572 10638.711 65536
-8849.8818 3080.665 10644.958 65536
-8796.334 3084.0725 10656.731 65536
-8743.4209 3087.7537 10669.452 65536
-8689.5518 3091.1484 10681.182 65536
-8629.9111 3092.5249 10685.938 0
-8571.3018 3094.2939 10692.052 0
-8516.8242 3097.5925 10703.449 0
-8456.6484 3098.8525 10707.803 0
-8388.5801 3097.2175 10702.153 0
-8326.2559 3097.6946 10703.802 0
-8264.2861 3098.312 10705.936 0
-8219.6934 3105.5042 10730.787 0
-8160.4258 3107.2209 10736.72 0
-8097.7412 3107.6538 10738.215 0
-8034.2559 3107.7837 10738.664 0
-7970.5547 3107.8313 10738.828 65536
-7908.7588 3108.6284 10741.583 65536
-7849.146 3110.3042 10747.373 65536
-7791.439 3112.7686 10755.889 65536
-7736.7969 3116.5081 10768.811 65536
-7693.3667 3124.864 10797.684 65536
-7657.6982 3136.54 10838.029 65536
-7621.8682 3148.3474 10878.827 65536
-7579.5547 3157.6553 10910.99 65536
-7531.7363 3164.8115 10935.718 65536
-7485.2759 3172.667 10962.862 0
-7438.6929 3180.6082 10990.303 0
-7388.2188 3187.0117 11012.43 0
-7347.0234 3197.5681 11048.906 0
-7291.7026 3202.1123 11064.607 0
-7242.7593 3209.5645 11090.358 0
-7185.3716 3213.3774 11103.534 0
-7132.6973 3219.3889 11124.305 0
-7084.3838 3227.499 11152.329 0
-7036.5547 3235.9854 11181.652 65536
-6983.4102 3242.1655 11203.008 65536
-6927.501 3247.1687 11220.297 0
-6875.5 3254.1191 11244.312 0
-6825.9873 3262.3948 11272.909 0
-6778.3921 3271.7607 11305.272 65536
-6772.5684 3301.6777 11408.647 65536
-7025.9839 3459.8591 11955.229 65536
-5782.5425 2876.6331 9939.9443 0
0 0 0 0
-6605.0674 3354.3523 11590.658 0
-6592.9199 3383.4709 11691.275 0
-6553.2036 3398.9109 11744.627 0
-6512.1719 3413.9939 11796.745 0
-6465.9722 3426.6663 11840.534 65536
-6425.3374 3442.5994 11895.589 65536
-6390.395 3461.9705 11962.524 65536
-6342.3579 3474.6038 12006.178 65536
-6324.0576 3504.0012 12107.758 65536
-6302.6172 3532.3157 12205.595 65536
-6268.2344 3553.9509 12280.354 65536
-6245.9058 3583.0112 12380.77 65536
-6215.4253 3608.032 12467.227 65536
-6243.4141 3668.0078 12674.467 65536
-6217.2676 3697.2549 12775.528 65536
-6236.8452 3754.7527 12974.206 65536
-6212.9702 3787.2031 13086.336 65536
-6222.8086 3841.2874 13273.219 65536
-6201.6929 3877.4067 13398.026 65536
-6182.481 3915.6721 13530.249 65536
-6150.3262 3946.6404 13637.257 65536
-6138.7363 3991.8086 13793.332 65536
-6155.2681 4056.7334 14017.673 0
-5993.2046 4004.1187 13835.868 0
-6005.605 4068.2229 14057.374 0
-5944.1973 4083.4319 14109.928 0
-5900.79 4111.6191 14207.327 0
-5853.1265 4137.6162 14297.156 0
-5807.1968 4165.623 14393.931 0
-5753.481 4188.7983 14474.011 0
-5716.6528 4225.1582 14599.65 0
-5671.6812 4256.5283 14708.046 0
-5641.2329 4299.9502 14858.087 0
-5589.5898 4328.3413 14956.189 0
-5538.6973 4358.2402 15059.503 0
-5485.4019 4387.1987 15159.567 0
-5526.8706 4494.1836 15529.242 0
-6045.9077 4999.7319 17276.119 0
-5943.3345 4999.8203 17276.424 0
-5546.606 4748.1035 16406.639 0
-5282.5879 4603.0161 15905.303 0
-5398.4585 4789.6904 16550.34 0
-5113.6108 4621.166 15968.019 0
-5035.6748 4636.7896 16022.005 0
-4976.5767 4670.6948 16139.162 0
-4896.6069 4685.96 16191.908 0
-4865.8311 4749.8579 16412.701 0
-4809.8584 4791.271 16555.801 0
-4710.3896 4790.1807 16552.033 0
-4719.4385 4901.7534 16937.564 0
-4566 4845.748 16744.041 0
-4480.3755 4860.8184 16796.115 0
-4387.4673 4868.4937 16822.637 0
-4320.96 4906.5059 16953.984 0
-4285.2104 4982.0923 17215.166 0
-4182.3804 4981.48 17213.051 0
-4101.459 5007.585 17303.254 0
-4019.489 5033.7202 17393.562 0
-3948.8271 5075.7705 17538.863 0
-3872.4221 5112.5186 17665.844 0
-3785.239 5136.689 17749.361 0
-3714.3391 5184.9756 17916.211 0
-3635.6863 5224.9697 18054.408 0
-3545.9521 5250.9878 18144.311 0
-3492.7634 5334.4521 18432.715 0
-3432.8579 5412.7319 18703.203 0
-3287.2927 5356.668 18509.479 0
-3190.7397 5379.3521 18587.861 0
-3083.5347 5385.061 18607.59 0
-2992.282 5420.0903 18728.629 0
-2982.6685 5611.418 19389.744 0
-2885.2571 5646.3071 19510.301 0
-2751.2153 5609.4331 19382.885 0
-2357.1765 5016.0635 17332.551 256
-2194.8623 4884.104 16876.578 855565
-2079.8313 4849.7622 16757.912 1645594
-2152.27 5271.0952 18213.791 1448216
-2076.637 5355.2095 18504.439 256
-2034.0376 5538.6821 19138.412 0
-1885.9849 5439.7324 18796.5 3224369
-1837.1459 5632.5005 19462.594 256
0 0 0 0
0 0 0 0
0 0 0 0
0 0 0 0
0 0 0 0
0 0 0 0
0 0 0 0
0 0 0 0
0 0 0 0
0 0 0 0
0 0 0 0
0 0 0 0
0 0 0 0
-204.08299 5279.5825 18243.117 5330262
-101.40161 5596.5942 19338.521 5461591
13.21192 5463.4497 18878.453 2
121.56042 5295.6138 18298.512 329223
234.38727 5389.252 18622.07 1
345.82962 5401.1997 18663.354 2
457.92197 5415.0303 18711.145 2
572.60413 5448.0972 18825.404 2
682.04138 5428.6079 18758.061 1
793.85822 5430.874 18765.891 0
941.20917 5645.728 19508.301 2368804
1065.8745 5692.3018 19669.23 0
1172.8062 5644.3228 19503.443 0
1265.3236 5541.8428 19149.334 0
1407.7372 5656.7783 19546.482 0
1530.6326 5681.7373 19632.727 256
1608.5541 5548.041 19170.752 0
1792.1982 5772.5596 19946.555 65793
1874.9563 5664.4307 19572.926 0
1917.5092 5454.5674 18847.762 0
2026.9011 5447.5078 18823.367 65536
2137.6443 5444.6284 18813.418 65536
2247.9297 5440.9263 18800.627 65536
2351.0139 5420.9712 18731.674 0
2570.2651 5658.5684 19552.668 394758
2600.408 5477.2866 18926.266 65792
2663.0518 5376.6572 18578.551 0
2906.8015 5635.1333 19471.691 0
2886.3054 5381.1626 18594.117 0
3076.8391 5524.853 19090.627 0
3167.4045 5485.2012 18953.613 0
3209.8201 5367.752 18547.779 0
3292.1252 5322.5947 18391.742 0
3532.1833 5527.1929 19098.713 1908508
3606.0271 5467.0552 18890.912 256
3703.981 5445.9985 18818.152 5727328
3868.1194 5520.6353 19076.053 0
3983.7241 5523.7266 19086.734 256
4110.3154 5541.4575 19148.002 0
4246.6558 5571.0239 19250.166 0
4372.8491 5586.0757 19302.176 257
4597.5522 5722.9819 19775.244 515
0 0 0 0
4033.0383 4776.0908 16503.348 9218215
0 0 0 0
0 0 0 0
0 0 0 0
0 0 0 0
0 0 0 0
0 0 0 0
0 0 0 0
5488.0459 5440.626 18799.588 258
5616.2427 5456.6221 18854.861 6122862
0 0 0 0
0 0 0 0
5877.8906 5388.2954 18618.766 65795
6166.3706 5548.2939 19171.625 3
6076.1777 5367.9517 18548.469 1
6043.1953 5243.6777 18119.051 2
6186.2896 5273.8618 18223.35 256
6360.5898 5329.1533 18414.404 256
6527.4927 5376.4805 18577.939 256
6652.4253 5388.2393 18618.57 256
6792.0254 5411.2993 18698.252 256
6936.0625 5437.0942 18787.385 0
7080.54 5462.4116 18874.867 0
7212.1348 5477.1567 18925.816 0
7274.3354 5439.5571 18795.895 0
7462.6519 5495.9746 18990.84 0
7655.8594 5554.2593 19192.238 0
7755.6572 5544.0601 19156.994 0
7772.8604 5475.9673 18921.707 0
7792.0352 5411.1865 18697.863 0
7853.0049 5376.8438 18579.195 0
7903.2344 5336.2026 18438.762 0
7966.6875 5305.4785 18332.598 0
8081.5674 5309.3696 18346.043 0
8252.3975 5349.4253 18484.453 256
8384.8691 5363.8911 18534.438 256
8347.5674 5270.7832 18212.713 256
8374.7832 5220.2759 18038.189 256
8395.3301 5166.9404 17853.893 257
8543.292 5192.3755 17941.781 258
8759.5967 5258.2085 18169.262 260
8547.7998 5068.5869 17514.041 516
8960.874 5249.5996 18139.514 660245
9100.6475 5268.1025 18203.449 133129
9177.0889 5249.9404 18140.691 6190710
9930.7656 5615.1274 19402.562 6059385
9425.3428 5268.1738 18203.695 7901845
8930.3545 4934.8608 17051.963 6584958
7916.9951 4325.793 14947.385 3161411
7725.6201 4174.3862 14424.212 518
7471.0327 3992.521 13795.794 658961
7508.6421 3969.0601 13714.726 3
7864.2803 4112.4072 14210.049 5660255
7735.2412 4001.9521 13828.382 1120538
7944.3755 4066.9399 14052.941 2435628
8231.7627 4170.2188 14409.812 260
8293.2959 4158.1304 14368.042 3
8400.3486 4168.8794 14405.184 2
8608.4297 4229.043 14613.073 1
8716.8301 4239.5239 14649.289 256
8568.9902 4126.4048 14258.416 256
8661.0186 4129.8794 14270.422 256
8767.7061 4140.208 14306.112 256
8717.7432 4077.0767 14087.968 256
8793.0098 4073.1567 14074.422 256
8849.1299 4060.5244 14030.773 0
8904.0215 4047.5698 13986.009 0
8985.7793 4046.9551 13983.885 0
9083.1211 4053.3052 14005.827 0
9146.3096 4044.438 13975.188 0
9192.5527 4028.3042 13919.438 0
9245.4922 4015.3672 13874.736 256
9468.8672 4076.0251 14084.334 258
9518.5273 4061.4973 14034.135 66050
9536.0771 4033.6394 13937.874 5395796
9274.9678 3889.407 13439.492 0
9438.002 3923.9812 13558.961 0
9354.4248 3856.3064 13325.115 0
9381.9219 3835.1729 13252.091 0
9313.8027 3775.6299 13046.346 1447703
9324.5361 3748.7722 12953.541 256
9428.71 3759.6121 12990.998 131842
9652.8105 3817.708 13191.743 256
9667.0771 3792.5464 13104.799 256
9650.3809 3755.7363 12977.605 263429
9696.0957 3743.6072 12935.693 329478
9738.0127 3730.2139 12889.414 1
9995.3662 3798.9099 13126.787 328966
10299.533 3884.1965 13421.488 1
10817.911 4048.3354 13988.654 2
10868.859 4036.3804 13947.345 4
11110.099 4094.7402 14149.002 3
0 0 0 0
0 0 0 0
0 0 0 0
0 0 0 0
0 0 0 0
0 0 0 0
0 0 0 0
0 0 0 0
0 0 0 0
0 0 0 0
16844.824 5731.1606 19803.504 3423294
0 0 0 0
0 0 0 0
0 0 0 0
0 0 0 0
0 0 0 0
0 0 0 0
17491.311 5673.6157 19604.662 131072
16048.356 5171.1211 17868.338 0
15692.001 5023.0557 17356.713 257
15477.737 4922.1128 17007.912 395273
14968.377 4729.2432 16341.47 1448734
15964.667 5011.5024 17316.791 2106920
16459.996 5133.8955 17739.709 3685697
16713.355 5179.7402 17898.121 2106407
16618.607 5117.8032 17684.104 922390
15504.129 4744.5864 16394.486 395790
15499.535 4713.5571 16287.269 1316636
15824.644 4782.5566 16525.689 592913
16620.912 4992.2217 17250.168 527376
16300.639 4866.0098 16814.055 198152
0 0 0 0
0 0 0 0
-9655.7441 3118.1387 10557.626 65536
-9607.9521 3123 10574.086 65536
-9548.8232 3124.2163 10578.203 0
-9497.6592 3128.0715 10591.257 0
-9440.7422 3130.071 10598.027 0
-9382.5684 3131.6777 10603.467 0
-9326.7949 3134.1125 10611.712 0
-9271.8447 3136.8591 10621.012 0
-9215.3848 3139.1296 10628.698 0
-9161.1035 3142.1782 10639.021 0
-9105.6631 3144.8694 10648.133 0
-9051.2314 3147.9487 10658.559 0
-9001.2949 3152.6455 10674.462 0
-8946.1611 3155.5762 10684.385 65536
-8890.1738 3158.2456 10693.423 65536
-8836.8525 3161.907 10705.82 65536
-8785.7197 3166.4106 10721.068 65536
-8730.1426 3169.366 10731.075 65536
-8674.2236 3172.2402 10740.808 0
-8616.5586 3174.5144 10748.507 0
-8557.6924 3176.3757 10754.81 0
-8499.8574 3178.6516 10762.515 0
-8440.0176 3180.2063 10767.778 0
-8380.8857 3182.0532 10774.032 0
-8323.71 3184.6768 10782.915 0
-8267.4033 3187.6768 10793.072 0
-8215.1621 3192.3032 10808.737 0
-8156.5049 3194.4893 10816.14 0
-8096.4048 3196.1411 10821.732 0
-8035.7612 3197.6028 10826.682 65536
-7975.0244 3199.051 10831.585 65536
-7917.79 3201.9392 10841.363 65536
-7861.2119 3205.1418 10852.208 65536
-7807.8755 3209.7305 10867.744 65536
-7757.7139 3215.7114 10887.995 65536
-7708.5122 3222.1948 10909.947 65536
-7673.0195 3234.5667 10951.837 65536
-7635.8818 3246.4512 10992.075 65536
-7585.4072 3252.8213 11013.645 65536
-7537.4839 3260.406 11039.325 0
-7491.5396 3268.9875 11068.381 0
-7439.2676 3274.9358 11088.521 0
-7390.8828 3282.7163 11114.865 0
-7338.3076 3288.7595 11135.326 0
-7283.6333 3293.9634 11152.946 0
-7228.563 3299.082 11170.277 0
-7176.5801 3305.7178 11192.745 0
-7124.584 3312.4717 11215.612 0
-7079.8179 3322.7461 11250.401 65536
-7035.4351 3333.3982 11286.468 65536
-6987.2368 3342.4302 11317.049 65536
-6944.9106 3354.4741 11357.828 65536
-6905.6904 3368.2693 11404.537 0
-6866.5854 3382.3948 11452.364 65536
-6816.2871 3391.2344 11482.293 65536
-6819.3511 3427.0693 11603.627 65536
-6798.1211 3451.3042 11685.682 0
-6762.7241 3468.7712 11744.824 0
-6750.0669 3498.3887 11845.105 0
-6711.0972 3514.8499 11900.841 0
-6674.8486 3533.1021 11962.64 0
-6646.5845 3556.0188 12040.232 0
-6608.5269 3574.1377 12101.581 65536
-6561.4082 3587.7009 12147.505 65536
-6539.2871 3615.3865 12241.244 65536
-6499.998 3634.0962 12304.593 65536
-6457.7021 3651.5312 12363.627 65536
-6426.6021 3675.7725 12445.703 65536
-6405.7407 3706.5017 12549.749 65536
-6383.4229 3737.1021 12653.358 65536
-6357.645 3766.3823 12752.498 65536
-6328.5396 3794.3745 12847.275 65536
-6299.2012 3822.9087 12943.889 65536
-6282.2314 3859.7478 13068.621 65536
-6256.5034 3892.061 13178.03 65536
-6244.5967 3933.9004 13319.692 65536
-6218.2437 3967.5962 13433.782 65536
-6180.4565 3994.7783 13525.818 65536
-6151.2251 4028.28 13639.25 65536
-6150.3804 4081.5142 13819.494 65536
-6172.3008 4151.5015 14056.463 0
-6055.2646 4128.6646 13979.14 0
-5983.957 4136.8047 14006.701 0
-5947.707 4169.7529 14118.259 0
-5895.7529 4192.4766 14195.198 0
-5853.7539 4223.0415 14298.688 0
-5794.9751 4242.2236 14363.637 0
-5733.0107 4259.6128 14422.514 0
-5691.7324 4293.1323 14536.008 0
-5630.5728 4312.4585 14601.442 0
-5596.2676 4353.2793 14739.656 0
-5550.103 4386.0264 14850.533 0
-5474.7461 4396.3892 14885.621 0
-5414.7988 4419.6704 14964.448 0
-5788.7612 4803.8091 16265.095 0
-5711.7578 4820.4058 16321.289 0
-5782.5913 4964.498 16809.166 0
-5435.1836 4748.2729 16077.057 0
-5414.0894 4814.4844 16301.239 0
-5209.5283 4716.9878 15971.128 0
-5079.8677 4684.9497 15862.651 0
-4959.6978 4660.6177 15780.267 0
-4890.8779 4684.5327 15861.239 0
-4834.6094 4721.645 15986.896 0
-4743.7817 4725.8174 16001.023 0
-4682.4204 4760.1152 16117.152 0
-4691.0107 4868.4434 16483.938 0
-4668.2124 4948.1226 16753.721 0
-4556.8564 4935.3608 16710.512 0
-4473.9321 4953.5103 16771.963 0
-4399.2251 4981.7915 16867.721 0
-4324.6606 5011.5571 16968.504 0
-4235.6235 5025.5728 17015.959 0
-4154.7764 5050.2295 17099.443 0
-4079.021 5082.4668 17208.594 0
-3994.875 5105.6387 17287.051 0
-3922.5505 5145.5405 17422.154 0
-3832.0474 5163.1143 17481.656 0
-3743.8223 5184.8213 17555.154 0
-3655.5991 5207.7764 17632.877 0
-3571.6436 5238.3452 17736.379 0
-3476.6821 5254.1411 17789.861 0
-3472.7722 5412.8447 18327.213 0
-3454.6914 5559.0244 18822.158 0
-3288.8098 5469.1987 18518.02 0
-3235.5027 5566.8438 18848.633 0
-3103.5879 5531.3926 18728.602 0
-3095.5066 5722.2178 19374.711 0
0 0 0 0
0 0 0 0
-2822.8989 5873.7891 19887.912 65536
-2554.7214 5548.085 18785.119 0
-2277.7246 5172.583 17513.717 0
-1817.1161 4324.1787 14641.126 65793
-2123.0105 5306.2158 17966.18 0
-2163.6086 5694.0757 19279.424 0
0 0 0 0
-1919.2684 5649.417 19128.217 0
0 0 0 0
0 0 0 0
0 0 0 0
0 0 0 0
0 0 0 0
0 0 0 0
0 0 0 0
0 0 0 0
0 0 0 0
0 0 0 0
0 0 0 0
0 0 0 0
0 0 0 0
0 0 0 0
0 0 0 0
0 0 0 0
13.851459 5845.5474 19792.289 0
126.16743 5609.1885 18992.008 4343107
232.39055 5453.0767 18463.432 658186
342.22507 5454.6699 18468.826 131842
455.9068 5501.918 18628.803 256
567.7829 5513.1694 18666.898 0
689.43481 5600.1489 18961.4 0
792.62396 5533.7886 18736.713 256
933.1842 5712.5469 19341.967 263685
1071.4825 5839.7671 19772.719 2434853
1166.718 5730.3359 19402.197 0
1264.6212 5652.5146 19138.705 723978
1413.1124 5794.9927 19621.117 0
1530.26 5797.0098 19627.947 0
1644.7041 5789.2256 19601.59 0
1755.9159 5771.8462 19542.746 0
1829.343 5640.127 19096.762 0
1907.7506 5538.2568 18751.842 0
2041.644 5599.8179 18960.281 263171
2204.7361 5730.8359 19403.891 0
2234.949 5520.6016 18692.062 0
2333.7051 5491.5698 18593.766 65536
2459.22 5525.2842 18707.918 65536
2603.0232 5595.394 18945.301 65536
2636.3572 5432.0737 18392.32 0
2750.6267 5441.8823 18425.529 0
2963.2346 5638.0444 19089.709 197378
3015.2651 5525.48 18708.582 0
3068.1934 5422.5098 18359.938 65536
3161.8479 5396.1172 18270.574 0
3274.7051 5403.1602 18294.422 0
3443.3218 5498.7959 18618.232 0
3512.0496 5433.9258 18398.59 0
0 0 0 0
3892.0269 5668.8325 19193.955 0
3966.1045 5612.2324 19002.314 0
4120.5635 5669.3613 19195.744 0
4286.875 5739.2788 19432.479 0
4454.8354 5807.6787 19664.07 0
4625.0479 5875.4424 19893.51 514
0 0 0 0
3818.7488 4615.1938 15626.467 9546151
0 0 0 0
0 0 0 0
0 0 0 0
0 0 0 0
0 0 0 0
0 0 0 0
0 0 0 0
5358.0679 5420.8564 18354.34 517
5177.2803 5133.438 17381.176 131588
0 0 0 0
5901.2661 5626.752 19051.475 258
5912.0801 5530.939 18727.064 3422524
5853.0728 5374.5532 18197.562 1
6002.6855 5411.9316 18324.121 256
6117.3745 5417.0522 18341.459 1
6165.4678 5364.0542 18162.014 256
6317.1978 5401.4937 18288.779 0
6642.4673 5583.5415 18905.17 0
6848.2959 5660.8022 19166.766 0
6760.1914 5496.5459 18610.613 0
6926.1543 5540.8276 18760.547 0
7075.853 5570.9014 18862.373 0
7205.7896 5584.7212 18909.164 0
7257.7578 5538.6167 18753.061 0
7447.1924 5597.2241 18951.498 0
7642.5601 5658.478 19158.896 0
7743.0342 5648.7075 19125.814 0
7799.1938 5607.3589 18985.812 0
7820.0498 5542.1689 18765.088 0
7839.644 5477.9307 18547.586 0
7876.5278 5427.3877 18376.453 0
7943.3066 5398.5449 18278.795 0
8032.707 5385.647 18235.125 0
8154.1401 5394.2837 18264.367 0
8287.0889 5410.2114 18318.297 0
8304.5166 5351.2866 18118.785 0
8361.9258 5319.3037 18010.494 0
8390.9492 5270.3003 17844.574 0
8500.9551 5272.75 17852.869 0
8444.9375 5173.4321 17516.592 2
8466.166 5123.2783 17346.777 258
8621.1201 5154.2817 17451.75 197895
8918.917 5268.9331 17839.945 1646114
7987.313 4663.1436 15788.818 2
8694.001 5016.7817 16986.193 530458
8524.208 4862.3433 16463.283 856340
8552.9648 4823.3799 16331.358 9086632
8245.751 4597.9497 15568.08 3490376
7085.5005 3907.1348 13229.067 395274
7194.957 3923.9497 13286.001 8
7553.8628 4074.9661 13797.323 5
7609.6499 4060.9758 13749.954 3
7746.0708 4089.8572 13847.742 263175
7837.8076 4094.7864 13864.432 1776926
7995.2686 4133.5928 13995.825 259
8158.5386 4174.5723 14134.577 2
8578.6514 4344.7988 14710.942 197638
8702.541 4363.0771 14772.831 3816510
8769.2061 4352.5869 14737.312 257
8558.0645 4205.7783 14240.237 256
8892.1318 4327.1592 14651.218 460807
8774.4873 4228.502 14317.177 256
8695.3154 4150.1021 14051.725 256
8765.8271 4143.9551 14030.911 256
8810.3086 4125.7354 13969.221 0
8858.374 4109.5171 13914.308 0
8939.5107 4108.7998 13911.879 0
9040.3232 4117.0557 13939.834 0
9109.1816 4110.7422 13918.456 0
9153.877 4093.7358 13860.876 0
9254.5684 4101.8525 13888.357 256
9398.4814 4128.8125 13979.641 256
9557.71 4161.9692 14091.904 256
9542.1562 4119.1011 13946.759 131842
9534.5469 4080.3711 13815.624 256
9371.8428 3976.4956 13463.914 256
9323.0049 3922.2834 13280.358 256
9337.9004 3895.5696 13189.909 256
9335.8994 3862.3105 13077.299 256
9476.5615 3888.134 13164.733 0
9480.6318 3857.9512 13062.538 0
9560.6885 3858.9285 13065.847 0
9622.6875 3852.6604 13044.624 256
9694.1807 3850.2629 13036.507 256
9950.4395 3920.7058 13275.018 2
9874.0654 3860.0061 13069.496 2
10052.83 3899.2153 13202.254 2
10231.378 3937.7341 13332.674 2
10410.848 3976.0127 13462.279 2
10793.819 4090.8345 13851.051 3
11274.777 4240.7729 14358.725 258
0 0 0 0
0 0 0 0
0 0 0 0
0 0 0 0
0 0 0 0
0 0 0 0
0 0 0 0
0 0 0 0
0 0 0 0
16044.846 5610.2915 18995.742 2105891
0 0 0 0
0 0 0 0
0 0 0 0
0 0 0 0
0 0 0 0
0 0 0 0
0 0 0 0
0 0 0 0
0 0 0 0
15921.608 5201.2207 17610.68 0
16630.445 5397.3003 18274.58 3225141
16236.437 5235.2358 17725.852 1055257
16597.393 5317.1216 18003.105 2634805
14903.086 4743.7534 16061.754 2897976
14785.794 4676.4644 15833.921 4935507
16088.201 5056.2095 17119.691 264716
15638.243 4883.9092 16536.303 790548
15264.309 4737.3545 16040.087 461069
15946.894 4918.48 16653.355 1448478
16664.547 5108.1206 17295.455 259
15816.028 4818.3066 16314.181 790549
0 0 0 0
0 0 0 0
-9702.4561 3196.2749 10608.702 65536
-9649.1602 3199.5095 10619.438 65536
-9591.29 3201.2603 10625.248 0
-9535.0186 3203.571 10632.918 0
-9475.2822 3204.7407 10636.801 0
-9414.5674 3205.5933 10639.63 0
-9358.5732 3208.0752 10647.868 0
-9297.1162 3208.7056 10649.961 0
-9242.6709 3211.7817 10660.17 0
-9189.4521 3215.3289 10671.943 0
-9131.3311 3217.1982 10678.148 0
-9074.6895 3219.6187 10686.182 0
-9019.0303 3222.4243 10695.494 65536
-8963.123 3225.1802 10704.642 65536
-8907.6904 3228.1479 10714.491 65536
-8856.0977 3232.5601 10729.135 65536
-8801.3896 3235.8906 10740.189 65536
-8746.0312 3239.0291 10750.606 65536
-8693.0879 3243.1143 10764.166 0
-8639.2568 3246.927 10776.82 0
-8585.0527 3250.655 10789.194 0
-8531.4932 3254.6853 10802.571 0
-8474.8477 3257.5903 10812.213 0
-8418.0127 3260.4666 10821.76 0
-8361.5254 3263.5227 10831.903 0
-8305.3184 3266.7366 10842.57 0
-8247.2891 3269.2783 10851.007 0
-8190.439 3272.3311 10861.139 0
-8128.7271 3273.4749 10864.935 65536
-8069.8345 3275.7808 10872.589 65536
-8012.085 3278.5923 10881.92 65536
