# .PCD v0.7 - Point Cloud Data file format
VERSION 0.7
FIELDS x y z rgb
SIZE 4 4 4 4
TYPE F F F U
COUNT 1 1 1 1
WIDTH 1640
HEIGHT 1
VIEWPOINT 0 0 0 1 0 0 0
POINTS 1640
DATA ascii
-7481.7817 3253.2893 10589.053 65536
-7428.5405 3257.5398 10602.888 65536
-7377.604 3262.8823 10620.277 65536
-7329.249 3269.4685 10641.715 65536
-7280.2173 3275.8655 10662.535 0
-7233.5649 3283.4543 10687.236 0
-7178.3491 3287.2563 10699.611 0
-7116.5063 3288.0637 10702.24 0
-7058.9004 3290.8616 10711.347 0
-6999.5488 3292.8894 10717.946 0
-6934.209 3292.1113 10715.413 0
-6872.9614 3293.2791 10719.215 0
-6812.8755 3295.031 10724.917 0
-6751.269 3296.0735 10728.311 65536
-6690.9873 3297.7891 10733.894 65536
-6621.9072 3295.1587 10725.333 65536
-6564.4253 3298.3057 10735.575 65536
-6493.6675 3294.7778 10724.094 196608
-6424.4624 3291.9761 10714.974 65536
-5917.9141 3062.7742 9968.9502 2039839
-5760.9243 3011.6775 9802.6367 8488321
-6103.2183 3223.2175 10491.173 66049
-6582.2314 3512.0732 11431.363 768
-6586.9551 3551.2488 11558.874 256
-5933.5845 3232.7104 10522.071 256
-5868.0093 3231.0371 10516.625 256
-5777.7769 3215.6047 10466.395 0
-5792.7593 3259.031 10607.741 0
-5749.9023 3270.5142 10645.118 0
-5743.0454 3302.9575 10750.717 0
-5760.5068 3350.2739 10904.726 0
-5761.1816 3388.7932 11030.101 0
-5743.0938 3417.0354 11122.026 65536
-5714.2061 3439.4353 11194.935 65536
-5714.9731 3480.4224 11328.343 65536
-5673.7344 3496.5002 11380.675 65536
-5646.8579 3521.9236 11463.425 65536
-5596.1401 3532.917 11499.207 65536
-5554.3672 3549.8989 11554.48 65536
-5631.793 3644.4419 11862.206 65536
-6270.8047 4109.4019 13375.593 65536
-6229.9873 4135.0742 13459.153 0
-6176.3276 4152.7798 13516.782 0
-6143.5229 4185.1587 13622.172 0
-6097.8979 4209.5522 13701.57 0
-6060.1099 4240.0898 13800.966 0
-6036.3931 4281.4453 13935.573 0
-6036.4028 4341.0142 14129.462 0
-5984.0991 4364.1123 14204.645 0
-5932.5796 4388.4517 14283.866 0
-5878.9814 4411.938 14360.311 0
-5839.1001 4446.562 14473.007 0
-5803.1924 4485.292 14599.069 0
-5772.3979 4529.2104 14742.018 0
-5799.9697 4620.9839 15040.73 0
-5734.9531 4640.7085 15104.931 0
-5653.2583 4647.3501 15126.549 0
-5601.1353 4678.9092 15229.269 0
-5556.5693 4717.9214 15356.249 0
-5497.917 4746.0762 15447.89 0
-5444.0352 4779.3755 15556.274 0
-5415.8628 4836.7861 15743.139 0
-5983.2373 5437.4355 17698.178 0
-5290.2837 4893.7271 15928.475 0
-5214.71 4911.7119 15987.013 0
-5146.8633 4937.7778 16071.854 0
-5075.2046 4961.103 16147.775 0
-4993.8555 4975.6724 16195.197 0
-4920.4224 4998.8569 16270.66 0
-4842.5771 5018.3989 16334.266 0
-4787.4419 5062.7559 16478.643 0
-4706.4648 5081.0669 16538.242 0
-4628.1982 5103.1479 16610.113 0
-4583.896 5164.4575 16809.668 0
-4499.7705 5182.6318 16868.824 0
-4418.1992 5204.6445 16940.473 0
-4328.7319 5218.1646 16984.479 0
-4253.605 5250.0298 17088.195 0
-4177.083 5281.6909 17191.248 0
-4095.6521 5308.5762 17278.758 0
-4032.0581 5360.5586 17447.953 0
-3966.4917 5412.5942 17617.322 0
-3871.6067 5426.3584 17662.123 0
-3774.3577 5437.4844 17698.338 0
-3688.4829 5466.1045 17791.492 0
-3616.3875 5517.4365 17958.572 0
-3537.6309 5561.4194 18101.73 0
-3457.7693 5606.3696 18248.037 0
-3423.5803 5730.6812 18652.656 0
-3363.5691 5818.6431 18938.961 0
-3323.2158 5947.8794 19359.609 0
-3185.5549 5905.9795 19223.23 0
-2969.675 5710.5503 18587.133 0
0 0 0 0
-2946.2368 6120.8633 19922.65 0
-2827.6675 6120.5122 19921.508 0
0 0 0 0
-2597.5847 6136.3823 19973.164 0
-2474.3882 6125.2695 19936.992 0
-2337.6738 6077.8931 19782.787 0
0 0 0 0
0 0 0 0
0 0 0 0
0 0 0 0
-1754.6892 6094.896 19838.131 0
0 0 0 0
0 0 0 0
0 0 0 0
0 0 0 0
0 0 0 0
0 0 0 0
0 0 0 0
0 0 0 0
0 0 0 0
0 0 0 0
-416.64951 5547.8188 18057.461 3027764
0 0 0 0
-212.36101 5832.2021 18983.094 1580062
-99.602661 5835.9951 18995.439 5989736
0 0 0 0
0 0 0 0
0 0 0 0
0 0 0 0
0 0 0 0
205.98277 2080.5889 6772.0591 1843490
0 0 0 0
0 0 0 0
917.33984 5841.5635 19013.564 3685695
1042.3875 5909.8447 19235.811 395016
0 0 0 0
1264.0616 5877.4087 19130.236 0
1380.5725 5889.4102 19169.299 0
1518.2156 5982.8574 19473.459 0
1632.2054 5976.4585 19452.631 0
1740.2866 5950.7021 19368.797 0
1846.8202 5923.1782 19279.209 0
1953.9857 5900.7783 19206.301 0
2078.9626 5931.6709 19306.852 0
2199.2583 5946.6729 19355.682 65536
2294.7405 5896.4248 19192.131 65536
2394.9182 5862.4297 19081.48 65536
2510.406 5867.2915 19097.305 65536
2613.8906 5844.8916 19024.396 65536
2730.7109 5852.9331 19050.57 65536
2913.2417 5995.5688 19514.832 394758
2926.8381 5792.9204 18855.236 0
3061.2634 5835.5479 18993.984 1513496
3182.0422 5850.0557 19041.205 256
3247.5454 5765.4341 18765.773 256
3407.293 5848.1904 19035.135 3289906
3528.9646 5862.3765 19081.309 0
3594.1338 5784.7383 18828.605 256
3683.9155 5750.2065 18716.209 0
3798.9749 5755.9985 18735.061 0
3925.4934 5778.3281 18807.74 513
4032.376 5771.3174 18784.922 770
4276.2305 5955.4424 19384.227 9610661
4278.145 5801.8018 18884.145 661269
4463.1221 5897.9282 19197.025 8954785
0 0 0 0
0 0 0 0
0 0 0 0
0 0 0 0
0 0 0 0
0 0 0 0
0 0 0 0
0 0 0 0
0 0 0 0
0 0 0 0
0 0 0 0
0 0 0 0
0 0 0 0
5677.3174 5525.0747 17983.432 265
5719.2056 5462.9917 17781.361 774
5714.8389 5359.7822 17445.426 1319201
5753.7104 5300.0786 17251.1 6119781
6292.8677 5695.2417 18537.305 197894
6398.5151 5691.2158 18524.201 2
6413.9619 5608.4531 18254.818 256
6514.8057 5601.8745 18233.406 256
6640.8535 5616.8286 18282.08 256
6757.5498 5623.5186 18303.855 256
6896.4199 5648.1572 18384.051 256
6989.5757 5635.1719 18341.785 256
7084.9722 5624.3633 18306.605 256
7238.2275 5659.1187 18419.729 0
7367.5293 5674.3887 18469.432 0
7706.3091 5848.1797 19035.1 0
7888.9658 5900.1777 19204.346 0
7660.0127 5647.2388 18381.061 0
7725.7783 5615.6353 18278.195 0
7788.4385 5582.6816 18170.936 0
7876.5845 5568.647 18125.256 0
8240.7832 5747.5249 18707.48 256
8309.125 5718.042 18611.518 256
8532.2637 5794.46 18860.248 1777182
8360.7676 5604.3652 18241.514 1
8527.8994 5643.2192 18367.979 257
8257.9385 5395.5078 17561.709 260
8480.7656 5471.9346 17810.469 131588
8341.1396 5315.5 17301.293 5
8385.0869 5278.4346 17180.65 6
8352.085 5194.4048 16907.143 265
8511.8379 5230.8267 17025.691 264719
8574.7412 5207.5747 16950.01 3824733
9519.6797 5714.3164 18599.391 8232609
9618.0225 5707.0776 18575.83 8101282
9399.543 5514.1416 17947.848 8101025
8980.2861 5209.0742 16954.891 7903646
8178.3086 4691.2412 15269.408 8626085
7871.8936 4465.9194 14536.013 5533301
7666.981 4302.4487 14003.937 7243149
7849.4478 4357.5386 14183.248 4545120
8191.9219 4499.3408 14644.796 7900305
8292.9668 4506.9526 14669.571 1909284
8053.7729 4331.4209 14098.238 3
8275.0371 4404.5947 14336.409 4
8374.1309 4411.9111 14360.224 3
8383.5156 4372.2939 14231.275 3
8473.8711 4375.2754 14240.979 3
8660.3281 4427.3267 14410.398 2
8663.8154 4385.7368 14275.029 1
9068.5586 4546.105 14797.008 257
8834.3252 4386.1475 14276.366 256
8792.9473 4324.0737 14074.322 256
8870.2979 4321.0054 14064.336 256
8958.0869 4323.0322 14070.934 256
9000.2334 4303.1982 14006.377 256
9009.5674 4268.1846 13892.411 256
9065.5654 4255.7119 13851.813 256
11049.628 5140.4224 16731.438 256
9173.7969 4229.6982 13767.143 256
9220.9736 4213.8652 13715.608 256
9297.04 4211.3965 13707.572 0
9361.2686 4203.6548 13682.374 256
8520.2881 3793.0649 12345.956 0
8895.0967 3926.1108 12779.004 256
9448.585 4135.1021 13459.244 256
8716.0586 3782.4944 12311.55 2
8647.9639 3721.7 12113.671 2
9519.2549 4062.8406 13224.042 2
9555.7148 4045.0044 13165.988 259
9582.8535 4023.5442 13096.138 261
9621.8174 4007.355 13043.443 260
9389.8213 3879.4756 12627.212 132102
8748.3818 3585.8008 11671.337 329994
0 0 0 0
0 0 0 0
0 0 0 0
0 0 0 0
0 0 0 0
12166.191 4760.2319 15493.964 2438201
0 0 0 0
15891.299 6125.0234 19936.191 5531502
0 0 0 0
0 0 0 0
0 0 0 0
0 0 0 0
0 0 0 0
0 0 0 0
0 0 0 0
0 0 0 0
0 0 0 0
0 0 0 0
0 0 0 0
0 0 0 0
0 0 0 0
0 0 0 0
0 0 0 0
0 0 0 0
13837.914 4733.5806 15407.217 855826
13185.287 4480.6841 14584.07 2303788
13110.565 4426.1943 14406.714 1119770
13536.573 4540.3643 14778.322 1974823
13730.364 4575.6748 14893.255 66308
15113.093 5004.2119 16288.088 1120026
16766.611 5516.3862 17955.152 1514785
0 0 0 0
0 0 0 0
0 0 0 0
0 0 0 0
0 0 0 0
0 0 0 0
0 0 0 0
0 0 0 0
0 0 0 0
-9458.8301 3260.1389 10409.969 0
-9403.7939 3262.51 10417.539 0
-9348.2266 3264.7268 10424.618 0
-9281.7021 3263.1211 10419.491 0
-9241.7568 3270.9009 10444.332 0
-9185.001 3272.7961 10450.384 0
-9130.9531 3275.6882 10459.619 0
-9081.3076 3280.2104 10474.059 0
-9023.8174 3281.9419 10479.587 0
-8974.2588 3286.6021 10494.468 0
-8918.5977 3289.0771 10502.371 0
-8860.959 3290.8523 10508.04 65536
-8803.0859 3292.5659 10513.511 65536
-8743.4668 3293.6453 10516.958 65536
-8685.5762 3295.3965 10522.549 65536
-8617.0117 3293.0942 10515.197 65536
-8555.5293 3293.4834 10516.441 65536
-8491.1826 3292.7688 10514.158 0
-8428.9707 3292.8772 10514.505 0
-8374.5352 3296.0476 10524.629 0
-8307.6221 3294.3181 10519.106 0
-8236.7119 3290.9653 10508.4 0
-8179.7407 3293.1733 10515.45 0
-8124.3599 3296.0603 10524.669 0
-8064.8057 3297.2854 10528.581 0
-8002.4204 3297.3638 10528.831 0
-7939.9932 3297.4258 10529.029 0
-7878.5952 3297.9197 10530.606 65536
-7817.3145 3298.4707 10532.365 65536
-7766.7246 3303.5781 10548.675 65536
-7716.8628 3309.0811 10566.245 65536
-7670.3511 3316.1223 10588.729 65536
-7621.6592 3322.3298 10608.551 65536
-7572.791 3328.5632 10628.455 65536
-7521.436 3333.8 10645.176 65536
-7464.646 3336.6953 10654.421 65536
-7419.8857 3345.0637 10681.143 65536
-7371.9341 3352.126 10703.692 65536
-7316.6787 3355.9602 10715.937 0
-7268.8691 3363.3074 10739.396 0
-7211.9868 3366.5498 10749.749 0
-7149.7661 3367.3357 10752.259 0
-7086.5718 3367.6733 10753.337 0
-7025.7305 3369.1448 10758.036 0
-6959.7905 3368.1768 10754.944 0
-6897.0913 3368.7729 10756.849 0
-6832.5503 3368.4729 10755.89 0
-6765.5903 3366.9629 10751.068 65536
-6698.3579 3365.2871 10745.718 65536
-6628.8096 3362.4043 10736.513 65536
-6568.708 3364.3047 10742.58 131072
-6493.0317 3358.186 10723.043 131073
-6429.0298 3358.0449 10722.592 0
-5964.5327 3146.6169 10047.48 1052431
-5781.9268 3081.1299 9838.374 5462359
-6328.9106 3407.0679 10879.128 512
-6744.3569 3668.1924 11712.927 512
-6745.7104 3707.1934 11837.461 256
-5853.6499 3250.8545 10380.322 256
-5766.7456 3236.7048 10335.141 256
-5765.7568 3270.9907 10444.62 0
-5743.2607 3293.6895 10517.1 0
-5723.1328 3318.2607 10595.558 0
-5739.4116 3364.7222 10743.914 0
-5723.0244 3392.8633 10833.771 0
-5684.9487 3408.6401 10884.148 65536
-5671.665 3439.8167 10983.698 65536
-5699.8931 3497.1885 11166.894 65536
-5701.27 3539.2437 11301.18 65536
-5676.3667 3565.7935 11385.955 65536
-5628.002 3578.0674 11425.147 65536
-5592.1929 3598.7207 11491.096 65536
-5533.3052 3604.8501 11510.667 65536
-5900.3364 3892.0845 12427.838 65536
-6271.7212 4189.5103 13377.549 65536
-6241.834 4223.082 13484.747 0
-6185.1724 4239.1768 13536.139 0
-6151.3311 4271.542 13639.485 0
-6105.1411 4296.0825 13717.846 0
-6083.7739 4338.9907 13854.856 0
-6045.145 4370.5967 13955.777 0
-6015.0737 4409.355 14079.537 0
-5978.502 4444.3745 14191.358 0
-5933.7129 4474.2002 14286.595 0
-5883.6479 4500.856 14371.71 0
-5837.2905 4531.1753 14468.522 0
-5803.9175 4572.6309 14600.894 0
-5766.998 4612.5083 14728.227 0
-5760.2607 4678.127 14937.755 0
-5697.4053 4699.5112 15006.036 0
-5636.8447 4723.498 15082.63 0
-5590.2471 4760.1504 15199.664 0
-5558.8779 4811.1865 15362.628 0
-5498.9175 4838.7686 15450.7 0
-5441.2617 4869.3496 15548.349 0
-5394.7241 4911.1094 15681.691 0
-5334.0928 4941.2812 15778.034 0
-5264.1489 4963.7515 15849.784 0
-5197.0679 4989.79 15932.927 0
-5127.7021 5014.5601 16012.021 0
-5062.9961 5044.9102 16108.933 0
-4994.7397 5072.8242 16198.064 0
-5090.042 5271.2163 16831.551 0
-4959.9253 5239.4399 16730.086 0
-4772.9805 5145.1055 16428.865 0
-4702.1621 5174.6245 16523.123 0
-4616.854 5189.1172 16569.4 0
-4561.6089 5238.7676 16727.939 0
-4486.3779 5267.1665 16818.619 0
-4403.0391 5287.123 16882.344 0
-4322.9126 5311.959 16961.646 0
-4240.4116 5334.9927 17035.195 0
-4167.2158 5371.1465 17150.639 0
-4084.9512 5397.1313 17233.611 0
-4012.7075 5438.0337 17364.217 0
-3945.9138 5488.6763 17525.924 0
-3858.2383 5512.231 17601.137 0
-3767.5552 5532.6821 17666.439 0
-3688.4258 5571.7593 17791.217 0
-3620.1426 5630.0112 17977.221 0
-3545.1265 5681.0156 18140.084 0
-3479.72 5751.1025 18363.879 0
-3371.6157 5752.8745 18369.537 0
-3333.6553 5878.4546 18770.527 0
-3310.5251 6039.7881 19285.682 0
-3210.9604 6068.2427 19376.541 0
-3098.76 6074.0469 19395.074 0
-2938.6152 5982.6899 19103.361 0
-2947.8225 6242.6289 19933.373 0
-2835.8923 6257.0601 19979.453 0
-2709.1541 6238.6519 19920.676 0
-2598.7654 6257.9326 19982.242 0
0 0 0 0
-2361.0383 6257.3911 19980.512 0
0 0 0 0
0 0 0 0
0 0 0 0
0 0 0 0
0 0 0 0
0 0 0 0
0 0 0 0
0 0 0 0
0 0 0 0
0 0 0 0
0 0 0 0
0 0 0 0
0 0 0 0
0 0 0 0
0 0 0 0
-421.26471 5717.7817 18257.482 133385
-315.02371 5759.2729 18389.967 3029047
-217.13765 6078.7471 19410.082 4541257
0 0 0 0
0 0 0 0
0 0 0 0
0 0 0 0
0 0 0 0
0 0 0 0
0 0 0 0
0 0 0 0
0 0 0 0
914.87939 5938.5967 18962.568 4080453
0 0 0 0
1198.1915 6240.1919 19925.594 256
1256.6338 5955.9019 19017.824 0
1373.3059 5971.7417 19068.402 0
1506.0217 6049.6128 19317.055 0
1605.1404 5991.0537 19130.068 131586
1718.9147 5991.3247 19130.934 131586
1844.1373 6028.9897 19251.201 0
1945.871 5989.9487 19126.539 0
2065.0771 6006.0332 19177.898 0
2204.6316 6076.5205 19402.973 460550
2288.5891 5994.3784 19140.684 0
2384.9666 5951.0059 19002.191 0
2504.6663 5967.1177 19053.639 0
2616.7175 5964.4033 19044.971 131843
2742.0044 5990.8311 19129.357 460807
2878.3625 6038.3804 19281.188 855566
2896.2612 5843.2935 18658.254 0
3118.9236 6060.4771 19351.744 526088
3143.72 5891.4077 18811.887 0
3210.8501 5810.5596 18553.73 0
3356.3726 5872.2339 18750.664 2303010
3329.2576 5637.6084 18001.48 0
3579.9326 5873.3442 18754.209 256
3674.5881 5846.6025 18668.82 0
3810.9661 5885.8667 18794.195 256
3926.3364 5891.3735 18811.779 512
4107.3945 5992.4097 19134.398 395785
4354.2661 6181.4316 19737.965 5068374
4444.1147 6143.4702 19616.75 516
4403.8374 5932.1641 18942.027 5068373
0 0 0 0
0 0 0 0
0 0 0 0
0 0 0 0
0 0 0 0
0 0 0 0
0 0 0 0
0 0 0 0
0 0 0 0
0 0 0 0
0 0 0 0
0 0 0 0
0 0 0 0
5774.0024 5727.8682 18289.689 5
5812.478 5659.4902 18071.352 3
5903.3086 5643.646 18020.758 4
6033.8604 5665.6631 18091.062 2
6159.4551 5682.3364 18144.301 66052
6324.7881 5734.4653 18310.754 256
6425.021 5726.8052 18286.295 0
6539.6616 5732.0278 18302.971 0
6671.5591 5751.9585 18366.611 0
6804.9243 5772.4917 18432.176 0
6955.6011 5806.8271 18541.814 0
7047.1304 5791.4824 18492.816 0
7126.5996 5766.8506 18414.164 0
7290.2998 5810.0933 18552.242 0
7433.7759 5836.1685 18635.504 0
7728.418 5978.4146 19089.711 0
7829.6406 5969.0879 19059.93 0
7684.3882 5774.8018 18439.553 0
7761.4268 5750.6812 18362.533 0
7822.2002 5715.3457 18249.703 0
8199.4502 5909.0498 18868.221 0
8260.5713 5872.7783 18752.402 0
8376.9502 5876.2344 18763.438 256
8424.6064 5832.0259 18622.275 723981
8247.2617 5635.2236 17993.865 2
8417.4346 5677.874 18130.053 259
8277.6309 5512.999 17603.588 4
8393.8271 5520.6099 17627.891 4
8489.3613 5514.6104 17608.734 4
8354.1865 5360.7173 17117.338 261
8353.4756 5295.7705 16909.955 520
8138.6299 5098.2295 16279.187 1582375
8614.541 5332.9531 17028.684 8692901
9515.5957 5822.3604 18591.412 8427935
9613.6758 5814.8511 18567.434 8297375
8884.3232 5312.7173 16964.068 5138030
8398.1592 4965.6445 15855.828 3556167
7888.2627 4612.3979 14727.875 2306107
7358.4546 4255.3901 13587.91 6845049
8257.2402 4723.3198 15082.061 1317918
8414.9678 4761.8501 15205.091 922648
8373.3115 4687.9336 14969.068 66052
8271.3672 4582.1729 14631.363 66310
7920.4482 4342.1211 13864.852 1580577
8456.5449 4588.2817 14650.869 2764338
8474.4551 4551.1377 14532.264 395273
8457.1514 4496.0215 14356.272 66565
8524.9678 4486.8071 14326.85 259
9008.7891 4694.5586 14990.223 4083022
8994.0938 4641.0039 14819.216 2304552
9024.5908 4611.5811 14725.266 257
8868.375 4488.229 14331.39 256
8774.4736 4398.4609 14044.752 0
8850.9209 4394.9727 14033.612 256
8939.0557 4397.2983 14041.039 256
8982.6748 4377.8862 13979.053 256
8997.6113 4344.978 13873.975 256
9047.3262 4329.3096 13823.943 256
10163.571 4819.6855 15389.765 256
9735.1543 4575.3486 14609.573 256
9201.4941 4286.3076 13686.634 256
9228.4297 4261.1846 13606.414 256
9268.1816 4242.3647 13546.319 256
9325.8818 4232.0132 13513.267 0
9402.5156 4230.3579 13507.98 256
9414.0469 4199.687 13410.045 256
8673.1816 3836.6987 12250.985 256
8632.8203 3787.0518 12092.457 256
9471.8398 4120.8071 13158.173 256
9530.8271 4112.5156 13131.697 1
9561.0557 4092.0498 13066.348 2
9604.1729 4077.3857 13019.524 2
9601.2324 4043.5591 12911.512 5
9625.6201 4021.687 12841.672 4
0 0 0 0
8891.3105 3656.8931 11676.846 2
10335.833 4218.085 13468.791 260
10023.64 4059.2395 12961.581 772
11747.978 4721.2544 15075.464 516
12609.084 5028.96 16058 3031105
0 0 0 0
0 0 0 0
0 0 0 0
0 0 0 0
0 0 0 0
0 0 0 0
0 0 0 0
0 0 0 0
0 0 0 0
0 0 0 0
0 0 0 0
0 0 0 0
0 0 0 0
0 0 0 0
0 0 0 0
0 0 0 0
0 0 0 0
0 0 0 0
12979.589 4525.8608 14451.553 131843
13342.851 4621.9424 14758.351 1777185
13022.685 4481.5757 14310.146 329224
12927.117 4419.8218 14112.959 1448733
13365.521 4540.2544 14497.512 526602
15505.396 5233.4292 16710.893 1778982
18221.656 6111.0854 19513.342 2699572
0 0 0 0
0 0 0 0
0 0 0 0
0 0 0 0
0 0 0 0
0 0 0 0
0 0 0 0
0 0 0 0
0 0 0 0
-9522.2529 3344.2834 10479.769 0
-9466.8535 3346.718 10487.397 0
-9409.5352 3348.5012 10492.986 0
-9350.8193 3349.8079 10497.08 0
-9294.416 3351.9663 10503.844 0
-9239.7207 3354.7737 10512.642 0
-9186.0654 3358 10522.751 0
-9131.5596 3360.957 10532.018 0
-9077.2197 3364.0168 10541.605 0
-9024.6211 3367.7681 10553.361 0
-8970.3838 3370.9568 10563.354 0
-8909.1738 3371.5518 10565.218 65536
-8847.9092 3372.134 10567.042 65536
-8789.4531 3373.803 10572.271 65536
-8730.6689 3375.3689 10577.179 65536
-8670.8926 3376.5713 10580.947 65536
-8607.8662 3376.5164 10580.774 65536
-8546.1826 3376.9907 10582.262 0
-8485.8115 3377.9951 10585.409 0
-8422.8457 3377.9739 10585.343 0
-8354.748 3375.8787 10578.776 0
-8286.7529 3373.7937 10572.242 0
-8222.9893 3373.4126 10571.048 0
-8169.0713 3377.0955 10582.59 0
-8106.5425 3377.2485 10583.069 0
-8044.4019 3377.5669 10584.066 0
-7981.3682 3377.5122 10583.896 0
-7918.9561 3377.7222 10584.553 65536
-7858.2188 3378.6548 10587.477 65536
-7800.6602 3380.981 10594.766 65536
-7754.9453 3388.52 10618.39 65536
-7713.7827 3398.188 10648.686 65536
-7665.2271 3404.7319 10669.192 65536
-7615.6367 3410.9221 10688.59 65536
-7562.2466 3415.5 10702.936 65536
-7513.9331 3422.4678 10724.77 65536
-7470.7935 3431.9314 10754.426 65536
-7422.4546 3439.1499 10777.046 65536
-7372.0762 3445.5403 10797.07 0
-7314.4878 3448.6438 10806.796 0
-7254.8628 3450.8337 10813.658 0
-7195.0054 3452.9507 10820.292 0
-7126.2339 3450.7896 10813.521 0
-7065.1797 3452.3606 10818.442 0
-7001.2163 3452.5251 10818.959 0
-6937.9043 3453.0173 10820.501 0
-6873.6738 3453.0574 10820.626 0
-6808.1128 3452.4233 10818.64 65536
-6735.8862 3448.3647 10805.922 65536
-6665.2505 3445.0505 10795.536 65536
-6605.3696 3447.2844 10802.536 65536
-6520.8359 3436.5701 10768.962 0
-6419.1841 3416.5322 10706.17 0
-5845.6294 3142.4141 9847.1836 4210496
-5871.4766 3188.2285 9990.749 987922
-6275.0781 3442.1963 10786.592 512
-6409.5142 3552.2322 11131.404 256
-5940.9189 3326.8701 10425.202 256
-5842.8833 3306.4558 10361.23 256
-6718.2544 3842.3193 12040.432 0
-6722.6504 3886.228 12178.025 0
-6731.459 3933.6711 12326.695 0
-6545.1719 3866.8955 12117.444 0
-5686.7803 3397.1365 10645.391 0
-5735.1685 3464.5881 10856.76 0
-5669.7681 3464.0532 10855.084 65536
-5655.6426 3495.1946 10952.669 65536
-5625.0518 3516.7666 11020.269 65536
-5674.6992 3589.603 11248.512 65536
-5653.0791 3618.5574 11339.243 65536
-5637.145 3651.8936 11443.707 65536
-5605.9844 3676.0598 11519.436 65536
-5647.5459 3749.0999 11748.316 65536
-5995.6807 4030.0337 12628.66 65536
-6262.8926 4263.0078 13358.717 0
-6246.7065 4306.5859 13495.274 0
-6193.4688 4325.4204 13554.295 0
-6161.5312 4359.8237 13662.103 0
-6120.9473 4388.9458 13753.36 0
-6100.7109 4433.644 13893.428 0
-6043.9517 4452.6616 13953.022 0
-6012.0654 4490.7876 14072.496 0
-5970.8828 4522.9473 14173.272 0
-5932.8887 4558.4771 14284.61 0
-5883.9614 4586.5166 14372.475 0
-5833.1885 4613.9219 14458.354 0
-5799.0303 4655.4854 14588.599 0
-5751.6909 4687.5684 14689.135 0
-5719.563 4733.228 14832.216 0
-5678.3774 4772.7041 14955.92 0
-5635.8828 4812.3184 15080.057 0
-5590.8477 4851.0083 15201.297 0
-5542.8779 4888.3813 15318.41 0
-5501.2285 4932.6694 15457.193 0
-5430.521 4951.9648 15517.658 0
-5367.6504 4979.1968 15602.993 0
-5310.0952 5012.4033 15707.05 0
-5243.1191 5037.7466 15786.467 0
-5186.5073 5074.1528 15900.551 0
-5116.3599 5098.4224 15976.603 0
-5049.3779 5126.8242 16065.604 0
-4980.5967 5154.4585 16152.198 0
-5041.3164 5319.8345 16670.428 0
-4908.6392 5283.668 16557.096 0
-4779.7373 5250.1694 16452.123 0
-4770.6182 5349.5908 16763.674 0
-4611.5215 5281.4873 16550.262 0
-4546.6919 5320.731 16673.236 0
-4464.0283 5340.3877 16734.834 0
-4397.5405 5380.7329 16861.262 0
-4317.7974 5406.3623 16941.574 0
-4240.7573 5436.6812 17036.582 0
-4159.6421 5463.1313 17119.467 0
-4085.4587 5500.2397 17235.752 0
-4009.8594 5537.3022 17351.893 0
-3932.6772 5574.0776 17467.133 0
-3847.2688 5600.8711 17551.094 0
-3760.6326 5627.3208 17633.979 0
-3713.0896 5715.4629 17910.184 0
-3670.3181 5816.3691 18226.387 0
-3567.4065 5825.21 18254.09 0
-3500.3318 5894.9585 18472.656 0
-3415.1692 5937.7754 18606.83 0
-3329.1653 5981.9473 18745.248 0
-3278.822 6095.4717 19100.992 0
-3159.6062 6084.5103 19066.643 0
-3032.7192 6057.4111 18981.725 0
-2909.2451 6035.2993 18912.434 0
-2818.1309 6081.2378 19056.389 0
-2734.3159 6147.4351 19263.826 0
0 0 0 0
-2591.2734 6358.3105 19924.635 0
0 0 0 0
0 0 0 0
0 0 0 0
0 0 0 0
0 0 0 0
0 0 0 0
0 0 0 0
0 0 0 0
0 0 0 0
0 0 0 0
0 0 0 0
0 0 0 0
0 0 0 0
0 0 0 0
0 0 0 0
0 0 0 0
0 0 0 0
0 0 0 0
-322.96002 6016.4165 18853.262 1316888
-212.85806 6072.0278 19027.527 2895922
0 0 0 0
0 0 0 0
124.64507 5987.563 18762.846 4
234.06619 5934.498 18596.561 3028534
0 0 0 0
0 0 0 0
0 0 0 0
703.24701 6172.1494 19341.273 258
805.40466 6075.6357 19038.834 1
0 0 0 0
1063.6654 6263.7974 19628.465 1316118
1164.0183 6177.2651 19357.303 0
1251.3531 6043.4277 18937.906 0
1364.8757 6047.7178 18951.35 0
1485.709 6081.2769 19056.512 0
1636.2164 6222.9404 19500.434 0
1778.2769 6315.8618 19791.615 0
1824.0521 6076.4961 19041.529 0
1931.9309 6059.8979 18989.518 0
2058.0352 6099.1445 19112.502 0
2113.7061 5936.4692 18602.736 1776410
2269.3936 6056.9058 18980.141 0
2373.5286 6034.8604 18911.059 256
2495.7839 6058.7979 18986.07 329478
2569.8062 5968.6377 18703.541 257
2713.5015 6041.0674 18930.51 8556429
2824.6758 6038.2109 18921.559 3554876
2887.3452 5935.856 18600.814 256
3065.811 6070.3276 19022.201 0
3102.1621 5923.854 18563.205 0
3186.093 5875.1782 18410.674 0
3368.8394 6005.9014 18820.312 0
3481.9771 6008.1138 18827.244 0
3570.9224 5969.7441 18707.008 0
3687.0667 5977.7891 18732.217 0
3818.582 6009.5527 18831.754 256
3918.5647 5991.2959 18774.543 256
4142.335 6158.0752 19297.168 0
4116.7646 5955.1787 18661.365 514
4359.4404 6140.7856 19242.99 658958
4453.9766 6113.564 19157.688 3620929
4688.71 6275.3394 19664.633 728348
0 0 0 0
0 0 0 0
0 0 0 0
0 0 0 0
0 0 0 0
0 0 0 0
0 0 0 0
0 0 0 0
0 0 0 0
0 0 0 0
0 0 0 0
5755.9043 5929.9131 18582.191 258
5769.1631 5831.6787 18274.361 0
5907.0503 5860.7256 18365.383 3
5970.9648 5816.6572 18227.289 4
6037.7983 5776.9526 18102.869 2
6334.4468 5954.6743 18659.785 2
6337.2402 5854.7969 18346.805 1
6462.5557 5869.5771 18393.121 256
6569.9658 5867.875 18387.787 256
6714.9707 5899.2559 18486.123 256
6869.7109 5938.041 18607.662 0
6998.2573 5953.3145 18655.523 0
7093.5376 5940.2544 18614.598 0
7159.3311 5903.2817 18498.738 0
7343.5132 5963.5688 18687.656 0
7508.8042 6006.9478 18823.59 0
7599.8452 5990.5249 18772.127 0
7661.5718 5951.8057 18650.795 0
7734.7041 5922.9238 18560.291 0
7808.3931 5895.2754 18473.65 0
7856.8345 5849.5962 18330.508 0
8377.5098 6151.9468 19277.965 0
8416.6133 6097.2725 19106.635 0
8400.7119 6004.7363 18816.66 0
8802.8564 6209.5215 19458.383 256
8305.8701 5782.9736 18121.736 1
8331.498 5726.5601 17944.957 2
8357.207 5671.6274 17772.818 2
8447.2393 5661.1743 17740.062 260
8451.6318 5594.292 17530.477 772
8369.0791 5472.1895 17147.852 3096641
7892.7158 5098.6255 15977.239 4806486
7967.4321 5085.7051 15936.751 8428959
8616.6553 5435.4941 17032.863 8296860
9580.9678 5973.6138 18719.135 6322815
9420.1865 5805.9502 18193.736 5402483
9047.3066 5512.8525 17275.275 7507602
8030.6743 4838.4722 15162.013 7765896
7521.1558 4481.2036 14042.463 197643
7640.2212 4502.1855 14108.213 9
7793.9014 4542.8877 14235.759 7
7665.4297 4420.0225 13850.743 6
7757.1733 4425.3984 13867.591 4
7812.4424 4410.0718 13819.562 4
8034.9507 4488.4878 14065.29 3
8130.0752 4494.8623 14085.265 4
8134.6719 4451.5674 13949.593 2
8340.4023 4518.1016 14158.088 1
8631.5654 4629.125 14505.995 329992
9075.2705 4818.9526 15100.845 1185815
8535.2549 4487.8228 14063.205 5462103
8753.4014 4557.8901 14282.771 256
8695.4268 4484.2163 14051.903 256
8762.498 4475.8174 14025.584 256
8836.1914 4470.9268 14010.259 256
8919.1084 4470.7505 14009.707 256
8979.7246 4459.5029 13974.462 256
9008.1201 4432.6074 13890.18 256
9085.8525 4430.2554 13882.811 256
10351.909 5002.1587 15674.947 256
9208.0879 4409.7661 13818.604 0
9202.7871 4368.2656 13688.557 0
9256.999 4355.4946 13648.536 0
9276.8037 4326.8965 13558.921 0
9320.3809 4309.7837 13505.296 0
9375.0342 4298.0415 13468.499 0
9402.2061 4274.0054 13393.179 0
9318.1006 4200.2129 13161.941 0
8613.0566 3850.0874 12064.773 256
9481.6289 4203.3506 13171.772 256
9531.541 4190.8755 13132.68 256
9574.7969 4175.7007 13085.128 1
9627.6807 4164.9351 13051.393 2
9624.6182 4130.333 12942.962 2
9675.6406 4119.3052 12908.405 2
9726.8682 4108.5376 12874.663 260
9807.7393 4110.3618 12880.379 260
9895.6514 4115.0859 12895.183 2
10685.265 4409.2954 13817.129 1252123
11618.823 4757.9634 14909.728 594964
11849.808 4815.8237 15091.041 593422
0 0 0 0
0 0 0 0
0 0 0 0
0 0 0 0
0 0 0 0
0 0 0 0
0 0 0 0
0 0 0 0
0 0 0 0
15657.277 5915.458 18536.895 4609881
0 0 0 0
0 0 0 0
0 0 0 0
0 0 0 0
0 0 0 0
0 0 0 0
0 0 0 0
0 0 0 0
13183.883 4684.3389 14679.015 2
13121.435 4631.502 14513.443 790033
12961.666 4545.2285 14243.094 263430
12982.876 4523.126 14173.833 1842979
13543.424 4687.998 14690.481 461324
15581.945 5359.0752 16793.393 1909285
0 0 0 0
0 0 0 0
0 0 0 0
0 0 0 0
0 0 0 0
0 0 0 0
18378.447 6049.6196 18957.309 2305585
0 0 0 0
0 0 0 0
0 0 0 0
-9540.9834 3413.2698 10500.384 0
-9484.7148 3415.4797 10507.184 0
-9433.9443 3419.7126 10520.205 0
-9380.5488 3423.0447 10530.455 0
-9328.6055 3426.9541 10542.482 0
-9270.9648 3428.8096 10548.19 0
-9222.4912 3434.1038 10564.477 0
-9168.7783 3437.5063 10574.944 0
-9112.9873 3440.1711 10583.143 0
-9062.3799 3444.8438 10597.517 0
-9008.3389 3448.2673 10608.049 0
-8951.6279 3450.7097 10615.562 65536
-8894.3623 3452.9717 10622.521 65536
-8835.3584 3454.5859 10627.487 65536
-8776.9512 3456.4592 10633.25 65536
-8716.5234 3457.5576 10636.629 65536
-8655.0615 3458.259 10638.786 65536
-8593.9111 3459.0959 10641.361 0
-8530.8447 3459.1687 10641.585 0
-8467.7852 3459.2449 10641.819 0
-8401.0156 3457.7954 10637.36 0
-8333.584 3456.0496 10631.989 0
-8270.0303 3455.8975 10631.522 0
-8208.7832 3456.7141 10634.034 0
-8146.3882 3457.0564 10635.088 0
-8083.6421 3457.2542 10635.695 0
-8021.1948 3457.5835 10636.709 0
-7960.9673 3458.8826 10640.705 65536
-7899.0439 3459.46 10642.481 65536
-7838.6299 3460.7129 10646.336 65536
-7785.2832 3465.1316 10659.93 65536
-7742.2407 3474.2473 10687.972 65536
-7694.7529 3481.5015 10710.289 65536
-7652.6338 3491.3269 10740.516 65536
-7598.1436 3495.6257 10753.74 65536
-7545.2158 3500.7229 10769.421 65536
-7499.0073 3509.051 10795.041 65536
-7450.3687 3516.3762 10817.575 65536
-7400.3359 3523.165 10838.46 0
-7350.0918 3529.9714 10859.398 0
-7300.5811 3537.2542 10881.803 0
-7246.7285 3542.5444 10898.077 0
-7182.3511 3542.7383 10898.674 0
-7127.7666 3547.8103 10914.277 0
-7073.2061 3552.9878 10930.204 0
-7020.1968 3559.0474 10948.846 0
-6962.7646 3562.9573 10960.874 0
-6910.9468 3569.8408 10982.051 65536
-6832.8491 3563.1519 10961.473 65536
-6769.7485 3564.2295 10964.788 65536
-6715.6572 3570.1179 10982.903 65536
-6641.9248 3565.5779 10968.937 0
-6599.8818 3578.1279 11007.545 0
-5903.6064 3232.6863 9944.8486 4342851
-5783.687 3199.0493 9841.3691 256
-7005.4912 3914.4355 12042.142 256
-6379.6631 3601.5381 11079.562 256
-6219.9365 3547.989 10914.826 256
-6371.082 3672.5081 11297.89 0
-6345.5415 3696.7463 11372.456 0
-6284.6221 3700.675 11384.541 0
-6256.9824 3724.4988 11457.831 0
-6201.6265 3732.1665 11481.42 0
-6237.5425 3795.5444 11676.393 0
-6194.8799 3811.9954 11727 0
-6182.5283 3847.6843 11836.792 65536
-6119.6162 3852.3667 11851.196 65536
-6068.2202 3864.4917 11888.498 65536
-5938.2783 3826.2925 11770.983 65536
-6059.5825 3951.0007 12154.629 65536
-5905.1479 3896.7607 11987.768 65536
-5875.8228 3924.7629 12073.912 65536
-5896.3311 3987.155 12265.852 65536
-6316.3599 4324.6509 13304.104 65536
-6294.2935 4364.1753 13425.694 0
-6250.1196 4389.1895 13502.647 0
-6193.3115 4405.8667 13553.951 0
-6157.6958 4438.2578 13653.598 0
-6169.0908 4505.8501 13861.535 0
-6120.3613 4530.7642 13938.179 0
-6052.9614 4542.3501 13973.822 0
-6015.5386 4577.0674 14080.624 0
-5970.0874 4606.5698 14171.384 0
-5919.6738 4633.0332 14252.793 0
-5877.9609 4667.1729 14357.818 0
-5822.3579 4691.127 14431.509 0
-5782.4028 4728.5938 14546.77 0
-5747.251 4771.1846 14677.795 0
-5710.0576 4813.3682 14807.566 0
-5663.6055 4848.9453 14917.013 0
-5613.7563 4882.6992 15020.852 0
-5554.2197 4908.9824 15101.707 0
-5507.1328 4947.3125 15219.624 0
-5893.6309 5382.9375 16559.756 0
-5553.7437 5158.6484 15869.766 0
-5344.561 5050.1133 15535.875 0
-5287.479 5084.0103 15640.152 0
-5225.2549 5114.0869 15732.68 0
-5159.1992 5141.4414 15816.831 0
-5092.9966 5169.6621 15903.648 0
-5021.3804 5193.3516 15976.524 0
-4956.7104 5225.2764 16074.735 0
-4892.7178 5259.1841 16179.048 0
-4871.6201 5341.4834 16432.229 0
-4796.4155 5366.6108 16509.529 0
-4757.3335 5434.0488 16716.992 0
-4614.2861 5383.0767 16560.184 0
-4534.3428 5405.105 16627.951 0
-4457.021 5431.3096 16708.564 0
-4392.9849 5475.2671 16843.793 0
-4319.1616 5508.792 16946.928 0
-4240.8379 5538.0415 17036.908 0
-4164.5371 5571.4268 17139.613 0
-4079.0383 5593.873 17208.666 0
-4002.2993 5629.7964 17319.178 0
-3926.1462 5668.4614 17438.125 0
-3840.7393 5695.501 17521.307 0
-3753.4956 5721.2476 17600.514 0
-3666.9763 5749.6064 17687.754 0
-3584.9919 5786.9595 17802.666 0
-3498.511 5819.105 17901.557 0
-3432.1116 5887.7173 18112.631 0
-3132.9812 5548.5986 17069.387 0
-3139.8743 5746.8975 17679.422 0
-3209.8127 6078.3145 18698.973 0
-3095.6638 6072.4019 18680.783 0
-2967.6172 6037.7729 18574.254 0
-2871.0437 6066.9766 18664.094 0
-2787.4333 6127.021 18848.811 0
-2707.1023 6199.6035 19072.1 0
-2643.5674 6318.6768 19438.41 0
-2461.2102 6151.645 18924.562 0
-2424.5366 6350.1797 19535.322 0
-2173.8027 5979.834 18396.014 197379
-2193.4575 6353.4556 19545.402 0
0 0 0 0
0 0 0 0
0 0 0 0
0 0 0 0
0 0 0 0
0 0 0 0
0 0 0 0
0 0 0 0
0 0 0 0
0 0 0 0
0 0 0 0
0 0 0 0
0 0 0 0
0 0 0 0
0 0 0 0
0 0 0 0
0 0 0 0
0 0 0 0
13.714158 6369.936 19596.1 790545
124.678 6100.6885 18767.803 2
233.43411 6028.6997 18546.342 131586
344.96722 6051.6074 18616.812 197124
470.20935 6245.4756 19213.219 2
590.59399 6311.6694 19416.854 2
692.81592 6193.8467 19054.391 2
799.92889 6146.7144 18909.395 2
931.45215 6275.6582 19306.068 197379
0 0 0 0
1177.9083 6367.3975 19588.291 0
1250.212 6150.3687 18920.637 0
1363.7548 6155.2925 18935.783 0
1469.262 6125.9619 18845.553 0
1582.3446 6130.1343 18858.389 0
1750.3619 6332.499 19480.93 0
1806.7024 6130.793 18860.414 0
1911.0098 6105.9136 18783.877 0
2023.2214 6107.6426 18789.195 0
2149.3181 6148.9131 18916.158 65536
2274.9753 6184.8862 19026.824 0
2353.9041 6096.4297 18754.701 0
2463.0002 6090.5703 18736.676 1250322
2506.8926 5930.9541 18245.643 256
2698.9436 6120.564 18828.947 658443
2882.8652 6277.374 19311.35 5922140
2851.593 5971.5381 18370.492 256
3004.9797 6060.6938 18644.766 592393
3157.5605 6141.9399 18894.707 197636
3174.1733 5962.21 18341.797 0
3282.4038 5960.792 18337.434 0
3407.2961 5988.75 18423.441 0
3553.4907 6051.2417 18615.688 0
3638.1777 6008.3818 18483.836 0
3757.8723 6024.1543 18532.357 0
3922.5737 6109.1235 18793.752 256
4097.3857 6204.6978 19087.771 256
4178.1069 6156.4785 18939.432 256
4348.3696 6239.2676 19194.121 789774
4467.4771 6246.3008 19215.758 258
4711.6826 6423.5322 19760.98 264457
4774.8828 6351.3765 19539.004 8823712
0 0 0 0
0 0 0 0
0 0 0 0
0 0 0 0
0 0 0 0
0 0 0 0
0 0 0 0
0 0 0 0
0 0 0 0
0 0 0 0
6090.5781 6391.5659 19662.643 2042156
5959.3716 6136.1396 18876.863 856852
6219.2261 6285.373 19335.957 66052
6030.1899 5983.7568 18408.082 3
6000.0283 5847.7329 17989.625 2
6201.0464 5937.8384 18266.82 2
6327.5786 5954.7451 18318.832 257
6488.311 6002.7217 18466.424 256
6605.9795 6009.9238 18488.58 256
6739.1299 6030.7446 18552.631 256
6891.2036 6067.5562 18665.877 0
7030.0771 6091.7642 18740.348 0
7153.0347 6101.6396 18770.729 0
7219.1055 6063.4312 18653.188 0
7390.8184 6113.7676 18808.039 0
7548.8784 6151.4785 18924.051 0
7645.5806 6138.8164 18885.098 0
7630.9189 6038.3979 18576.176 0
7715.9209 6018.583 18515.219 0
7804.9038 6002.3872 18465.395 0
7871.4951 5969.6597 18364.713 0
7949.6538 5946.4785 18293.4 0
8034.4492 5928.8213 18239.08 0
8164.8579 5944.8447 18288.375 0
8246.9648 5925.7407 18229.604 256
8311.3916 5894.5938 18133.785 256
8364.2314 5856.1313 18015.461 2
8025.1406 5547.7021 17066.629 1
8465.9551 5779.3862 17779.367 260
8426.0684 5681.2456 17477.453 132872
8431.3252 5615.563 17275.391 1977131
8854.1621 5826.2368 17923.496 4741980
9035.6191 5874.9575 18073.377 6453369
9247.9258 5942.356 18280.719 2569011
0 0 0 0
10020.059 6290.6865 19352.303 8033942
9400.8096 5834.9395 17950.268 7902359
8045.7075 4937.811 15190.395 6124664
7626.2378 4628.438 14238.658 9345692
7726.2192 4637.6558 14267.015 517
7656.9873 4546.2056 13985.683 66054
7722.7417 4536.0049 13954.301 4
7891.291 4585.7563 14107.354 4
8026.9556 4615.5532 14199.019 3
8150.3706 4637.7593 14267.333 3
8246.6328 4644.2173 14287.2 1
8126.8125 4530.0928 13936.114 2
8263.7129 4559.9312 14027.906 2
8343.6104 4558.0322 14022.065 2
8422.4736 4555.6123 14014.62 2
8480.5186 4542.0894 13973.019 2
8602.0801 4562.5176 14035.863 1
8686.3779 4562.978 14037.28 256
8754.5273 4555.0288 14012.826 256
8837.6875 4554.9653 14012.631 256
8907.04 4547.8525 13990.75 256
8979.4023 4542.395 13973.96 256
9037.2383 4529.7559 13935.078 256
9124.6387 4532.0303 13942.074 256
9539.5938 4695.4897 14444.932 256
9316.7881 4544.9209 13981.729 256
9214.041 4455.063 13705.297 256
9295.9609 4455.2856 13705.981 256
9319.7578 4427.8896 13621.702 256
9404.5596 4429.7002 13627.271 0
9412.1387 4395.4165 13521.805 256
9414.0469 4359.0879 13410.045 256
9436.9092 4332.9907 13329.761 256
9450.8223 4303.2529 13238.276 256
9548.124 4311.6621 13264.146 256
9635.5664 4315.5176 13276.008 256
9621.2842 4274.1211 13148.658 256
9675.0039 4263.3569 13115.544 256
9703.2725 4241.6392 13048.732 256
9741.7686 4224.7021 12996.627 256
9808.9922 4220.3906 12983.364 258
9883.667 4219.3281 12980.096 260
10019.323 4244.1128 13056.342 197895
11517.313 4841.1562 14893.052 1844262
11797.108 4920.9453 15138.511 5857892
11816.229 4891.6147 15048.278 1801
0 0 0 0
0 0 0 0
0 0 0 0
0 0 0 0
0 0 0 0
0 0 0 0
0 0 0 0
0 0 0 0
0 0 0 0
0 0 0 0
0 0 0 0
0 0 0 0
0 0 0 0
0 0 0 0
0 0 0 0
0 0 0 0
0 0 0 0
16853.799 6140.4507 18890.125 131844
14759.602 5341.874 16433.43 921361
13100.119 4710.0962 14489.866 1
13180.214 4707.9453 14483.249 0
13098.12 4648.2637 14299.648 724752
13545.364 4775.9927 14692.587 66052
0 0 0 0
17486.285 6087.0488 18725.842 1844005
18736.916 6481.1484 19938.229 1186333
0 0 0 0
0 0 0 0
0 0 0 0
18411.141 6211.3301 19108.174 2304814
18166.568 6091.2456 18738.754 1646374
0 0 0 0
0 0 0 0
0 0 0 0
-9596.5381 3495.9148 10561.524 0
-9538.9092 3497.8 10567.22 0
-9479.3955 3499.0151 10570.891 0
-9422.4189 3501.1887 10577.458 0
-9369.9453 3505.0757 10589.201 0
-9312.8711 3507.2834 10595.87 0
-9254.3486 3508.9717 10600.971 0
-9195.8037 3510.6743 10606.115 0
-9136.457 3512.0925 10610.399 0
-9081.1973 3515.1123 10619.521 0
-9023.2617 3517.1316 10625.622 0
-8964.6973 3518.9319 10631.062 65536
-8911.0322 3522.6951 10642.431 65536
-8857.1318 3526.4182 10653.679 65536
-8799.8975 3528.8582 10661.05 65536
-8740.1553 3530.3201 10665.467 65536
-8679.6436 3531.4902 10669.002 65536
-8624.3662 3534.8237 10679.072 0
-8559.7178 3534.3367 10677.602 0
-8496.8447 3534.5811 10678.34 0
-8431.4248 3533.7617 10675.864 0
-8367.2344 3533.4497 10674.921 0
-8316.6934 3538.9402 10691.509 0
-8255.4043 3539.9067 10694.429 0
-8191.5806 3539.7935 10694.086 0
-8127.2061 3539.438 10693.013 0
-8061.9478 3538.6892 10690.75 0
-7997.1904 3538.1497 10689.121 65536
-7934.6797 3538.604 10690.493 65536
-7874.4067 3540.0718 10694.927 65536
-7816.5801 3542.6719 10702.782 65536
-7770.896 3550.8633 10727.529 65536
-7735.4307 3563.8977 10766.908 65536
-7695.6992 3575.1687 10800.958 65536
-7652.4443 3584.9778 10830.593 65536
-7603.9531 3592.48 10853.258 65536
-7557.2217 3600.9482 10878.842 65536
-7508.8809 3608.7898 10902.531 0
-7458.7153 3615.8835 10923.962 0
-7417.146 3627.3047 10958.468 0
-7361.5771 3632.0222 10972.72 0
-7308.0425 3637.8364 10990.284 0
-7251.0093 3641.9983 11002.857 0
-7196.8936 3647.7146 11020.127 0
-7143.458 3653.8833 11038.765 0
-7092.769 3661.5852 11062.032 0
-7045.0552 3670.981 11090.417 0
-6990.7412 3677.0825 11108.851 65536
-6934.4224 3682.2354 11124.419 65536
-6886.5649 3692.0249 11153.993 65536
-6839.4399 3702.4009 11185.34 65536
-6782.2939 3707.5017 11200.751 65536
-6847.7881 3780.4097 11421.014 65536
-6245.585 3482.4758 10520.924 0
-7008.812 3947.5659 11926.01 0
-6654.5488 3786.3257 11438.886 256
-6601.292 3794.7922 11464.465 256
-6595.3394 3830.9126 11573.588 256
-6554.3818 3847.2468 11622.936 0
-6513.4565 3863.9487 11673.394 0
-6463.7568 3875.7485 11709.042 0
-6437.2725 3901.8772 11787.979 0
-6395.3906 3919.1448 11840.146 0
-6350.9995 3935.2422 11888.778 0
-6347.604 3977.3889 12016.108 0
-6313.9585 4001.325 12088.422 65536
-6287.709 4030.5532 12176.724 65536
-6269.5498 4065.7085 12282.931 65536
-6255.1431 4104.1543 12399.08 65536
-6310.4541 4189.8057 12657.841 65536
-6297.3979 4231.5835 12784.057 65536
-6282.8159 4273.3442 12910.221 65536
-6273.0967 4319.4858 13049.618 65536
-6269.0884 4370.7646 13204.537 65536
-6296.6465 4445.6299 13430.713 0
-6251.4946 4470.4238 13505.618 0
-6220.0059 4505.7593 13612.371 0
-6195.3716 4547.0576 13737.138 0
-6157.0874 4579.3066 13834.564 0
-6074.3877 4578.9478 13833.48 0
-6054.9419 4626.915 13978.395 0
-6000.6382 4649.2095 14045.748 0
-5952.2578 4676.7866 14129.062 0
-5910.3291 4710.2949 14230.293 0
-5861.6304 4739.3018 14317.928 0
-5812.5547 4768.8555 14407.211 0
-5774.1348 4808.1646 14525.969 0
-5732.9238 4846.3086 14641.205 0
-5698.6406 4891.5747 14777.959 0
-5644.8599 4921.2598 14867.641 0
-5596.3569 4956.563 14974.296 0
-5536.4795 4982.7705 15053.472 0
-5753.5332 5263.168 15900.582 0
-6071.1792 5646.4858 17058.625 0
-5879.1597 5560.7603 16799.639 0
-5527.9214 5318.8745 16068.877 0
-5291.4961 5180.8979 15652.035 0
-5351.084 5332.9951 16111.536 0
-5156.7441 5232.9546 15809.304 0
-5085.2534 5256.1797 15879.468 0
-5025.313 5292.4463 15989.035 0
-4947.9819 5311.4443 16046.43 0
-4910.5532 5374.8633 16238.024 0
-4853.6558 5419.0889 16371.634 0
-4756.54 5419.3013 16372.276 0
-4752.9365 5528.2896 16701.541 0
-4613.2339 5480.25 16556.408 0
-4528.8013 5497.2041 16607.629 0
-4437.3169 5506.1641 16634.697 0
-4372.3066 5549.1318 16764.508 0
-4326.6294 5619.2124 16976.229 0
-4233.7822 5629.915 17008.562 0
-4150.8169 5654.6025 17083.146 0
-4072.5356 5687.0698 17181.232 0
-3997.5625 5725.9453 17298.68 0
-3922.9412 5767.3906 17423.891 0
-3838.7998 5796.707 17512.459 0
-3763.1689 5840.8677 17645.873 0
-3668.9653 5857.9067 17697.35 0
-3603.0872 5922.5103 17892.523 0
-3544.3933 6003.2124 18136.332 0
-3467.8838 6057.855 18301.414 0
-3356.8884 6053.8447 18289.299 0
-3260.7422 6077.2412 18359.982 0
-3152.0188 6078.0054 18362.291 0
-3059.3489 6110.8906 18461.641 0
-3003.4062 6222.312 18798.256 0
-3041.7048 6545.1318 19773.527 0
-2849.854 6378.7603 19270.902 0
-2641.5776 6160.1523 18610.465 0
-2418.7009 5886.9014 17784.945 256
-2124.4055 5406.9058 16334.828 3750971
-2131.8354 5685.645 17176.928 329221
-2151.6362 6027.0762 18208.428 592650
-2154.9673 6356.0938 19202.424 256
-2090.2495 6509.9751 19667.316 394758
-1924.4902 6348.7568 19180.26 65793
-1811.7476 6353.1484 19193.525 0
0 0 0 0
0 0 0 0
0 0 0 0
0 0 0 0
0 0 0 0
0 0 0 0
0 0 0 0
0 0 0 0
0 0 0 0
0 0 0 0
0 0 0 0
0 0 0 0
0 0 0 0
0 0 0 0
0 0 0 0
13.177362 6232.5132 18829.074 1
123.9121 6174.0698 18652.512 0
237.06517 6234.418 18834.83 2
350.9946 6269.9219 18942.092 1
455.87253 6165.7588 18627.402 1
564.94214 6147.9175 18573.502 0
678.23822 6174.3853 18653.463 0
799.02069 6251.9927 18887.924 256
934.61365 6412.0903 19371.596 131843
1051.9467 6425.5342 19412.211 256
1140.999 6280.6489 18974.498 0
1250.9218 6266.376 18931.377 0
1374.8678 6318.9102 19090.088 131585
1504.3721 6387.0327 19295.895 0
1577.2225 6222.0103 18797.344 256
1701.7819 6269.3135 18940.252 986894
1789.9956 6185.1582 18686.01 0
1898.7452 6177.6499 18663.326 0
2008.4788 6173.9941 18652.283 0
2124.9373 6190.3125 18701.582 0
2231.5056 6177.6289 18663.264 0
2341.802 6175.9785 18658.277 0
2463.6479 6203.5596 18741.604 1776668
2389.5273 5756.6484 17391.438 0
2695.8723 6225.3789 18807.521 0
2807.3828 6224.7822 18805.719 0
2853.4607 6084.7031 18382.525 0
3030.8418 6224.6206 18805.23 262916
3137.3242 6214.1553 18773.613 257
3200.2761 6121.1484 18492.629 256
3270.7051 6048.144 18272.076 0
3474.5793 6218.667 18787.244 2237473
3585.7964 6217.9009 18784.93 256
3732.7969 6277.3564 18964.551 1447703
3877.1169 6328.9521 19120.426 256
3931.936 6235.6685 18838.607 256
4056.6653 6255.3525 18898.074 256
4187.1323 6282.5845 18980.346 256
4353.7134 6361.1533 19217.709 2
4587.4751 6531.3525 19731.9 259
4702.3301 6527.9956 19721.758 259
0 0 0 0
0 0 0 0
0 0 0 0
0 0 0 0
0 0 0 0
0 0 0 0
0 0 0 0
0 0 0 0
0 0 0 0
0 0 0 0
0 0 0 0
0 0 0 0
5983.7168 6273.8574 18953.979 259
6112.209 6290.1606 19003.234 4
6016.8052 6079.6387 18367.225 3
5993.3955 5948.0688 17969.738 2
6135.752 5982.7383 18074.479 256
6303.9702 6040.9971 18250.484 256
6472.5718 6097.647 18421.629 256
6597.0229 6111.5107 18463.514 256
6734.2466 6136.5596 18539.188 256
6881.3735 6169.6807 18639.252 0
7023.3994 6197.2515 18722.545 0
7153.3921 6213.5107 18771.666 0
7217.7139 6173.1035 18649.592 0
7398.731 6232.2158 18828.176 0
7582.665 6291.9858 19008.748 0
7707.1631 6301.4077 19037.211 0
7773.9521 6264.0547 18924.365 0
7738.3428 6146.4351 18569.023 0
7802.3862 6110.1616 18459.438 0
7854.9922 6066.0625 18326.209 0
7915.3027 6029.0376 18214.354 0
8008.9702 6018.0767 18181.24 0
8176.4438 6062.1289 18314.326 0
8313.6016 6082.8418 18376.902 256
8298.1572 5992.8115 18104.91 256
8337.6367 5944.2422 17958.178 256
8304.7705 5845.9751 17661.303 2
8429.6631 5859.8267 17703.148 2
8352.7471 5734.7798 17325.369 258
8441.3604 5725.042 17295.951 197638
8585.3193 5752.6235 17379.277 66307
8466.4453 5605.5308 16934.895 2436657
9401.5742 6151.5386 18584.441 4283997
9815.5059 6347.8008 19177.371 6455168
9488.5312 6065.9053 18325.734 6915207
9282.0732 5866.5786 17723.547 7506576
8023.3179 5014.1011 15148.124 4082768
7784.6699 4810.9756 14534.46 593939
7482.418 4573.4326 13816.818 1778985
7568.5386 4575.8521 13824.129 5397342
7721.3203 4618.0898 13951.732 2
7756.0308 4589.563 13865.549 1975078
7986.9346 4676.5093 14128.225 2
8218.3066 4761.9194 14386.257 259
8281.2002 4748.9541 14347.087 2
8336.0107 4731.6646 14294.854 2
8444.7979 4745.0532 14335.303 2
8612.3555 4790.8677 14473.712 2
8687.7402 4785.0083 14456.012 2
8584.5566 4681.8765 14144.438 2
8564.1123 4625.4312 13973.912 256
8657.165 4630.7808 13990.072 256
8734.6553 4627.7832 13981.018 256
8809.5049 4623.4556 13967.944 256
8873.1514 4613.3857 13937.521 256
8945.0498 4607.7515 13920.5 256
9023.7246 4605.6797 13914.24 256
9100.5801 4602.7251 13905.313 0
9168.4023 4595.2964 13882.871 0
9226.4609 4583.1499 13846.176 0
9261.9121 4560.0874 13776.501 256
9462.4902 4618.0171 13951.513 256
9468.5146 4580.8159 13839.124 263429
9466.3945 4540.3491 13716.87 790029
9469.1338 4502.8848 13603.686 256
9411.3809 4437.5322 13406.248 256
9388.2061 4389.4429 13260.967 256
9413.0098 4364.4004 13185.311 256
9523.7871 4379.3047 13230.338 263685
9648.4971 4400.3188 13293.824 256
9627.0332 4354.8691 13156.515 256
9704.9785 4354.7573 13156.178 256
9695.7207 4315.8311 13038.578 256
9816.3291 4334.8711 13096.1 257
9937.7988 4353.9888 13153.855 2
9974.7236 4336.0557 13099.678 258
10855.577 4682.4185 14146.077 724496
11855.749 5074.5288 15330.683 329480
12112.945 5145.0732 15543.805 258
12862.338 5422.0312 16380.524 4
14417.215 6031.8237 18222.771 4
14999.984 6228.8496 18818.006 4
0 0 0 0
0 0 0 0
0 0 0 0
0 0 0 0
0 0 0 0
0 0 0 0
0 0 0 0
0 0 0 0
0 0 0 0
0 0 0 0
0 0 0 0
0 0 0 0
0 0 0 0
0 0 0 0
0 0 0 0
0 0 0 0
0 0 0 0
13639.171 4993.5728 15086.106 1
14118.442 5135.2847 15514.232 197637
13904.123 5024.5156 15179.588 1
13715.896 4924.5435 14877.561 988437
14432.669 5148.7007 15554.764 1909284
17079.664 6054.2085 18290.396 1580320
16908.609 5955.6689 17992.699 461583
17751.189 6213.1538 18770.588 1251612
17269.994 6006.978 18147.709 132616
16042.039 5545.229 16752.717 461328
16718.547 5743.4292 17351.5 263431
17560.289 5995.6143 18113.379 592652
0 0 0 0
0 0 0 0
0 0 0 0
-9638.2979 3574.1711 10607.483 0
-9580.7256 3576.2139 10613.545 0
-9523.209 3578.3037 10619.748 0
-9468.2188 3581.3779 10628.871 0
-9409.2773 3582.9885 10633.651 0
-9350.4873 3584.6794 10638.669 0
-9293.9141 3587.248 10646.293 0
-9237.5371 3589.929 10654.249 0
-9180.2207 3592.2788 10661.223 0
-9126.4795 3596.0698 10672.475 0
-9070.3447 3598.9646 10681.065 0
-9014.1055 3601.8586 10689.654 65536
-8961.4541 3606.2375 10702.649 65536
-8906.6133 3609.7913 10713.196 65536
-8850.0469 3612.6917 10721.805 65536
-8790.7344 3614.5054 10727.188 65536
-8732.2529 3616.6895 10733.67 65536
-8670.4023 3617.5005 10736.076 0
-8611.4482 3619.5408 10742.132 0
-8550.585 3620.803 10745.878 0
-8490.3604 3622.3569 10750.489 0
-8431.2939 3624.4319 10756.647 0
-8372.6592 3626.7261 10763.456 0
-8317.2422 3630.46 10774.537 0
-8257.3555 3632.2849 10779.954 0
-8195.9404 3633.4617 10783.446 0
-8134.3262 3634.5679 10786.729 0
-8072.1401 3635.4341 10789.3 65536
-8013.1914 3637.7839 10796.273 65536
-7954.4888 3640.2839 10803.693 65536
-7898.1431 3643.9124 10814.462 65536
-7845.084 3649.1287 10829.943 65536
-7792.8721 3654.8291 10846.861 65536
-7752.4805 3666.2144 10880.65 65536
-7711.1973 3677.3662 10913.747 65536
-7665.2715 3686.4744 10940.778 65536
-7615.4761 3693.8613 10962.701 65536
-7568.0317 3702.5259 10988.416 0
-7514.3359 3708.2563 11005.423 0
-7466.917 3717.2124 11032.003 0
-7415.293 3724.2151 11052.785 0
-7357.0547 3727.991 11063.992 0
-7299.2559 3732.0603 11076.068 0
-7242.6709 3736.8293 11090.223 0
-7188.7676 3743.083 11108.782 0
-7144.0098 3754.2581 11141.947 0
-7098.3315 3765.1541 11174.285 0
-7043.7231 3771.4746 11193.044 65536
-7001.6147 3784.6724 11232.212 65536
-6962.1812 3799.5842 11276.467 65536
-6924.0156 3815.4841 11323.655 65536
-6890.2837 3834.1641 11379.094 65536
-6844.249 3846.2996 11415.11 0
-6863.4897 3895.7292 11561.808 0
-6817.168 3908.5686 11599.913 0
-6797.4814 3937.0974 11684.582 0
-6782.5171 3968.9788 11779.199 0
-6749.2827 3990.7217 11843.729 0
-6713.2676 4011.2622 11904.688 0
-6688.832 4039.2327 11987.7 0
-6639.9771 4052.9006 12028.264 0
-6615.792 4082.0872 12114.885 0
-6577.6831 4103.231 12177.635 0
-6541.7334 4126.207 12245.823 0
-6502.1694 4147.3945 12308.704 0
-6488.6455 4185.8623 12422.87 65536
-6464.5703 4218.3315 12519.232 65536
-6436.6943 4249.0474 12610.392 65536
-6409.4585 4280.9146 12704.967 65536
-6387.2236 4316.9209 12811.828 65536
-6358.3003 4349.2222 12907.691 65536
-6348.7856 4395.7505 13045.778 65536
-6344.4194 4447.0371 13197.988 65536
-6324.4814 4488.5566 13321.211 65536
