# .PCD v0.7 - Point Cloud Data file format
VERSION 0.7
FIELDS x y z rgb
SIZE 4 4 4 4
TYPE F F F U
COUNT 1 1 1 1
WIDTH 1610
HEIGHT 1
VIEWPOINT 0 0 0 1 0 0 0
POINTS 1610
DATA ascii
-8484.6318 4003.0178 10743.236 0
-8423.1152 4004.1265 10746.213 0
-8361.9932 4005.4431 10749.745 0
-8300.6494 4006.6714 10753.042 0
-8241.2178 4008.8494 10758.888 0
-8182.4546 4011.3889 10765.703 0
-8124.7539 4014.4939 10774.036 0
-8067.0127 4017.6277 10782.446 0
-8012.5815 4022.4734 10795.451 0
-7967.7148 4032.2378 10821.657 0
-7924.938 4043.2271 10851.15 0
-7889.3545 4058.0969 10891.058 65536
-7841.2334 4066.7107 10914.175 0
-7789.6895 4073.6782 10932.874 0
-7736.0054 4079.634 10948.858 0
-7688.1074 4088.7681 10973.372 0
-7635.8506 4095.7202 10992.03 0
-7582.0649 4101.9653 11008.791 0
-7531.7021 4110.188 11030.858 0
-7476.9805 4116.1543 11046.871 0
-7427.7324 4125.2666 11071.327 0
-7384.6812 4138.0142 11105.538 65536
-7344.7002 4152.728 11145.026 65536
-7304.1211 4167.3682 11184.318 65536
-7257.5098 4178.8037 11215.009 65536
-7225.0942 4198.7007 11268.408 65536
-7182.8721 4213.2188 11307.37 65536
-7145.7959 4231.0571 11355.245 0
-7103.814 4246.3037 11396.164 0
-7084.6382 4275.6069 11474.808 0
-7059.0298 4301.5601 11544.46 0
-7000.0298 4307.4756 11560.336 0
-6968.7056 4330.707 11622.685 0
-6943.5459 4358.2729 11696.665 0
-6907.4639 4379.4717 11753.559 0
-6887.1138 4411.1797 11838.655 0
-6876.436 4449.8013 11942.308 0
-6839.1675 4471.8423 12001.46 0
-6803.0972 4495.1392 12063.984 0
-6771.4736 4521.9023 12135.811 0
-6744.4893 4552.3726 12217.587 0
-6705.0225 4574.9888 12278.284 0
-6684.0981 4610.895 12374.647 0
-6664.3345 4648.4087 12475.326 0
-6638.8345 4682.7207 12567.413 0
-6623.1128 4724.7891 12680.315 65536
-6603.3696 4764.9243 12788.029 65536
-6580.4375 4803.6655 12892.003 65536
-6573.2925 4854.9805 13029.722 65536
-6545.8018 4892.313 13129.913 65536
-6529.6987 4939.1602 13255.641 65536
-6515.0435 4988.2593 13387.412 65536
-6467.3613 5012.9727 13453.738 65536
-6423.417 5041.2393 13529.599 65536
-6388.4062 5077.3218 13626.437 0
-6409.8477 5159.7739 13847.721 0
-6318.2861 5152.2227 13827.455 0
-6267.2622 5177.9653 13896.543 0
-6242.4868 5226.3701 14026.451 0
-6196.7856 5258.3296 14112.223 0
-6155.9229 5295.3276 14211.518 0
-6093.3916 5314.457 14262.856 0
-6044.9443 5346.5825 14349.075 0
-5999.7451 5382.5415 14445.58 0
-5944.4639 5410.3682 14520.262 0
-5911.2441 5459.3901 14651.826 0
-5852.686 5486.1265 14723.58 0
-5789.8335 5509.5879 14786.546 0
-5740.4038 5546.7422 14886.261 0
-6096.4795 5983.0186 16057.132 256
-5977.9014 5959.9434 15995.203 256
-6016.5938 6095.4536 16358.884 256
-5743.4492 5914.3022 15872.713 0
-5720.2944 5988.8267 16072.72 0
-5526.8804 5884.6025 15793.004 0
-5367.3237 5813.4487 15602.043 0
-5290.5557 5831.0396 15649.253 0
-5217.2861 5853.1846 15708.686 0
-5199.7549 5939.8081 15941.164 0
-5067.6973 5896.3931 15824.647 0
-5008.5635 5937.7881 15935.743 0
-5012.0938 6056.502 16254.345 0
-4987.5078 6145.2383 16492.494 0
-4879.6401 6132.8618 16459.279 0
-4799.5654 6155.625 16520.371 0
-4727.5493 6189.8906 16612.332 0
-4654.8804 6224.7446 16705.873 0
-4569.4023 6243.6152 16756.518 0
-4489.9287 6271.7148 16831.93 0
-4408.4697 6298.2578 16903.166 0
-4326.7793 6325.7002 16976.816 0
-4249.5029 6361.061 17071.717 0
-4166.1938 6388.9004 17146.432 0
-4079.158 6412.2778 17209.172 0
-3997.7881 6445.9927 17299.656 0
-3910.4839 6471.6675 17368.561 0
-3821.2996 6495.5381 17432.625 0
-3735.3362 6526.3672 17515.361 0
-3745.9351 6732.5127 18068.613 0
-3700.3889 6846.9414 18375.715 0
-3531.8818 6733.8916 18072.312 0
-3480.844 6844.7417 18369.811 0
-3360.9976 6823.084 18311.688 0
-3409.9956 7154.2153 19200.371 0
0 0 0 0
0 0 0 0
-3097.1726 7223.0605 19385.139 0
-2967.1436 7187.1709 19288.818 0
-2855.3125 7194.2495 19307.814 0
-2702.4888 7094.3091 19039.598 256
-2313.5491 6338.7183 17011.754 657929
-2473.1282 7085.5918 19016.201 0
-2388.907 7172.0518 19248.242 256
-2248.2239 7089.1719 19025.809 1711129
-2230.0857 7404.3901 19871.787 256
0 0 0 0
0 0 0 0
0 0 0 0
0 0 0 0
0 0 0 0
0 0 0 0
0 0 0 0
0 0 0 0
0 0 0 0
0 0 0 0
0 0 0 0
0 0 0 0
0 0 0 0
0 0 0 0
0 0 0 0
-316.43369 6882.9214 18472.277 1
-223.20293 7434.3755 19952.262 258
-100.96841 7174.9077 19255.906 4476237
13.335821 7100.2334 19055.496 790543
125.79608 7055.748 18936.107 855824
241.98703 7163.7163 19225.871 1
341.45377 6866.1265 18427.203 256
452.40082 6887.8652 18485.545 0
562.09552 6885.7671 18479.914 256
698.17236 7154.7129 19201.707 1053458
819.47223 7217.9321 19371.375 66306
904.28125 6983.7578 18742.9 256
1012.9689 6965.1387 18692.932 0
1125.5864 6974.5508 18718.191 0
1237.3226 6977.3003 18725.57 0
1362.9871 7051.6562 18925.125 0
1463.8502 6996.1426 18776.139 0
1557.3495 6915.793 18560.496 0
1682.682 6978.0859 18727.678 0
1763.0613 6857.793 18404.838 0
1886.6621 6909.853 18544.557 0
1982.2264 6859.1519 18408.484 0
2084.9734 6837.3071 18349.859 65536
2191.7456 6830.1797 18330.73 0
2296.1138 6816.5903 18294.258 0
2450.2344 6945.2534 18639.562 0
2516.1082 6823.4683 18312.717 0
2669.3101 6938.7881 18622.213 0
2755.8015 6878.4189 18460.193 0
2832.2339 6798.5254 18245.777 65536
2975.8479 6879.8423 18464.014 65536
3002.5813 6694.7686 17967.316 0
3149.5947 6781.3823 18199.77 65793
3264.9832 6796.4146 18240.111 256
3447.6411 6946.0078 18641.588 263686
3585.1453 6998.147 18781.518 7766393
3721.8074 7045.5425 18908.719 512
3812.6089 7005.8896 18802.297 256
3921.4246 7000.6543 18788.246 256
4051.5125 7032.6323 18874.068 256
4187.0493 7072.0918 18979.969 257
4382.3198 7207.7256 19343.98 771
4587.5962 7352.4609 19732.42 516
0 0 0 0
0 0 0 0
0 0 0 0
0 0 0 0
0 0 0 0
0 0 0 0
0 0 0 0
0 0 0 0
5165.2148 6729.8359 18061.43 516
5273.3633 6730.8618 18064.182 5266526
0 0 0 0
0 0 0 0
5565.9019 6695.3193 17968.793 460552
5972.5859 7049.27 18918.721 513
5954.0791 6897.5728 18511.598 2
5942.2539 6758.98 18139.645 2
5967.0293 6666.2153 17890.686 256
6117.417 6714.5732 18020.467 256
6334.3789 6833.083 18338.521 256
6495.082 6887.9209 18485.695 256
6575.6743 6857.3926 18403.764 256
6730.6025 6904.1147 18529.156 256
6864.2476 6927.8525 18592.863 0
7019.5059 6972.3057 18712.166 0
7085.5332 6928.125 18593.594 0
7238.5942 6969.0933 18703.545 0
7417.4536 7033.2847 18875.82 0
7570.231 7071.2007 18977.578 0
7634.9556 7026.9624 18858.852 0
7682.1084 6968.0659 18700.787 0
7700.3774 6885.0239 18477.92 0
7715.6992 6801.7197 18254.35 0
7776.5503 6760.3047 18143.199 256
7873.1235 6750.6509 18117.293 256
7957.4946 6730.9375 18064.385 256
8146.498 6799.0752 18247.252 256
8154.4624 6716.311 18025.131 256
8158.9883 6632.8994 17801.271 256
8173.4854 6559.625 17604.619 256
8313.1768 6587.4072 17679.182 256
8375.335 6553.8252 17589.055 2
8657.4551 6691.0732 17957.398 3
8225.1924 6279.5776 16853.033 3
8330.8311 6283.7075 16864.117 1383712
9470.4883 7058.3979 18943.219 4545892
9477.8447 6980.8911 18735.207 5467503
9191.6826 6691.5044 17958.555 7506060
8554.8271 6156.3887 16522.42 7505291
8063.4697 5736.936 15396.699 3359305
7885.145 5547.1118 14887.252 857626
7423.5444 5164.4297 13860.217 461840
7484.7861 5149.8887 13821.191 4475982
7501.8271 5105.5811 13702.279 66052
7856.4351 5289.498 14195.872 3553595
7753.9688 5165.0425 13861.861 0
7959.3862 5246.1343 14079.494 1
8112.8149 5291.6294 14201.592 3
8142.6851 5256.4248 14107.11 3
8287.9971 5295.7007 14212.52 2
8412.9033 5321.2778 14281.162 2
8476.1709 5307.7446 14244.843 2
8363.6826 5185.5112 13916.794 2
8434.9844 5178.5063 13897.994 2
8506.2217 5171.5972 13879.452 256
8586.3467 5170.1729 13875.63 256
8654.7832 5161.8042 13853.17 256
8720.6455 5152.0732 13827.054 256
8788.8418 5143.8896 13805.091 256
8869.2207 5142.9214 13802.493 256
8942.1992 5137.7192 13788.531 0
9013.0225 5131.3843 13771.529 0
9068.418 5116.459 13731.474 0
9099.1299 5087.9976 13655.089 256
9263.3936 5134.0586 13778.706 256
9222.4443 5066.5728 13597.589 263172
8989.0615 4895.4595 13138.358 987409
9130.9297 4929.8965 13230.779 256
9323.3604 4990.8115 13394.263 256
9275.0352 4922.9092 13212.027 256
9281.373 4884.9175 13110.064 256
9327.3506 4868.2461 13065.323 0
9489.1221 4911.7886 13182.182 0
9508.4209 4881.4746 13100.825 1
9537.3857 4856.5752 13034.001 256
9618.7588 4858.5483 13039.297 256
9612.1289 4816.3945 12926.165 2
9780.4922 4861.8989 13048.288 258
9885.4531 4875.418 13084.57 258
9973.0713 4880.2388 13097.509 263944
11381.188 5526.1553 14831.009 198151
11557.025 5568.4072 14944.404 1
11497.056 5497.2637 14753.471 1
13087.572 6210.3975 16667.367 3
13799.848 6499.1982 17442.447 259
15314.123 7158.5864 19212.104 66053
0 0 0 0
0 0 0 0
0 0 0 0
0 0 0 0
0 0 0 0
0 0 0 0
0 0 0 0
0 0 0 0
0 0 0 0
0 0 0 0
0 0 0 0
0 0 0 0
0 0 0 0
0 0 0 0
0 0 0 0
15300.279 6389.8218 17148.904 197381
0 0 0 0
0 0 0 0
12168.735 4982.4316 13371.772 131843
12412.111 5049.105 13550.71 197894
15109.674 6106.8184 16389.385 2172199
0 0 0 0
18134.006 7235.856 19419.479 1185562
18498.934 7334.7876 19684.988 1251355
18080.934 7123.9961 19119.27 1251097
18009.273 7051.4458 18924.561 264202
17985.922 6998.5938 18782.717 329480
0 0 0 0
18898.041 7263.3506 19493.268 791832
0 0 0 0
0 0 0 0
-9731.6055 4028.0051 10640.573 0
-9673.6953 4030.2256 10646.439 0
-9610.5986 4030.3008 10646.638 0
-9549.2275 4031.1057 10648.764 0
-9489.6426 4032.6799 10652.922 0
-9435.7998 4036.7314 10663.625 0
-9383.0557 4041.3115 10675.724 0
-9325.998 4044.0833 10683.046 0
-9270.6836 4047.6538 10692.479 0
-9211.6885 4049.6555 10697.767 0
-9151.8906 4051.3306 10702.19 0
-9093.7607 4053.772 10708.641 0
-9035.3984 4056.1431 10714.904 0
-8976.75 4058.4194 10720.917 0
-8921.0703 4062.0793 10730.586 0
-8865.2217 4065.7148 10740.189 0
-8810.0703 4069.7251 10750.783 0
-8752.4814 4072.6592 10758.534 0
-8696.5635 4076.4211 10768.471 0
-8638.0439 4079.009 10775.308 0
-8577.0234 4080.4458 10779.104 0
-8514.8457 4081.3506 10781.493 0
-8454.6797 4083.2395 10786.483 0
-8393.1475 4084.4932 10789.795 0
-8332.7158 4086.3052 10794.582 0
-8272.1963 4088.1028 10799.33 0
-8212.8301 4090.502 10805.668 0
-8157.2778 4094.8542 10817.165 0
-8101.6377 4099.231 10828.727 0
-8046.9712 4104.1743 10841.785 0
-7999.4297 4112.8604 10864.731 0
-7956.2065 4123.9268 10893.965 0
-7919.3193 4138.4854 10932.424 65536
-7872.7388 4148.1782 10958.027 0
-7822.7852 4156.2393 10979.323 0
-7767.7188 4161.6978 10993.742 0
-7716.1851 4169.1577 11013.448 0
-7665.9824 4177.4697 11035.406 0
-7614.6909 4185.3271 11056.163 0
-7562.9688 4193.0825 11076.65 0
-7520.7437 4206.2856 11111.528 0
-7473.9087 4217.1221 11140.154 0
-7428.98 4229.2368 11172.157 65536
-7383.6299 4241.3286 11204.1 65536
-7348.6616 4259.6582 11252.52 65536
-7304.5454 4272.9736 11287.693 65536
-7273.7783 4294.416 11344.338 65536
-7232.481 4309.9854 11385.466 0
-7195.3691 4328.3662 11434.021 0
-7158.1797 4347.0503 11483.378 0
-7125.7461 4369.0103 11541.389 0
-7093.3242 4391.4043 11600.546 0
-7031.5015 4395.8574 11612.311 0
-6997.6362 4418.0503 11670.936 0
-6966.6997 4442.5552 11735.669 0
-6916.7705 4455.3218 11769.394 0
-6888.9365 4482.7266 11841.788 0
-6877.8252 4521.6919 11944.721 0
-6852.772 4552.208 12025.333 0
-6812.8223 4573.3677 12081.229 0
-6789.8569 4606.5015 12168.757 0
-6763.7822 4638.2158 12252.535 0
-6737.5176 4670.4893 12337.79 0
-6706.1108 4699.8687 12415.4 0
-6683.5239 4736.1523 12511.249 0
-6662.5366 4774.3979 12612.281 0
-6633.8516 4807.9355 12700.876 65536
-6605.1265 4842.2163 12791.433 65536
-6581.6143 4881.1602 12894.309 65536
-6567.8242 4928.3174 13018.882 65536
-6523.0967 4953.1084 13084.37 65536
-6474.3491 4975.4077 13143.277 65536
-6429.7559 5001.4824 13212.158 65536
-6374.3564 5019.6934 13260.265 65536
-6315.7363 5035.7915 13302.791 65536
-6271.5132 5063.9233 13377.105 0
-6280.0859 5135.9546 13567.386 0
-6199.4419 5135.9473 13567.367 0
-6164.6489 5174.4263 13669.015 0
-6135.2764 5218.5435 13785.557 0
-6146.0669 5298.479 13996.719 0
-6074.0122 5308.208 14022.42 0
-5997.8516 5314.5698 14039.225 0
-5928.3599 5327.103 14072.334 0
-5875.1021 5354.792 14145.478 0
-5846.6255 5406.1987 14281.276 0
-5810.437 5451.8843 14401.962 0
-5752.6753 5478.3911 14471.983 0
-5719.2305 5529.2119 14606.233 0
-5669.7144 5565.8228 14702.946 0
-6422.502 6403.5098 16915.822 0
-6862.1289 6950.6416 18361.15 0
-7035.7422 7241.6558 19129.908 0
-5466.2158 5718.6055 15106.545 0
-5491.9717 5841.498 15431.185 0
-5444.8149 5889.6948 15558.503 0
-5317.0864 5850.896 15456.011 0
-5184.0322 5804.7695 15334.16 0
-5110.8999 5825.29 15388.368 0
-5065.8237 5879.1187 15530.564 0
-4982.459 5889.6851 15558.478 0
-4927.3281 5934.6572 15677.277 0
-4831.4419 5931.3291 15668.486 0
-4967.4062 6218.0962 16426.023 0
-4862.9497 6209.374 16402.982 0
-4782.7461 6231.896 16462.479 0
-4711.2559 6266.9497 16555.078 0
-4641.3511 6305.6528 16657.318 0
-4560.6147 6331.0063 16724.293 0
-4476.4224 6352.585 16781.297 0
-4393.2598 6376.6421 16844.848 0
-4315.7798 6410.2622 16933.658 0
-4238.8413 6446.311 17028.887 0
-4161.2324 6483.0781 17126.012 0
-4066.7656 6494.7671 17156.891 0
-3982.0408 6523.0151 17231.512 0
-3907.3406 6569.6099 17354.6 0
-3816.2222 6590.3774 17409.461 0
-3730.0786 6621.1343 17490.709 0
-3652.4114 6669.1313 17617.5 0
-3608.2031 6782.8594 17917.93 0
-3649.5894 7069.3027 18674.611 0
-3570.8416 7133.7139 18844.764 0
-3461.906 7140.0361 18861.465 0
-3418.2368 7285.895 19246.773 0
-3356.5117 7402.0366 19553.578 0
0 0 0 0
-3103.5981 7353.498 19425.355 0
-2972.7039 7315.4946 19324.965 0
-2870.5632 7348.041 19410.941 0
-2700.3035 7201.6401 19024.201 0
-2615.4229 7280.0991 19231.463 0
-2493.968 7259.2705 19176.441 0
-2468.5076 7529.2427 19889.611 0
-2353.7852 7540.417 19919.131 0
0 0 0 0
0 0 0 0
0 0 0 0
0 0 0 0
0 0 0 0
0 0 0 0
0 0 0 0
0 0 0 0
0 0 0 0
0 0 0 0
0 0 0 0
0 0 0 0
0 0 0 0
0 0 0 0
0 0 0 0
0 0 0 0
0 0 0 0
0 0 0 0
0 0 0 0
12.995978 7029.6621 18569.896 526344
128.07169 7297.9639 19278.654 0
243.44551 7321.8481 19341.748 0
344.42542 7036.3535 18587.572 0
451.62497 6985.7305 18453.844 0
566.27148 7047.5708 18617.205 0
686.37134 7145.9727 18877.146 256
824.61188 7379.0557 19492.871 328965
929.84534 7295.7339 19272.764 256
1017.0425 7104.6938 18768.104 1447703
1117.244 7033.2822 18579.459 0
1245.6968 7136.5679 18852.303 0
1361.4683 7156.1514 18904.035 0
1482.2026 7196.8462 19011.537 0
1573.7507 7100.0996 18755.967 65536
1670.3115 7037.272 18589.998 0
1761.563 6961.2588 18389.197 0
1899.0601 7066.2017 18666.42 0
1993.7606 7009.1084 18515.6 0
2075.5613 6915.0088 18267.023 65536
2175.7417 6888.457 18196.881 0
2352.4424 7095.2119 18743.055 0
2441.3074 7030.3271 18571.652 0
2481.2861 6836.3657 18059.275 0
2607.0527 6885.0493 18187.879 0
2764.5259 7010.2568 18518.635 0
2861.865 6979.2275 18436.666 0
2903.8826 6820.5508 18017.496 0
3000.4062 6796.6289 17954.303 0
3108.2632 6799.1396 17960.938 0
3288.3406 6954.2173 18370.598 256
3342.54 6841.6758 18073.301 0
3624.0701 7186.9644 18985.434 1381653
3764.3486 7239.7417 19124.852 0
3791.2393 7077.7437 18696.91 256
3925.1699 7119.1118 18806.189 256
4085.7097 7205.1133 19033.377 256
4248.9893 7291.1836 19260.742 256
4419.5205 7384.854 19508.188 513
4586.8008 7468.4419 19728.998 264456
4743.7686 7531.4907 19895.551 9151392
0 0 0 0
0 0 0 0
0 0 0 0
0 0 0 0
0 0 0 0
0 0 0 0
0 0 0 0
5177.6602 6853.6553 18104.947 772
5111.9985 6628.9736 17511.418 256
0 0 0 0
5579.0908 6951.6157 18363.725 258
5548.6523 6781.0332 17913.105 2633006
5773.8208 6923.3721 18289.115 257
6005.6094 7068.2412 18671.809 2
5852.8721 6763.5015 17866.793 256
6028.2153 6841.9922 18074.137 256
6119.2046 6823.668 18025.732 256
6485.8193 7108.0435 18776.953 256
6627.6147 7140.5791 18862.898 256
6738.2842 7139.0537 18858.869 256
6726.269 7009.7246 18517.227 256
6889.0967 7063.8364 18660.172 0
7092.2505 7156.9277 18906.086 0
7055.731 7009.0273 18515.387 0
7189.397 7032.1328 18576.424 0
7373.0352 7102.6807 18762.785 0
7513.2202 7129.8892 18834.66 0
7585.4839 7092.7886 18736.654 0
7639.2354 7039.7026 18596.42 0
7705.9146 6999.875 18491.207 0
7710.4497 6905.5103 18241.93 0
7771.1479 6863.3643 18130.596 0
7845.0376 6833.8623 18052.662 0
7927.6489 6812.6519 17996.631 0
8015.3032 6796.2827 17953.389 0
8112.4937 6788.3223 17932.361 256
8165.4102 6744.002 17815.281 0
8179.8442 6669.4395 17618.314 0
8271.5859 6658.9985 17590.732 0
8226.6396 6540.1509 17276.779 2
8228.6055 6461.0688 17067.873 3
8404.8486 6519.0884 17221.141 4
7739.9443 5931.1392 15667.984 261
8815.2207 6674.8208 17632.529 4079947
9130.2744 6832.1553 18048.152 66828
8371.3838 6191.5391 16355.869 2832444
8142.7012 5953.2744 15726.458 4677217
8086.9883 5845.4434 15441.606 8362395
7853.0938 5612.6841 14826.738 526607
7180.606 5075.1021 13406.636 264
7348.0952 5136.4829 13568.781 6
7461.3486 5159.0303 13628.344 4
7858.6021 5375.3516 14199.788 528145
7913.4844 5355.3794 14147.029 3489603
7526.5933 5040.0044 13313.92 2237473
8051.0869 5335.1294 14093.536 66307
8129.2017 5331.4253 14083.751 258
8235.542 5346.1191 14122.567 2
8096.7212 5202.9756 13744.433 1974048
8420.1738 5356.7822 14150.736 1
8432.6934 5311.6929 14031.625 2
8562.2344 5340.4756 14107.658 2
8629.9648 5330.5205 14081.361 256
8563.335 5238.5635 13838.442 256
8635.9287 5232.7148 13822.992 256
8690.8125 5216.3462 13779.753 256
8747.9033 5201.5952 13740.786 256
8824.8721 5198.8286 13733.477 256
8914.1279 5203.2837 13745.246 256
8984.6826 5196.8418 13728.229 256
9033.2803 5177.9292 13678.268 256
9060.9473 5147.4639 13597.789 256
9168.1631 5162.3281 13637.056 256
9184.3145 5126.1055 13541.369 0
9146.9805 5060.9199 13369.172 3027506
9080.8984 4981.0884 13158.284 461324
9273.9961 5043.5718 13323.344 256
9266.6416 4996.9067 13200.071 256
9276.1201 4960.0254 13102.644 1
9493.2812 5033.8838 13297.751 0
9513.0527 5002.7197 13215.426 256
9567.8867 4990.3535 13182.759 2
9672.415 5003.896 13218.534 258
9625.1709 4939.3364 13047.99 258
9613.2324 4893.7817 12927.65 1
10525.845 5315.875 14042.673 1382422
10250.969 5136.3281 13568.373 1
10443.279 5191.8438 13715.026 258
11069.437 5460.5151 14424.761 2
11534.173 5646.04 14914.853 3
10968.651 5328.2646 14075.401 258
10894.036 5251.9634 13873.841 2
12762.079 6106.3193 16130.748 258
14776.765 7017.5762 18537.969 197894
0 0 0 0
0 0 0 0
0 0 0 0
0 0 0 0
0 0 0 0
0 0 0 0
0 0 0 0
0 0 0 0
0 0 0 0
0 0 0 0
0 0 0 0
0 0 0 0
0 0 0 0
0 0 0 0
0 0 0 0
0 0 0 0
16839.469 7097.5264 18749.168 0
16065.482 6726.7905 17769.816 1
15531.687 6460.8125 17067.195 257
13831.388 5716.1968 15100.182 1777697
15172.948 6230.2075 16458.018 1383196
17134.055 6990.3989 18466.176 4212554
17583.15 7127.9634 18829.574 3291709
17755.6 7152.3496 18893.994 462095
17314.541 6930.8486 18308.865 527632
17216.873 6848.7109 18091.887 198410
17227.693 6810.481 17990.896 1053719
17929.744 7044.2959 18608.553 790547
18213.896 7112.0645 18787.574 987926
0 0 0 0
0 0 0 0
-9777.2705 4110.4438 10690.504 0
-9718.8027 4112.5889 10696.083 0
-9659.083 4114.2295 10700.35 0
-9603.2363 4117.5518 10708.991 0
-9545.4609 4120.0864 10715.583 0
-9489.3135 4123.3618 10724.102 0
-9432.5381 4126.4077 10732.022 0
-9374.4902 4128.9346 10738.595 0
-9317.9482 4132.1631 10746.991 0
-9260.7607 4135.1479 10754.755 0
-9208.8721 4140.5576 10768.824 0
-9152.0469 4143.8076 10777.276 0
-9093.25 4146.2041 10783.51 0
-9031.1455 4147.1157 10785.881 0
-8970.6299 4148.7759 10790.198 0
-8910.4248 4150.6035 10794.952 0
-8852.1973 4153.3862 10802.189 0
-8792.832 4155.6719 10808.134 0
-8735.2891 4158.8584 10816.422 0
-8676.6934 4161.5879 10823.521 0
-8615.459 4163.083 10827.408 0
-8554.2637 4164.6187 10831.403 0
-8493.4609 4166.3711 10835.961 0
-8435.6279 4169.6177 10844.405 0
-8375.0439 4171.5449 10849.417 0
-8313.4785 4173.0088 10853.224 0
-8253.5459 4175.3218 10859.239 0
-8195.9883 4178.8818 10868.498 0
-8141.7554 4184.207 10882.349 0
-8085.3516 4188.4932 10893.496 0
-8039.2358 4198.2212 10918.796 0
-7994.8569 4209.0215 10946.887 0
-7957.2051 4223.5703 10984.725 65536
-7906.5942 4231.4243 11005.151 0
-7859.2578 4241.1758 11030.514 0
-7805.6157 4247.6602 11047.378 0
-7757.5757 4257.3286 11072.524 0
-7710.8643 4267.8989 11100.016 0
-7659.4619 4276.0322 11121.169 0
-7611.4331 4286.2065 11147.631 0
-7564.9897 4297.4609 11176.9 0
-7521.8862 4310.8286 11211.667 0
-7478.0547 4324.0137 11245.96 65536
-7436.27 4338.6313 11283.978 65536
-7393.7285 4353.0688 11321.527 65536
-7359.2837 4372.5825 11372.279 65536
-7319.3364 4389.1592 11415.391 65536
-7281.0464 4407.0483 11461.917 0
-7241.0542 4424.2358 11506.618 0
-7197.0488 4439.2754 11545.733 0
-7159.6377 4458.7109 11596.282 0
-7146.7935 4493.9727 11687.991 0
-7080.4165 4495.9336 11693.092 0
-7042.2881 4516.0488 11745.407 0
-7011.8521 4541.5488 11811.729 0
-6972.0303 4561.4248 11863.422 0
-6941.0366 4587.5415 11931.347 0
-6902.0479 4608.8584 11986.788 0
-6870.5654 4635.6841 12056.558 0
-6838.5781 4662.7319 12126.903 0
-6804.4316 4688.8677 12194.878 0
-6768.1362 4714.0693 12260.423 0
-6743.043 4747.707 12347.907 0
-6713.2578 4778.7451 12428.632 0
-6695.7808 4819.3325 12534.192 0
-6666.2769 4852.0796 12619.361 0
-6635.2988 4884.4868 12703.646 65536
-6593.271 4909.4121 12768.473 65536
-6560.0254 4941.5332 12852.014 65536
-6561.4536 5000.8379 13006.254 65536
-6550.0469 5051.6582 13138.429 65536
-6564.0962 5123.5742 13325.469 65536
-6548.356 5173.7109 13455.864 65536
-6509.3066 5206.4429 13540.995 65536
-6449.6465 5223.3037 13584.846 65536
-6404.6147 5252.5874 13661.009 0
-6383.3447 5302.3628 13790.464 0
-6325.71 5322.832 13843.702 0
-6283.0747 5356.6294 13931.603 0
-6231.4189 5383.5366 14001.583 0
-6085.7446 5328.8467 13859.345 0
-6037.6206 5359.2461 13938.407 0
-5982.1128 5383.8457 14002.386 0
-5941.522 5422.7529 14103.577 0
-5940.6235 5499.5195 14303.233 0
-5955.1987 5593.0479 14546.483 0
-5926.9805 5648.5488 14690.831 0
-5872.3296 5680.1416 14772.998 0
-5823.5625 5718.4712 14872.686 0
-5759.8926 5743.123 14936.801 0
-5717.7393 5790.3359 15059.593 0
-6049.3691 6223.5991 16186.431 0
-5626.7793 5882.3843 15298.994 0
-5562.0205 5910.1909 15371.313 0
-5509.3032 5951.9351 15479.882 0
-5460.1377 5998.999 15602.287 0
-5391.7227 6026.1753 15672.967 0
-5313.4888 6043.1392 15717.087 0
-5250.0459 6077.8345 15807.322 0
-5176.7637 6102.1943 15870.68 0
-5118.7168 6145.752 15983.964 0
-5039.106 6164.5757 16032.921 0
-4951.3501 6173.9688 16057.352 0
-4896.1982 6225.1855 16190.556 0
-4835.3838 6271.1113 16310.001 0
-4759.2866 6298.6909 16381.729 0
-5013.373 6773.5298 17616.699 0
-4600.5713 6348.3804 16510.963 0
-4525.0293 6380.23 16593.797 0
-4459.4478 6427.8555 16717.662 0
-4376.6411 6452.2573 16781.127 0
-4294.7637 6479.1982 16851.197 0
-4215.5122 6511.4839 16935.166 0
-4136.8164 6546.2266 17025.525 0
-4062.9861 6590.6055 17140.945 0
-3984.8396 6630.085 17243.625 0
-3916.1914 6687.8691 17393.91 0
-3859.8501 6770.374 17608.49 0
-3814.4763 6877.251 17886.457 0
-3743.4871 6942.7495 18056.807 0
-3668.293 7004.085 18216.33 0
-3629.5613 7140.8882 18572.129 0
-3570.5334 7245.0898 18843.139 0
-3545.824 7427.9316 19318.676 0
-3429.4919 7424.6528 19310.148 0
-3302.011 7396.1738 19236.08 0
-3256.8821 7556.729 19653.654 0
-3118.5132 7504.8423 19518.707 0
-2997.7212 7492.8813 19487.598 65536
-2895.8083 7529.0435 19581.648 0
-2828.6807 7662.4609 19928.645 0
0 0 0 0
-2593.3459 7667.0464 19940.57 0
-2466.5757 7641.4678 19874.045 0
0 0 0 0
0 0 0 0
0 0 0 0
0 0 0 0
0 0 0 0
0 0 0 0
0 0 0 0
0 0 0 0
0 0 0 0
0 0 0 0
0 0 0 0
0 0 0 0
0 0 0 0
0 0 0 0
0 0 0 0
0 0 0 0
0 0 0 0
-340.49557 7642.5757 19876.926 0
-221.89297 7626.5186 19835.164 256
-101.62295 7451.792 19380.732 256
13.298958 7306.4873 19002.822 3488313
130.37773 7546.0122 19625.783 593163
238.02672 7271.2686 18911.225 256
343.99631 7137.9214 18564.414 256
451.72919 7097.0454 18458.102 0
564.47485 7135.5088 18558.139 0
688.15271 7277.0034 18926.139 0
810.05292 7362.5815 19148.713 0
906.58508 7224.9092 18790.652 0
1021.6943 7249.2456 18853.947 0
1138.7416 7281.1631 18936.957 0
1239.2249 7210.9541 18754.357 0
1347.0137 7191.3359 18703.334 0
1480.4 7300.9482 18988.416 0
1552.0583 7112.1699 18497.438 65536
1649.2365 7057.5718 18355.439 65536
1765.3743 7085.8491 18428.982 65536
1915.8335 7240.5347 18831.291 65536
1990.0812 7106.0142 18481.428 65536
2066.6133 6993.2969 18188.271 65536
2162.8088 6955.019 18088.717 65536
2266.4819 6943.272 18058.166 65536
2368.8701 6928.8296 18020.604 0
2469.1938 6909.8589 17971.266 0
2579.5366 6919.3364 17995.914 0
2753.1909 7091.125 18442.705 0
2795.877 6925.3525 18011.561 0
2894.2168 6904.5757 17957.523 0
2987.4126 6873.4414 17876.549 0
3091.1523 6867.8716 17862.064 0
3216.7449 6909.6123 17970.623 0
3319.8655 6901.9507 17950.697 65536
3569.8379 7190.564 18701.326 0
3671.0237 7171.1025 18650.711 0
3733.4272 7079.2446 18411.805 0
3857.3606 7105.9658 18481.303 256
3998.8987 7162.7417 18628.967 256
4187.3306 7298.1899 18981.242 256
4351.5361 7385.416 19208.1 769
0 0 0 0
0 0 0 0
0 0 0 0
0 0 0 0
0 0 0 0
0 0 0 0
0 0 0 0
0 0 0 0
5563.52 7638.7925 19867.086 6714229
5082.4731 6833.2822 17772.104 4279630
5135.8926 6764.5215 17593.268 259
5354.5776 6911.834 17976.4 259
5557.5737 7033.5259 18292.9 526859
5576.3633 6921.895 18002.568 257
5546.4185 6755.1123 17568.797 2
5962.0312 7127.1201 18536.322 257
5709.8091 6701.772 17430.07 256
6003.9551 6921.4448 18001.398 256
6403.8018 7253.145 18864.09 256
6596.333 7342.6592 19096.898 256
6679.9351 7309.9419 19011.807 256
6581.938 7082.8921 18421.293 256
6882.9355 7285.6108 18948.525 256
7097.313 7391.5894 19224.156 0
7286.0737 7467.9541 19422.768 0
7095.0127 7158.7056 18618.469 0
7295.7495 7248.1987 18851.225 0
7315.1343 7157.5405 18615.439 0
7454.5386 7185.2676 18687.553 0
7545.0049 7165.7036 18636.67 0
7612.8564 7125.5381 18532.205 0
7718.5767 7121.457 18521.592 0
7877.3872 7165.7847 18636.881 0
7973.0425 7152.231 18601.629 0
7812.3447 6912.2295 17977.432 0
7892.9546 6889.3291 17917.871 0
8000.4575 6890.2007 17920.137 0
8181 6953.125 18083.793 0
8161.2632 6846.4058 17806.234 0
8319.9971 6890.2192 17920.186 0
8239.4912 6737.3032 17522.479 0
8222.1904 6639.2402 17267.436 2
8246.1533 6576.5044 17104.271 2
8277.8525 6521.3911 16960.932 1
7608.1851 5921.7065 15401.263 4
7734.6958 5948.606 15471.224 4
7967.5034 6055.6636 15749.66 261
7663.6641 5757.0947 14973.139 519
7859.124 5836.1587 15178.769 1977392
8127.5034 5966.9629 15518.967 7374215
8085.0137 5869.1621 15264.605 7570823
7320.4268 5255.1562 13667.689 1713191
7460.0933 5296.645 13775.594 262
7275.0396 5109.1855 13288.046 4
7454.1816 5178.7754 13469.037 4
7813.5957 5370.8003 13968.458 3
7812.2729 5313.4355 13819.264 2
7800.2495 5250.0625 13654.441 1
7917.7969 5274.3062 13717.495 2
8094.3452 5336.9575 13880.439 2
8112.3374 5294.856 13770.941 65794
8204.4346 5301.481 13788.171 2
8336.4629 5333.521 13871.501 1
8286.8555 5249.8652 13653.928 197381
8514.6299 5341.853 13893.172 256
8521.8945 5295.061 13771.474 256
8598.3105 5291.7178 13762.779 256
8654.0908 5275.8569 13721.528 256
8697.9307 5253.0811 13662.292 256
8771.124 5248.29 13649.832 256
8865.9873 5256.4351 13671.016 256
8945.8467 5255.6177 13668.889 256
8999.4619 5239.5342 13627.06 256
9039.0352 5215.6362 13564.905 256
9096.5615 5202.4277 13530.553 256
8990.7568 5096.8589 13255.987 256
8942.9619 5025.7246 13070.98 0
9096.6113 5068.0464 13181.052 0
9237.3916 5102.5376 13270.757 256
9222.7441 5051.3159 13137.539 256
9306.8193 5054.5723 13146.008 256
9312.5938 5015.6016 13044.652 256
9288.8984 4961.5342 12904.033 256
9349.8906 4953.2168 12882.4 1
9528.3955 5006.7822 13021.715 2
9532.8291 4968.7539 12922.811 2
9583.5107 4955.2471 12887.681 2
10670.551 5473.564 14235.728 65795
10593.658 5391.3726 14021.963 257
9928.0508 5013.1914 13038.384 1
10109.466 5065.2612 13173.808 2
10316.85 5129.4419 13340.73 2
10772.326 5315.0532 13823.47 258
11007.847 5390.1489 14018.781 258
12243.216 5950.0298 15474.927 1054230
0 0 0 0
0 0 0 0
0 0 0 0
0 0 0 0
0 0 0 0
0 0 0 0
0 0 0 0
0 0 0 0
0 0 0 0
0 0 0 0
0 0 0 0
0 0 0 0
0 0 0 0
0 0 0 0
0 0 0 0
0 0 0 0
0 0 0 0
0 0 0 0
17498.654 7441.9097 19355.029 256
15094.329 6377.4624 16586.6 66306
14313.762 6008.4258 15626.805 2567210
16556.01 6904.8423 17958.217 1383195
16923.49 7012.8936 18239.238 659985
16288.203 6706.6792 17442.832 4212038
15628.939 6394.5278 16630.984 2764591
15524.552 6311.8989 16416.082 593935
16274.572 6575.5142 17101.695 987923
16009.587 6428.3027 16718.826 1381912
17313.398 6908.9385 17968.871 263944
17069.854 6769.9912 17607.496 65795
0 0 0 0
0 0 0 0
-9811.6367 4188.6523 10728.08 0
-9760.8984 4194.248 10742.411 0
-9711.8701 4200.6572 10758.827 0
-9642.7412 4198.3994 10753.044 0
-9584.6514 4200.9497 10759.576 0
-9528.0225 4204.1797 10767.849 0
-9477.4521 4210.1436 10783.124 0
-9422.25 4214.1177 10793.303 0
-9358.4346 4214.2681 10793.688 0
-9292.5215 4213.4688 10791.641 0
-9229.7383 4214.0874 10793.226 0
-9170.4062 4216.3013 10798.896 0
-9109.5635 4217.8472 10802.855 0
-9050.1738 4220.0933 10808.607 0
-8988.3154 4221.2109 10811.47 0
-8928.4307 4223.2788 10816.767 0
-8868.0537 4225.1421 10821.539 0
-8808.9268 4227.6323 10827.917 0
-8752.9814 4231.6978 10838.33 0
-8698.5479 4236.5596 10850.781 0
-8642.4219 4240.6641 10861.293 0
-8584.8154 4244.0977 10870.088 0
-8525.0068 4246.4868 10876.207 0
-8467.1445 4249.8896 10884.922 0
-8411.7754 4254.605 10897 0
-8352.0283 4257.1621 10903.55 0
-8293.4844 4260.3784 10911.786 0
-8235.1426 4263.749 10920.42 0
-8179.5049 4268.5845 10932.805 0
-8123.8521 4273.4897 10945.368 0
-8079.042 4284.2236 10972.86 0
-8036.1147 4296.1396 11003.379 0
-7996.0566 4309.7969 11038.358 65536
-7944.9463 4317.6733 11058.532 0
-7894.6885 4326.1494 11080.24 0
-7846.0986 4335.689 11104.674 0
-7798.6641 4346.0342 11131.171 0
-7750.1797 4355.9673 11156.611 0
-7700.021 4365.1216 11180.058 0
-7652.7817 4376.1055 11208.189 0
-7607.3276 4388.3115 11239.452 0
-7564.0244 4401.9858 11274.476 0
-7516.5571 4413.4595 11303.862 65536
-7475.0605 4428.6777 11342.839 65536
-7435.6431 4445.4155 11385.708 65536
-7398.5415 4463.8589 11432.945 65536
-7352.0386 4476.9185 11466.395 65536
-7312.9814 4494.7993 11512.19 0
-7267.7891 4509.2104 11549.102 0
-7226.335 4526.2388 11592.715 0
-7183.3184 4542.6064 11634.637 0
-7146.9614 4563.5449 11688.265 0
-7105.21 4581.4165 11734.037 0
-7074.4526 4606.8013 11799.054 0
-7033.4292 4625.9424 11848.078 0
-7001.7222 4651.6602 11913.946 0
-6965.2026 4674.6729 11972.888 0
-6926.7495 4696.8496 12029.688 0
-6897.0815 4725.5083 12103.089 0
-6866.2466 4753.9634 12175.969 0
-6823.6167 4774.7705 12229.261 0
-6788.0747 4801.0391 12296.541 0
-6748.8276 4825.231 12358.501 0
-6726.2988 4862.0396 12452.776 0
-6701.3345 4897.8872 12544.59 0
-6685.5542 4941.3291 12655.854 0
-6655.7427 4975.2705 12742.786 65536
-6621.1953 5006.4136 12822.551 65536
-6593.2148 5043.3047 12917.037 65536
-6574.0439 5087.8823 13031.211 65536
-6556.3008 5134.6416 13150.972 65536
-6549.1797 5190.9492 13295.188 65536
-6523.9116 5234.0723 13405.635 65536
-6502.1196 5281.0845 13526.044 65536
-6450.8442 5305.0273 13587.368 65536
-6404.7217 5333.8691 13661.237 0
-6373.8926 5376.3511 13770.044 0
-6340.9873 5418.1641 13877.137 0
-6311.689 5464.2021 13995.05 0
-6255.29 5487.6948 14055.22 0
-6214.0093 5525.2656 14151.447 0
-6168.957 5560.4683 14241.609 0
-6119.7778 5592.8784 14324.619 0
-6064.4604 5620.5142 14395.4 0
-6016.2803 5655.6504 14485.392 0
-5969.8452 5693.4717 14582.26 0
-5918.48 5727.6348 14669.761 0
-5859.584 5755.4238 14740.934 0
-5802.064 5785.4282 14817.781 0
-5733.4551 5805.1294 14868.241 0
-5667.854 5828.5405 14928.203 0
-5611.6108 5862.4731 15015.111 0
-5563.1235 5905.7354 15125.916 0
-5501.6729 5936.4312 15204.534 0
-5438.3105 5966.0557 15280.409 0
-5383.189 6005.8794 15382.407 0
-5323.7651 6042.1973 15475.425 0
-5260.9058 6075.8232 15561.549 0
-5200.7793 6113.8662 15658.985 0
-5125.2925 6134.9092 15712.881 0
-5065.604 6175.9946 15818.11 0
-5010.793 6224.6924 15942.837 0
-4932.6797 6245.7632 15996.803 0
-4906.3984 6334.5806 16224.285 0
-4792.7095 6311.8462 16166.058 0
-5170.1963 6948.2783 17796.104 0
-5319.4814 7298.207 18692.348 0
-4593.1377 6436.0952 16484.285 0
-4511.2905 6459.1821 16543.416 0
-4432.8945 6488.3491 16618.119 0
-4357.6606 6523.5786 16708.352 0
-4285.4863 6565.1392 16814.797 0
-4196.7847 6582.7603 16859.93 0
-4127.8208 6632.9609 16988.504 0
-4061.9719 6690.8096 17136.668 0
-4011.7458 6778.0288 17360.057 0
-3932.196 6819.0015 17464.996 0
-3874.7083 6901.4922 17676.273 0
-3797.4214 6952.3325 17806.486 0
-3718.1243 7002.3018 17934.469 0
-3712.772 7198.5898 18437.207 0
-3561.3989 7115.0918 18223.35 0
-3462.833 7135.1646 18274.76 0
-3442.425 7322.7969 18755.328 0
-3482.0002 7654.8545 19605.803 0
-3304.0759 7515.1968 19248.109 0
-3268.3181 7700.4824 19722.666 0
-3140.7512 7675.1938 19657.896 0
-3063.6162 7775.9551 19915.969 65536
-2927.9207 7730.2056 19798.795 0
0 0 0 0
0 0 0 0
0 0 0 0
0 0 0 0
0 0 0 0
0 0 0 0
0 0 0 0
0 0 0 0
0 0 0 0
0 0 0 0
0 0 0 0
0 0 0 0
0 0 0 0
0 0 0 0
0 0 0 0
0 0 0 0
0 0 0 0
0 0 0 0
0 0 0 0
0 0 0 0
-459.20908 7770.4927 19901.979 0
-336.89932 7678.7437 19666.988 0
-219.00494 7643.6089 19577 0
-103.2329 7686.8579 19687.771 0
13.590353 7581.9956 19419.195 256
128.50806 7552.77 19344.342 3619128
243.79872 7562.7139 19369.811 256
345.51178 7280.189 18646.201 0
0 0 0 0
581.27997 7461.5234 19110.639 0
676.90118 7268.667 18616.689 0
804.35687 7423.8179 19014.066 0
902.80939 7306.0337 18712.395 0
1013.7683 7304.1938 18707.684 0
1143.6405 7425.52 19018.426 0
1252.812 7402.7021 18959.984 1447444
1356.5297 7354.084 18835.463 0
1460.9723 7316.5093 18739.225 0
1560.3894 7260.8721 18596.727 65536
1649.0706 7165.9438 18353.592 65536
1760.1532 7174.0996 18374.48 65536
1868.2269 7169.7539 18363.352 65536
1968.8247 7138.7817 18284.025 65536
2061.8552 7085.0464 18146.396 0
2154.2673 7034.6343 18017.279 0
2269.7896 7060.8877 18084.52 0
2364.7339 7023.646 17989.137 0
2462.8667 6998.6885 17925.215 0
2571.759 7005.1079 17941.656 0
2688.0801 7030.4443 18006.549 0
2787.4438 7011.1895 17957.232 0
2883.0261 6984.1938 17888.09 0
2986.9614 6978.6338 17873.85 0
3093.3015 6978.8809 17874.482 0
3214.8381 7012.2583 17959.971 0
3328.9136 7027.7393 17999.621 0
3445.0811 7046.5361 18047.762 0
3690.2742 7320.1357 18748.514 460808
3730.2349 7182.5249 18396.061 0
3934.5686 7360.2368 18851.221 256
3983.8367 7246.0635 18558.799 256
4149.9648 7344.8701 18811.863 256
4285.3066 7385.4336 18915.756 513
4479.791 7523.2456 19268.723 7241598
0 0 0 0
0 0 0 0
0 0 0 0
0 0 0 0
0 0 0 0
4907.2026 7145.0928 18300.189 5
4868.4858 6935.0107 17762.121 5
5000.3726 6971.7075 17856.111 3
5220.0757 7126.771 18253.264 6646893
5442.3418 7278.9487 18643.025 526860
5340.019 6999.5903 17927.523 259
5318.3984 6834.874 17505.648 1
5350.249 6743.8779 17272.588 1
5415.4321 6697.5317 17153.885 257
5440.6299 6604.3613 16915.254 0
5601.4272 6676.1885 17099.219 256
5899.125 6905.7158 17687.09 256
6255.5376 7194.7368 18427.338 197379
6434.1328 7272.8164 18627.316 526857
6575.8633 7307.2881 18715.607 256
6568.9956 7178.2339 18385.07 256
6992.0659 7515.5283 19248.957 256
7187.7632 7601.502 19469.154 0
7289.7651 7587.2324 19432.607 0
7326.5425 7506.5806 19226.041 0
7149.0361 7212.228 18472.139 0
7359.7456 7312.5044 18728.967 0
7509.0137 7349.6538 18824.115 0
7583.7207 7313.8052 18732.299 0
7589.7598 7213.729 18475.98 0
7682.415 7197.6572 18434.818 0
7932.647 7327.5952 18767.619 0
8071.3789 7352.3628 18831.053 0
7873.1001 7073.6621 18117.238 0
7900.4297 7002.4473 17934.842 0
7991.9756 6989.2881 17901.139 0
8087.0635 6979.5312 17876.148 0
8180.6724 6968.7681 17848.582 256
8280.0947 6963.1694 17834.242 0
8339.627 6924.5889 17735.43 0
8213.6094 6734.8311 17249.416 2
8239.2051 6672.5337 17089.859 2
8255.8184 6604.5688 16915.785 2
8210.2832 6489.1187 16620.092 4
8003.6597 6250.6094 16009.215 260
8170.1172 6305.6445 16150.174 261
7856.8286 5993.4375 15350.54 515
8014.2847 6043.3745 15478.44 7508110
7917.7158 5902.7974 15118.392 7112326
8264.5869 6092.2583 15603.644 8296343
8178.0405 5961.5645 15268.907 8493464
7054.394 5086.0205 13026.441 7702407
7505.189 5352.2905 13708.419 3161918
7550.3711 5326.687 13642.843 527117
7589.7808 5297.5986 13568.341 131844
7732.8994 5340.749 13678.858 4
7792.7236 5326.0723 13641.268 2
7828.3555 5295.3335 13562.539 2
8103.3779 5425.501 13895.928 3
8133.7622 5390.9019 13807.312 258
8235.5156 5403.8223 13840.403 2
8356.2295 5428.8062 13904.393 2
8845.6045 5690.4634 14574.556 2
8398.1055 5350.1904 13703.041 0
8498.3994 5362.0854 13733.506 0
8596.4678 5372.3628 13759.828 0
8674.3018 5369.9204 13753.573 256
8692.3545 5330.8608 13653.533 256
8749.1836 5316.085 13615.688 256
8838.4834 5321.1284 13628.605 0
8938.4414 5332.4385 13657.573 0
9001.751 5321.8779 13630.525 0
9028.335 5289.9873 13548.847 0
8990.9863 5221.5317 13373.517 0
9043.415 5205.958 13333.628 0
9110.6191 5199.0859 13316.027 0
9099.3906 5147.959 13185.08 0
9230.3018 5177.4341 13260.572 0
9262.1484 5151.313 13193.67 0
8281.96 4567.4941 11698.379 256
9315.7129 5094.8364 13049.021 256
9354.4844 5073.8013 12995.146 256
9414.5352 5064.5566 12971.468 0
9483.1152 5060.0137 12959.833 256
9562.5752 5061.3032 12963.135 256
9616.46 5049.1431 12931.99 256
9722.29 5064.2334 12970.641 256
9829.2559 5079.6738 13010.187 256
9916.2471 5084.6299 13022.881 256
10240.861 5210.4106 13345.032 66049
11054.323 5581.064 14294.359 0
11415.418 5719.4165 14648.711 1
11535.718 5735.9429 14691.039 922386
13618.858 6720.8799 17213.684 66050
0 0 0 0
0 0 0 0
0 0 0 0
0 0 0 0
0 0 0 0
0 0 0 0
0 0 0 0
0 0 0 0
0 0 0 0
0 0 0 0
0 0 0 0
0 0 0 0
0 0 0 0
0 0 0 0
0 0 0 0
0 0 0 0
0 0 0 0
0 0 0 0
0 0 0 0
15536.153 6665.6016 17072.104 131842
16012.395 6825.3506 17481.258 856336
16817.57 7122.3472 18241.932 593166
17051.348 7175.0972 18377.037 527115
15575.124 6512.1982 16679.203 1448475
15189.99 6311.001 16163.892 4277831
13515.026 5579.813 14291.155 987923
14498.992 5948.6675 15235.875 527886
14661.667 5978.0747 15311.192 790802
15577.011 6312.1147 16166.745 263943
16127.553 6495.1416 16635.518 790545
0 0 0 0
0 0 0 0
-9820.583 4256.29 10737.861 0
-9795.8643 4273.3472 10780.894 0
-9725.0596 4270.3921 10773.438 0
-9668.6709 4273.7695 10781.959 0
-9615.1953 4278.4888 10793.865 0
-9560.1738 4282.5791 10804.184 0
-9504.5205 4286.439 10813.922 0
-9446.3623 4289.2148 10820.924 0
-9394.7139 4295.0044 10835.53 0
-9336.3643 4297.7891 10842.556 0
-9280.7441 4301.8779 10852.871 0
-9221.5146 4304.3394 10859.081 0
-9159.8408 4305.686 10862.479 0
-9104.0664 4309.8447 10872.971 0
-9040.2549 4310.231 10873.945 0
-8977.0527 4310.9155 10875.672 0
-8914.2354 4311.7969 10877.895 0
-8848.5557 4311.2954 10876.63 0
-8784.9814 4311.8198 10877.953 0
-8722.1035 4312.6968 10880.166 0
-8660.2764 4314.1104 10883.731 0
-8600.1484 4316.3979 10889.503 0
-8539.0605 4318.2349 10894.137 0
-8483.4365 4322.8843 10905.866 0
-8430.7197 4329.0977 10921.542 0
-8386.8838 4340.0029 10949.054 0
-8329.7178 4344.1274 10959.459 0
-8274.126 4349.1436 10972.114 0
-8217.9082 4353.9082 10984.135 0
-8164.9517 4360.4912 11000.742 0
-8113.4897 4367.9844 11019.646 0
-8070.7739 4380.3472 11050.836 0
-8030.5049 4394.2515 11085.913 0
-7980.7007 4403.125 11108.299 0
-7930.7007 4412.0376 11130.784 0
-7878.5493 4419.8931 11150.602 0
-7833.2627 4431.7656 11180.555 0
-7786.9795 4443.2725 11209.585 0
-7738.4492 4453.6851 11235.854 0
-7690.978 4464.894 11264.132 0
-7640.8706 4474.7554 11289.011 0
-7595.1904 4487.4077 11320.93 0
-7547.2656 4498.9478 11350.043 65536
-7504.9897 4514.0942 11388.255 65536
-7468.7661 4533.189 11436.428 65536
-7431.3667 4551.9146 11483.669 65536
-7389.8325 4568.4312 11525.338 65536
-7341.3511 4580.9219 11556.85 0
-7298.2305 4597.0259 11597.477 0
-7252.8369 4611.9907 11635.23 0
-7210.6089 4629.2764 11678.839 0
-7154.0303 4637.5947 11699.825 0
-7121.6846 4661.9399 11761.244 0
-7097.4028 4692.0991 11837.33 0
-7061.2451 4714.9326 11894.935 0
-7017.3306 4732.9951 11940.504 0
-6980.0278 4755.9331 11998.371 0
-6945.896 4781.5259 12062.938 0
-6913.0068 4808.5181 12131.034 0
-6879.5532 4835.6821 12199.564 0
-6845.3364 4862.8833 12268.188 0
-6810.9453 4890.5439 12337.971 0
-6786.187 4925.7993 12426.914 0
-6762.1211 4962.3389 12519.096 0
-6730.9912 4994.4492 12600.104 0
-6692.9888 5022.1255 12669.927 0
-6662.2378 5055.9346 12755.223 65536
-6632.0083 5090.9229 12843.491 65536
-6611.9365 5134.6138 12953.715 65536
-6592.9956 5180.2222 13068.777 65536
-6560.5679 5216.1953 13159.531 65536
-6529.6431 5254.2466 13255.527 65536
-6514.2798 5305.9009 13385.843 65536
-6495.0039 5355.6069 13511.242 65536
-6448.6401 5383.9414 13582.725 65536
-6398.1572 5409.5127 13647.236 0
-6425.5874 5502.4595 13881.725 0
-6336.3003 5496.5752 13866.88 0
-6300.4517 5537.5034 13970.134 0
-6250.7192 5567.1587 14044.949 0
-6197.1426 5594.147 14113.036 0
-6145.1841 5623.3569 14186.727 0
-6087.0767 5647.6743 14248.075 0
-6027.3384 5671.1431 14307.283 0
-5974.6855 5702.0459 14385.245 0
-5922.4438 5734.2437 14466.475 0
-5874.7856 5771.8931 14561.458 0
-5816.0781 5799.6514 14631.486 0
-5764.0322 5834.9951 14720.652 0
-5706.0166 5865.292 14797.087 0
-5650.4722 5899.1177 14882.422 0
-5586.3853 5924.9585 14947.614 0
-5528.0332 5957.8154 15030.507 0
-5467.6899 5989.5708 15110.619 0
-5403.1152 6017.6738 15181.519 0
-5344.2007 6053.1421 15270.999 0
-5275.9351 6079.062 15336.39 0
-5205.0952 6102.8745 15396.465 0
-5172.1963 6172.8198 15572.925 0
-5085.6201 6180.0859 15591.256 0
-5032.1074 6228.5459 15713.512 0
-4976.4189 6276.0947 15833.469 0
-4901.7925 6301.1328 15896.635 0
-5204.0156 6821.1064 17208.436 0
-5118.4307 6843.4214 17264.732 0
-4951.645 6755.8628 17043.838 0
-4993.5249 6955.2891 17546.955 0
-4838.125 6882.5776 17363.518 0
-4618.292 6713.04 16935.803 0
-4405.1807 6545.9341 16514.225 0
-4329.6641 6580.3325 16601.006 0
-4273.3364 6646.1787 16767.125 0
-4193.4912 6677.7207 16846.699 0
-4107.9805 6701.5635 16906.85 0
-4040.8928 6757.4087 17047.738 0
-4022.197 6899.1323 17405.281 0
-3980.6218 7008.0571 17680.08 0
-3897.7424 7048.2002 17781.354 0
-3906.4094 7260.7354 18317.541 0
-3823.6829 7310.7153 18443.633 0
-3731.1982 7344.4385 18528.709 0
-3614.8582 7331.8276 18496.895 0
-3498.1221 7317.5972 18460.994 0
-3541.3157 7647.8301 19294.113 65536
-3346.2686 7468.4419 18841.549 0
-3259.3728 7526.3696 18987.689 0
-3202.0767 7659.2534 19322.932 0
-3093.3779 7674.4966 19361.387 0
0 0 0 0
0 0 0 0
-2774.0283 7746.7261 19543.609 0
0 0 0 0
0 0 0 0
0 0 0 0
0 0 0 0
0 0 0 0
0 0 0 0
0 0 0 0
0 0 0 0
0 0 0 0
0 0 0 0
0 0 0 0
0 0 0 0
0 0 0 0
0 0 0 0
-1052.3627 7901.7827 19934.789 0
-934.39191 7906.085 19945.643 0
0 0 0 0
0 0 0 0
0 0 0 0
0 0 0 0
-341.85776 7910.3672 19956.445 986894
-219.38669 7773.4878 19611.125 0
-98.58976 7452.8721 18802.268 0
12.947183 7333.127 18500.172 0
126.98656 7576.9565 19115.311 855053
245.53998 7732.6719 19508.154 0
350.20297 7491.3613 18899.369 0
472.10242 7646.4258 19290.57 0
577.37701 7524.2412 18982.32 0
673.36188 7340.7285 18519.35 0
784.45715 7350.3647 18543.66 0
896.18787 7362.8467 18575.15 0
995.78839 7283.8633 18375.889 0
1129.6449 7446.2974 18785.682 0
1231.3749 7386.791 18635.557 263172
1345.7394 7406.6431 18685.641 395013
1485.3271 7551.7075 19051.613 256
1572.5184 7428.6973 18741.279 0
1663.9493 7340.6646 18519.189 0
1770.749 7327.1494 18485.092 65536
1880.7494 7327.6836 18486.439 65536
1980.7673 7291.4121 18394.934 0
2065.8574 7206.8594 18181.621 0
2160.9995 7164.0352 18073.584 0
2275.7646 7187.2393 18132.125 0
2376.7251 7166.7202 18080.357 0
2479.543 7153.334 18046.588 0
2582.52 7141.4985 18016.729 0
2739.9067 7275.0752 18353.719 0
2848.2642 7273.2241 18349.049 0
2907.0762 7149.6567 18037.311 0
2996.8738 7108.375 17933.164 0
3097.8699 7095.5791 17900.881 0
3220.7522 7132.0972 17993.01 256
3367.9167 7218.311 18210.514 0
3493.8435 7255.0566 18303.215 987406
3700.5115 7452.1812 18800.525 987150
3731.4883 7294.3096 18402.242 132098
3921.9016 7448.2197 18790.531 256
3968.2871 7327.6523 18486.361 256
4123.2861 7408.7388 18690.928 256
4318.8447 7556.5376 19063.797 514
4085.5913 6965.6807 17573.17 7898499
0 0 0 0
0 0 0 0
0 0 0 0
0 0 0 0
0 0 0 0
4928.1777 7284.8633 18378.412 5
4840.2681 6999.77 17659.172 5
4977.7466 7045.8066 17775.314 3
5293.6084 7337.1768 18510.389 6253932
5589.875 7590.0757 19148.408 2567984
5332.4644 7096.0854 17902.16 258
5265.252 6869.5757 17330.715 258
5429.2456 6947.624 17527.617 2
5303.3379 6658.7407 16798.816 256
5376.7705 6626.1958 16716.711 256
5543.2778 6707.4531 16921.709 256
5831.5811 6930.5635 17484.576 0
5988.1045 6991.9893 17639.543 0
6281.0791 7207.8867 18184.213 0
6276.4565 7080.748 17863.465 256
6404.8643 7105.4189 17925.705 256
6770.582 7388.2427 18639.219 658187
6960.6064 7473.3247 18853.865 65793
7178.3511 7585.0015 19135.607 0
7381.5439 7678.0586 19370.373 0
7179.0649 7352.77 18549.729 0
7399.728 7464.1475 18830.713 0
7518.4971 7470.9556 18847.889 0
7615.7881 7456.5347 18811.508 0
7627.9922 7360.4292 18569.051 0
7708.5093 7332.0415 18497.434 0
7790.6665 7305.9902 18431.711 0
8064.0879 7457.54 18814.043 0
8111.8955 7399.1533 18666.744 0
8095.5674 7284.6309 18377.826 0
8100.2412 7191.8047 18143.641 0
8042.4868 7046.7178 17777.613 256
8183.4966 7077.2905 17854.742 256
7514.6206 6415.6372 16185.51 256
7424.4854 6258.5674 15789.249 256
8312.7783 6919.9019 17457.68 256
8281.1562 6808.5957 17176.873 256
8322.6416 6759.3765 17052.703 2
8271.8828 6637.3247 16744.787 258
8285.417 6569.1504 16572.795 259
8127.9336 6368.5786 16066.788 593424
7942.5234 6151.0371 15517.97 461324
8823.9717 6755.2275 17042.234 133643
7855.5864 5945.627 14999.758 8361366
8292.2891 6205.7275 15655.944 8362395
8642.6348 6396.1455 16136.334 8099991
8486.0371 6211.3271 15670.072 8230805
8448.5254 6116.7407 15431.446 8952473
8333.7344 5968.8364 15058.311 4343368
7589.7593 5378.2251 13568.303 1513754
7762.6992 5442.9419 13731.572 2
7788.0854 5403.9282 13633.148 2
7769.397 5335.4517 13460.393 2
7995.6348 5434.8535 13711.167 2
7945.6914 5346.416 13488.054 0
8218.2803 5474.5996 13811.439 0
8374.0479 5523.1973 13934.042 0
8473.5781 5534.1143 13961.583 0
8318.0938 5379.8833 13572.487 0
8411.9775 5388.3501 13593.847 0
8547.9688 5423.3711 13682.199 0
8669.4248 5448.5977 13745.841 0
8659.7354 5391.6997 13602.297 0
8701.3672 5367.5117 13541.275 256
8804.6914 5381.4736 13576.499 256
8924.1562 5404.958 13635.746 256
8988.5547 5394.9683 13610.543 256
9093.7871 5409.4473 13647.071 0
9101.4766 5366.1597 13537.864 256
9165.1768 5356.3647 13513.154 256
9099.1143 5271.5625 13299.212 256
9116.6807 5236.2529 13210.133 256
9138.6113 5204.0322 13128.846 256
9211.0586 5200.8799 13120.894 256
9252.7363 5180.5547 13069.615 256
9293.585 5160.1055 13018.026 256
9370.5781 5159.8975 13017.502 256
9438.6406 5154.8154 13004.681 0
9490.3584 5140.9624 12969.732 256
9563.127 5138.6436 12963.882 256
9617.9453 5126.7939 12933.987 256
9709.4473 5134.5312 12953.507 256
9798.5488 5140.8872 12969.542 256
9876.9844 5141.5913 12971.318 0
10196.139 5266.6235 13286.753 514
9689.1201 4966.2695 12529.013 3423289
10478.536 5329.9312 13446.467 256
11536.86 5823.8335 14692.494 461835
11244.043 5633.3799 14212.014 1318683
0 0 0 0
0 0 0 0
0 0 0 0
0 0 0 0
0 0 0 0
0 0 0 0
0 0 0 0
0 0 0 0
0 0 0 0
0 0 0 0
0 0 0 0
0 0 0 0
0 0 0 0
0 0 0 0
0 0 0 0
0 0 0 0
0 0 0 0
0 0 0 0
0 0 0 0
17417.703 7586.6113 19139.668 0
16818.016 7277.8745 18360.781 526857
16880.766 7257.9355 18310.479 526857
16796.373 7175.3931 18102.238 526346
16305.321 6921.2827 17461.164 197382
14949.855 6305.7803 15908.36 66307
14668.492 6148.2188 15510.86 258
14610.519 6085.6738 15353.07 329994
14733.287 6098.7212 15385.986 527886
15665.19 6444.4761 16258.264 1514781
17620.443 7204.4048 18175.43 2567469
0 0 0 0
0 0 0 0
-9886.5459 4349.1265 10809.986 0
-9827.2842 4351.334 10815.474 0
-9766.5566 4352.9175 10819.409 0
-9709.1709 4356.021 10827.123 0
-9651.5088 4359.041 10834.63 0
-9592.2451 4361.374 10840.428 0
-9534.4902 4364.4292 10848.021 0
-9478.5771 4368.374 10857.827 0
-9421.9814 4372.0566 10866.98 0
-9362.0664 4374.2393 10872.405 0
-9304.5605 4377.585 10880.722 0
-9249.916 4382.3345 10892.525 0
-9195.0586 4387.0483 10904.242 0
-9138.041 4390.7915 10913.546 0
-9079.25 4393.7295 10920.85 0
-9017.5791 4395.3066 10924.77 0
-8959 4398.4248 10932.52 0
-8899.501 4401.1333 10939.251 0
-8842.5986 4405.1743 10949.297 0
-8784.4062 4408.6294 10957.884 0
-8724.1084 4411.0708 10963.952 0
-8662.5576 4412.9111 10968.525 0
-8601.5137 4415.0381 10973.813 0
-8539.8906 4416.8994 10978.439 0
-8479.4463 4419.4038 10984.664 0
-8422.1914 4423.6216 10995.147 0
-8368.4834 4429.7832 11010.462 0
-8311.5156 4434.3027 11021.695 0
-8258.9424 4441.2573 11038.982 0
-8209.9395 4450.2583 11061.355 0
-8157.0977 4457.3071 11078.874 0
