# .PCD v0.7 - Point Cloud Data file format
VERSION 0.7
FIELDS x y z rgb
SIZE 4 4 4 4
TYPE F F F U
COUNT 1 1 1 1
WIDTH 1640
HEIGHT 1
VIEWPOINT 0 0 0 1 0 0 0
POINTS 1640
DATA ascii
0 0 0 0
0 0 0 0
0 0 0 0
0 0 0 0
0 0 0 0
0 0 0 0
0 0 0 0
14917.179 7361.5977 18854.707 5860207
0 0 0 0
0 0 0 0
0 0 0 0
0 0 0 0
0 0 0 0
0 0 0 0
0 0 0 0
0 0 0 0
0 0 0 0
0 0 0 0
0 0 0 0
0 0 0 0
17327.666 7790.377 19952.906 330254
17389.887 7765.2075 19888.441 197640
0 0 0 0
16237.226 7153.2568 18321.1 258
15445.507 6759.1401 17311.678 66051
14222.356 6182.6895 15835.257 3225148
13783.931 5952.708 15246.223 1514787
12849.122 5512.7632 14119.425 791832
13610.827 5801.6729 14859.389 988954
13913.409 5892.4165 15091.803 260
14115.24 5939.6025 15212.657 527374
0 0 0 0
17885.754 7431.0117 19032.492 923160
0 0 0 0
18756.775 7695.5576 19710.053 2896955
0 0 0 0
0 0 0 0
0 0 0 0
0 0 0 0
0 0 0 0
0 0 0 0
-9419.335 4109.0903 10366.502 0
-9363.2324 4111.5093 10372.605 0
-9308.7598 4114.6812 10380.607 0
-9253.1279 4117.3789 10387.413 0
-9199.1787 4120.8672 10396.214 0
-9143.6406 4123.686 10403.325 0
-9084.9492 4125.1113 10406.921 0
-9025.7354 4126.3179 10409.964 65536
-8966.2539 4127.417 10412.737 65536
-8905.7295 4128.0483 10414.33 65536
-8843.4014 4127.8467 10413.821 0
-8780.4658 4127.3564 10412.585 0
-8716.8398 4126.5322 10410.506 0
-8652.1768 4125.2026 10407.15 0
-8591.752 4125.8887 10408.882 0
-8531.3691 4126.605 10410.688 0
-8469.7725 4126.7402 10411.029 0
-8406.9551 4126.2783 10409.864 0
-8347.8262 4127.6333 10413.283 0
-8283.6719 4126.5049 10410.437 0
-8220.3906 4125.7979 10408.653 0
-8157.7124 4125.3862 10407.613 65536
-8096.4175 4125.6719 10408.334 65536
-8042.0396 4129.5137 10418.027 65536
-7995.5322 4137.4883 10438.146 65536
-7950.4331 4146.3223 10460.432 65536
-7905.9512 4155.6191 10483.887 0
-7854.8296 4161.5469 10498.841 0
-7805.9634 4168.7734 10517.072 0
-7755.646 4175.3359 10533.628 0
-7706.8535 4182.832 10552.54 0
-7656.0957 4189.3765 10569.051 0
-7612.3281 4199.8857 10595.563 0
-7560.4512 4206.0586 10611.137 0
-7513.7681 4215.2495 10634.323 0
-7456.3081 4218.499 10642.521 0
-7404.6738 4225.1279 10659.245 0
-7349.9028 4230.0664 10671.704 0
-7300.6621 4238.3013 10692.479 0
-7243.8149 4242.2261 10702.38 0
-7193.3101 4249.9678 10721.911 0
-7133.2598 4252.1577 10727.436 65536
-7072.333 4253.8599 10731.73 65536
-7018.2686 4259.7583 10746.611 65536
-6979.2246 4274.9653 10784.976 65536
-6920.0513 4278.0098 10792.657 0
-6878.8496 4292.3262 10828.774 131586
-6213.9404 3914.0508 9874.4521 1644825
-6408.7021 4075.2156 10281.043 0
-6742.7441 4328.9023 10921.05 0
-6649.5977 4310.5972 10874.868 0
-6587.8599 4312.4922 10879.649 256
-6569.4673 4343.0806 10956.818 256
-6539.6333 4366.6416 11016.259 0
-6577.3833 4436.2632 11191.901 0
-6554.3877 4465.9175 11266.714 65536
-6521.1108 4489.106 11325.215 0
-6540.186 4549.1934 11476.804 0
-6497.1904 4566.917 11521.518 0
-6480.5781 4603.7607 11614.468 0
-6404.0537 4598.3784 11600.89 0
-6344.6401 4605.2998 11618.351 0
-6305.1587 4626.9995 11673.095 0
-6296.1401 4671.7866 11786.085 0
-6284.0864 4715.3037 11895.87 0
-6229.6982 4727.6831 11927.102 65536
-6180.7524 4744.5259 11969.593 65536
-6310.8154 4900.7725 12363.775 65536
-6542.9653 5140.9131 12969.607 65536
-6526.8618 5189.3965 13091.922 0
-6501.3408 5231.4722 13198.072 0
-6443.751 5248.4556 13240.917 0
-6411.2168 5286.5186 13336.943 0
-6420.3628 5360.3335 13523.166 0
-6348.9937 5367.9453 13542.37 0
-6324.6572 5416.0298 13663.678 256
-6276.958 5445.0972 13737.01 256
-6242.5625 5486.624 13841.774 256
-6194.4697 5517.0605 13918.561 256
-6157.7012 5558.5435 14023.215 256
-6110.9834 5592.0601 14107.771 0
-6076.5503 5637.9077 14223.436 0
-6038.9136 5682.0337 14334.759 0
-6000.7954 5726.9639 14448.109 0
-5966.2026 5776.6118 14573.362 0
-5925.8711 5822.0845 14688.081 0
-5871.7534 5855.1694 14771.549 0
-5829.3423 5901.1089 14887.446 0
-6187.4907 6360.2061 16045.666 0
-5742.3706 5995.0596 15124.468 0
-5674.5562 6018.4736 15183.536 0
-5624.5801 6061.8691 15293.015 0
-5568.3926 6099.8857 15388.924 0
-5501.0654 6126.7646 15456.735 0
-5442.7832 6164.8022 15552.698 0
-5366.3091 6183.1929 15599.094 0
-5299.6968 6213.7925 15676.291 0
-5247.3218 6262.4805 15799.121 0
-5175.5425 6289.3599 15866.935 0
-5147.146 6370.9365 16072.737 0
-5119.7896 6456.9092 16289.631 0
-4975.9971 6396.5215 16137.283 0
-4895.0063 6416.0757 16186.615 0
-4830.0757 6457.8872 16292.098 0
-4754.7778 6487.2642 16366.211 0
-4687.7075 6529.3276 16472.33 0
-4607.6313 6554.6846 16536.301 0
-4530.9502 6586.0811 16615.51 0
-4447.7373 6609.1714 16673.762 0
-4373.0488 6646.2695 16767.354 0
-4298.8423 6685.8472 16867.201 0
-4222.2881 6723.5767 16962.387 0
-4145.9224 6763.4595 17063.004 0
-4066.4365 6800.124 17155.502 0
-3985.8232 6836.7417 17247.881 0
-3958.5232 6969.1523 17581.93 0
-3860.8481 6981.4854 17613.043 0
-3814.9231 7090.6919 17888.553 0
-3704.5452 7082.9292 17868.969 0
-3645.1328 7175.0288 18101.318 0
-3618.3811 7338.9731 18514.922 0
-3508.2837 7338.854 18514.621 0
-3389.8203 7320.6602 18468.721 0
-3278.1106 7316.3223 18457.777 0
-3170.1082 7320.2441 18467.672 0
-3085.2009 7379.6909 18617.645 0
-3014.5908 7479.0303 18868.26 0
0 0 0 0
-2837.28 7604.9272 19185.877 0
0 0 0 0
-2637.4187 7687.106 19393.199 0
-2538.8396 7737.9482 19521.465 0
-2440.0422 7792.9629 19660.256 0
-2335.6406 7834.7119 19765.582 0
-2230.6492 7878.8003 19876.809 0
-2113.9587 7884.1855 19890.396 0
0 0 0 0
-1876.9091 7881.5884 19883.844 0
0 0 0 0
0 0 0 0
0 0 0 0
0 0 0 0
0 0 0 0
0 0 0 0
0 0 0 0
0 0 0 0
0 0 0 0
0 0 0 0
-520.95312 7116.4165 17953.449 4212551
-452.48065 7773.1895 19610.371 6251362
-334.7269 7745.3628 19540.17 1646110
-213.51251 7565.3491 19086.027 515
-98.434525 7441.1367 18772.662 131845
0 0 0 0
0 0 0 0
0 0 0 0
0 0 0 0
458.92453 7432.9902 18752.109 2
594.45966 7746.8589 19543.943 1
0 0 0 0
0 0 0 0
901.26129 7404.5288 18680.307 256
1001.3629 7324.6387 18478.758 0
1112.6915 7334.5469 18503.754 0
1227.9578 7366.2915 18583.842 0
1364.5731 7510.2988 18947.146 0
1469.998 7473.772 18854.994 0
1560.5004 7371.9243 18598.051 0
1666.7386 7352.9697 18550.232 0
1774.8051 7343.9321 18527.432 0
1828.291 7123.2979 17970.811 1579545
1981.1534 7292.8335 18398.52 256
2099.3276 7323.6216 18476.191 256
2206.3684 7314.4395 18453.027 790800
2323.3645 7337.5684 18511.377 513
2511.0098 7571.6392 19101.896 6779503
2582.0112 7448.9502 18792.373 1118994
2653.6709 7338.2529 18513.105 256
2760.4453 7329.6094 18491.299 0
2869.666 7327.8745 18486.922 65536
2918.5686 7177.9219 18108.617 0
3084.7422 7316.7935 18458.965 0
3200.553 7330.771 18494.229 0
3282.7222 7269.3247 18339.211 0
3393.0195 7272.1133 18346.246 256
3526.5312 7322.9341 18474.457 256
3647.6592 7345.7461 18532.008 256
3515.8958 6872.8691 17339.023 658700
3786.5303 7191.1318 18141.943 259
4004.7395 7394.9639 18656.176 259
4161.897 7478.1157 18865.953 4345426
4363.1147 7633.9941 19259.207 773
0 0 0 0
0 0 0 0
0 0 0 0
0 0 0 0
0 0 0 0
0 0 0 0
0 0 0 0
0 0 0 0
0 0 0 0
0 0 0 0
0 0 0 0
0 0 0 0
5557.5918 7250.9917 18292.959 264
5516.8921 7059.7822 17810.572 7
5651.3286 7095.6694 17901.109 6
5713.5435 7041.2256 17763.758 4
5837.9258 7063.9819 17821.168 258
6049.4155 7189.4497 18137.699 258
6121.979 7148.3076 18033.906 0
6244.4771 7165.8843 18078.248 0
6367.1665 7183.0806 18121.633 0
6522.7974 7236.252 18255.773 0
6665.2881 7273.3428 18349.348 0
6785.3066 7285.1123 18379.039 0
6858.8652 7247.4175 18283.941 256
6939.4004 7218.1543 18210.117 256
7132.667 7305.249 18429.842 256
7272.1929 7335.5015 18506.162 256
7363.2358 7316.6758 18458.67 256
7447.4829 7291.7485 18395.783 256
7510.7798 7247.3281 18283.717 0
7586.5596 7216.0469 18204.801 0
7655.0972 7178.8555 18110.973 0
8162.9116 7548.9297 19044.605 0
8053.6411 7346.0166 18532.691 0
8360.7852 7523.2822 18979.9 0
8525.2051 7569.1089 19095.514 0
8072.6826 7073.1753 17844.361 1
8069.5444 6978.7427 17606.123 1
8136.9189 6946.9268 17525.859 4
8259.7412 6962.6567 17565.543 4
8278.4951 6891.3633 17385.682 260
8224.3711 6761.9082 17059.09 1029
8284.457 6728.3647 16974.465 772
8305.3213 6664.1553 16812.477 992038
7752.0889 6146.2974 15506.014 7837080
9357.3115 7331.8477 18496.945 7508118
9370.0654 7256.5869 18307.076 7704983
8820.4873 6752.5596 17035.504 3360337
8023.4873 6072.7061 15320.355 2370608
8017.293 5999.9282 15136.749 2174776
7566.5698 5599.7827 14127.254 5332840
7346.7021 5377.395 13566.209 329487
8037.0645 5818.8423 14679.902 1052950
8170.0122 5851.5742 14762.479 3
8217.6777 5823.1777 14690.84 4
8559.4082 6001.5674 15140.885 1777186
8576.5264 5951.0049 15013.324 2304043
8553.8994 5874.1899 14819.534 132360
8410.2793 5716.6992 14422.213 263430
8286.2871 5575.5928 14066.227 771
8492.0879 5656.9966 14271.594 3292732
8353.5098 5509.6514 13899.868 4411213
8328.9355 5439.6475 13723.262 131842
8542.3994 5524.957 13938.482 256
8524.8193 5460.6318 13776.2 256
8594.2598 5452.7417 13756.295 256
8670.2588 5449.1211 13747.162 256
8720.7832 5429.709 13698.188 256
8739.166 5390.8281 13600.099 256
8782.3018 5367.7891 13541.976 256
10341.353 6263.29 15801.164 256
8965.8594 5381.3467 13576.179 256
8932.1816 5313.3164 13404.55 256
8967.499 5287.1675 13338.582 256
9008.4473 5264.7681 13282.071 256
8961.8379 5192.0312 13098.569 0
9127.3105 5242.3584 13225.536 0
9152.0127 5211.6636 13148.099 0
8892.208 5020.8462 12666.7 0
8427.3115 4718.4033 11903.69 0
9232.7393 5126.3218 12932.796 256
9300.2744 5121.1851 12919.837 256
9351.0186 5106.9619 12883.955 256
9399.5391 5091.7651 12845.616 258
9434.0342 5069.2773 12788.883 258
9433.6758 5028.5703 12686.187 260
0 0 0 0
0 0 0 0
9773.7627 5087.8579 12835.759 6
9731.4932 5026.6196 12681.266 6
9669.3408 4956.1313 12503.437 519
9814.1543 4991.9922 12593.906 259
0 0 0 0
0 0 0 0
0 0 0 0
0 0 0 0
0 0 0 0
0 0 0 0
0 0 0 0
0 0 0 0
0 0 0 0
0 0 0 0
0 0 0 0
0 0 0 0
0 0 0 0
0 0 0 0
0 0 0 0
0 0 0 0
0 0 0 0
17459.377 7808.7563 19700.102 2106407
16446.391 7306.6963 18433.492 658446
13750.878 6068.7251 15310.312 3356988
13532.788 5933.2119 14968.437 1711906
12278.26 5348.0288 13492.124 461582
12765.387 5524.1289 13936.393 1251868
13472.893 5792.7114 14613.978 263687
15843.119 6768.1646 17074.873 2370093
0 0 0 0
0 0 0 0
0 0 0 0
0 0 0 0
0 0 0 0
0 0 0 0
0 0 0 0
0 0 0 0
0 0 0 0
0 0 0 0
-9471.6201 4193.8525 10424.045 0
-9415.04 4196.2476 10429.998 0
-9359.8223 4199.2856 10437.549 0
-9303.4268 4201.8325 10443.879 0
-9246.8936 4204.3506 10450.138 0
-9191.8135 4207.5679 10458.135 0
-9136.0742 4210.5254 10465.485 0
-9077.3691 4212.147 10469.517 0
-9019.0889 4213.9897 10474.097 0
-8960.9033 4215.9023 10478.851 0
-8902.0049 4217.5039 10482.831 0
-8840.8359 4218.0454 10484.177 0
-8779.3984 4218.4648 10485.22 0
-8717.3711 4218.6055 10485.569 0
-8660.6768 4221.3467 10492.383 0
-8604.7959 4224.5278 10500.29 0
-8543.582 4225.1182 10501.756 0
-8481.6514 4225.3599 10502.357 0
-8419.6377 4225.5635 10502.863 0
-8357.8203 4225.8691 10503.623 0
-8296.6494 4226.5088 10505.213 65536
-8237.0215 4227.9502 10508.795 65536
-8179.2744 4230.3857 10514.851 65536
-8120.2397 4232.1885 10519.331 65536
-8065.5 4236.2749 10529.488 65536
-8018.8457 4244.7056 10550.442 65536
-7975.8145 4255.2017 10576.531 0
-7925.5781 4261.9902 10593.404 0
-7882.4854 4272.7593 10620.172 0
-7840.999 4284.5806 10649.554 0
-7796.5952 4294.9863 10675.418 0
-7747.0371 4302.7007 10694.593 0
-7700.708 4312.3511 10718.579 0
-7656.8037 4323.5317 10746.368 0
-7598.0806 4326.4614 10753.651 0
-7544.9761 4332.6685 10769.078 0
-7487.1196 4336.229 10777.929 0
-7437.103 4344.4302 10798.313 0
-7381.792 4349.6558 10811.301 0
-7335.4521 4360.3047 10837.771 0
-7284.5757 4368.4219 10857.946 0
-7231.8799 4375.584 10875.747 65536
-7181.8599 4384.5083 10897.929 65536
-7136.606 4396.5312 10927.812 65536
-7084.0488 4404.2344 10946.96 65536
-7070.6719 4436.6655 11027.568 65536
-7022.9424 4447.9463 11055.607 65536
-6410.3521 4098.3091 10186.565 65536
-7035.3716 4540.7856 11286.365 65536
-7017.7012 4572.9824 11366.392 0
-6994.7114 4602.3042 11439.272 0
-6973.5435 4633.4126 11516.595 0
-6956.2891 4667.7632 11601.976 0
-6937.3872 4701.686 11686.291 0
-6904.1387 4726.4727 11747.9 0
-6865.9941 4748.3799 11802.352 65536
-6835.6475 4776.1885 11871.471 0
-6762.5571 4774.3989 11867.023 0
-6734.8467 4804.9482 11942.956 0
-6717.3867 4843.5396 12038.876 0
-6701.3867 4884.0259 12139.507 0
-6664.4873 4909.9956 12204.057 0
-6631.8481 4939.71 12277.913 0
-6615.1978 4982.1279 12383.345 0
-6585.9912 5015.937 12467.38 65536
-6590.2178 5076.269 12617.337 65536
-6550.9219 5104.0786 12686.46 65536
-6561.7017 5172.0063 12855.298 65536
-6554.6558 5227.3188 12992.78 65536
-6530.3081 5269.9873 13098.835 0
-6504.5083 5312.4995 13204.502 0
-6471.0449 5349.7144 13297.001 0
-6442.1084 5391.6387 13401.206 0
-6461.0303 5475.168 13608.822 0
-6324.1616 5427.123 13489.404 256
-6326.1611 5498.5444 13666.925 256
-6271.9263 5522.3105 13725.998 256
-6228.896 5556.6987 13811.472 256
-6193.0654 5598.5137 13915.405 256
-6149.1582 5634.0605 14003.759 0
-6103.9473 5669.3726 14091.528 0
-6067.8203 5714.2212 14203.002 0
-6028.2397 5757.0366 14309.422 0
-5991.145 5803.4858 14424.874 0
-5947.8086 5845.1499 14528.432 0
-5899.6504 5883.2334 14623.09 0
-5856.2637 5927.2842 14732.581 0
-5811.5552 5971.314 14842.02 0
-6031.0493 6292.3516 15639.976 0
-6289.7446 6664.979 16566.162 0
-5857.8271 6306.0068 15673.918 0
-5627.1787 6155.6025 15300.079 0
-5691.6133 6328.3525 15729.459 0
-5508.812 6227.3867 15478.502 0
-5443.5981 6258.1733 15555.025 0
-5380.3276 6292.2988 15639.844 0
-5315.5015 6325.771 15723.041 0
-5249.2573 6358.7236 15804.947 0
-5204.7427 6419.6797 15956.456 0
-5147.4438 6466.8364 16073.667 0
-5107.0356 6537.3984 16249.053 0
-4994.3003 6516.3115 16196.64 0
-4913.5005 6536.8823 16247.77 0
-4828.7881 6552.9688 16287.753 0
-4761.6523 6594.0542 16389.873 0
-4693.9463 6636.0493 16494.254 0
-4618.8018 6669.0947 16576.391 0
-4542.8174 6702.3418 16659.029 0
-4455.9844 6720.7075 16704.678 0
-4375.2803 6749.3667 16775.91 0
-4293.1943 6777.1792 16845.041 0
-4221.5752 6823.2378 16959.521 0
-4140.415 6855.7524 17040.338 0
-4060.9541 6892.7803 17132.373 0
-3975.0605 6920.5142 17201.307 0
-3898.896 6967.0972 17317.092 0
-3814.9673 7001.9565 17403.736 0
-3736.0627 7048.2373 17518.77 0
-3634.9285 7054.0312 17533.172 0
-3527.1345 7046.8623 17515.352 0
-3523.1841 7253.0352 18027.807 0
-3454.405 7334.4961 18230.281 0
-3324.2197 7286.6309 18111.311 0
-3221.7402 7298.3252 18140.377 0
-3157.7258 7400.9829 18395.539 0
-3056.1873 7419.9019 18442.562 0
-2976.145 7494.3589 18627.629 0
-2903.0474 7592.7329 18872.143 0
-2721.4048 7403.7119 18402.32 0
-2688.7886 7621.271 18943.076 0
-2590.6377 7663.9731 19049.215 0
-2506.4382 7753.7368 19272.326 0
-2452.1235 7948.9741 19757.6 0
0 0 0 0
-2229.3943 7992.4365 19865.627 0
-2104.1697 7965.3452 19798.291 0
0 0 0 0
0 0 0 0
0 0 0 0
0 0 0 0
0 0 0 0
0 0 0 0
0 0 0 0
0 0 0 0
0 0 0 0
0 0 0 0
0 0 0 0
0 0 0 0
-536.72736 7441.8325 18497.072 723981
-454.77631 7929.7681 19709.863 7502203
-322.53885 7575.2446 18828.676 790288
-212.75264 7651.4561 19018.104 4
-97.624573 7490.5635 18618.195 3
12.856508 7390.9526 18370.607 1
124.05011 7512.7275 18673.285 4
233.32744 7458.2456 18537.867 3
350.58975 7612.0854 18920.244 3
450.97232 7413.7114 18427.176 2
562.05597 7434.4067 18478.615 198150
679.77191 7521.7227 18695.643 257
801.10559 7618.9106 18937.209 256
892.69031 7444.0796 18502.658 256
1000.386 7427.2124 18460.732 0
1109.2847 7421.7266 18447.098 0
1215.7505 7402.415 18399.098 0
1331.5966 7438.6919 18489.266 0
1459.6829 7532.6025 18722.686 0
1545.7637 7411.7969 18422.416 0
1648.8148 7382.9619 18350.746 0
1765.1981 7413.6987 18427.145 0
1870.6376 7397.5669 18387.047 0
1967.4802 7351.0952 18271.539 256
2082.8616 7375.1279 18331.273 256
2155.9712 7254.5332 18031.529 2500390
2283.5247 7319.8799 18193.953 512
2487.4341 7613.0127 18922.549 1908767
2458.1797 7198.0356 17891.102 2829098
2651.3313 7441.7173 18496.785 256
2740.7991 7386.563 18359.697 526858
2860.3984 7413.7285 18427.219 0
2913.1338 7271.981 18074.896 0
3010.8567 7248.6221 18016.838 0
3133.4265 7284.6328 18106.344 0
3294.6025 7405.0234 18405.582 0
3357.2307 7303.2959 18152.732 256
3471.8606 7317.5063 18188.053 256
3629.0818 7417.9155 18437.625 256
3767.5063 7475.144 18579.869 256
3884.9971 7488.7607 18613.715 1
3987.5271 7473.584 18575.992 66053
4097.9678 7473.6514 18576.16 264975
4371.4634 7763.2847 19296.059 66311
0 0 0 0
0 0 0 0
0 0 0 0
0 0 0 0
0 0 0 0
0 0 0 0
0 0 0 0
0 0 0 0
0 0 0 0
0 0 0 0
0 0 0 0
0 0 0 0
5621.3677 7444.1689 18502.879 3292995
5703.3955 7407.8779 18412.676 2831158
5693.2339 7255.4663 18033.848 260
5683.416 7109.1172 17670.09 4
5892.7104 7237.1826 17988.404 2
6061.2231 7311.4917 18173.104 2
6152.3911 7291.5317 18123.492 1
6287.4897 7323.4292 18202.773 0
6403.1475 7331.9844 18224.039 0
6560.0391 7386.686 18360.004 0
6703.8101 7425.0654 18455.396 0
6831.1245 7444.2759 18503.145 0
6919.3516 7420.9556 18445.182 0
7023.3555 7415.0195 18430.428 0
7188.6533 7472.9844 18574.502 0
7335.4946 7510.3003 18667.252 0
7413.4521 7477.0288 18584.555 0
7427.0698 7380.7954 18345.361 0
7520.1216 7365.144 18306.459 0
7608.6699 7345.5908 18257.859 256
7672.8271 7303.3711 18152.918 0
8293.4434 7784.6421 19349.145 0
7994.3696 7401.2891 18396.299 0
8061.9023 7363.1099 18301.402 0
8085.5352 7286.3857 18110.701 0
8083.2515 7188.6294 17867.723 256
8106.4863 7115.8086 17686.723 2
8105.7505 7024.0806 17458.727 1
8261.3652 7068.4448 17568.996 260
8325.6963 7034.5737 17484.809 773
8403.3838 7012.6841 17430.4 2900804
7833.0151 6457.1055 16049.48 3757142
8223.6953 6697.6001 16647.242 7573906
9671.1621 7782.8198 19344.613 6981513
9594.5732 7630.4731 18965.949 5007210
9420.8359 7405.3018 18406.271 4677990
8760.9971 6807.5815 16920.607 7244432
8181.9102 6285.4634 15622.854 5463398
7202.2983 5470.8257 13598.029 7
7424.8193 5577.2681 13862.598 10
7696.2329 5717.6978 14211.643 7
7518.1807 5524.7852 13732.148 7
7615.7407 5536.3765 13760.959 4
7619.022 5479.9131 13620.616 3
7852.5322 5588.4858 13890.479 4
8352.2285 5882.2671 14620.688 4
8083.4326 5634.3413 14004.457 4
8187.5371 5648.7407 14040.247 4
8086.0151 5522.4155 13726.258 1285
8303.5195 5614.3193 13954.69 1120792
8891.9219 5952.7026 14795.761 7105646
8056.3652 5340.5239 13274.157 0
8447.1455 5545.2676 13783.059 0
8517.2354 5537.5781 13763.945 256
8584.4844 5528.2046 13740.647 256
8653.1562 5519.9155 13720.045 256
8711.9766 5505.5562 13684.354 256
8742.2939 5473.6167 13604.967 0
8807.3682 5463.8237 13580.626 256
10076.859 6194.6079 15397.029 256
8890.6768 5416.2334 13462.337 256
8926.9668 5389.8354 13396.725 256
8976.9824 5372.1187 13352.688 256
9012.292 5345.9888 13287.74 256
9065.8701 5331.0547 13250.621 256
9112.9297 5312.5786 13204.698 256
9142.1084 5284.0825 13133.87 256
9212.9863 5279.9673 13123.641 256
8394.3057 4770.394 11857.069 256
9207.4482 5188.9326 12897.369 256
9295.0918 5195.0757 12912.638 256
9344.4727 5179.9067 12874.935 256
9409.2061 5173.4263 12858.827 257
9429.4121 5142.7651 12782.617 257
9465.9072 5121.4072 12729.53 3
9506.2246 5102.439 12682.384 260
9643.0518 5135.1631 12763.723 260
9655.543 5101.6816 12680.502 260
9839.7324 5158.7363 12822.314 260
9661.1152 5026.1641 12492.8 262
9977.0957 5150.9648 12802.998 775
0 0 0 0
0 0 0 0
0 0 0 0
0 0 0 0
0 0 0 0
0 0 0 0
0 0 0 0
0 0 0 0
0 0 0 0
0 0 0 0
0 0 0 0
0 0 0 0
0 0 0 0
0 0 0 0
0 0 0 0
0 0 0 0
0 0 0 0
0 0 0 0
16784.467 7568.7036 18812.416 1251097
0 0 0 0
13391.782 5959.4263 14812.472 263945
12399.575 5481.8511 13625.434 1185562
12966.279 5695.1963 14155.714 197894
13742.908 5997.4014 14906.861 258
16808.705 7288.3281 18115.529 593681
18587.771 8008.4419 19905.41 2239277
0 0 0 0
0 0 0 0
0 0 0 0
0 0 0 0
18279.166 7632.5869 18971.203 1911598
18192.059 7549.646 18765.049 1517097
0 0 0 0
0 0 0 0
0 0 0 0
-9521.4355 4278.1895 10478.869 0
-9462.8574 4279.8638 10482.971 0
-9406.3809 4282.5171 10489.469 0
-9349.8164 4285.165 10495.955 0
-9296.0596 4289.144 10505.701 0
-9240.3584 4292.2739 10513.367 0
-9185.9795 4296.0649 10522.652 0
-9129.918 4299.1157 10530.125 0
-9071.0811 4300.8921 10534.476 0
-9014.1895 4303.6221 10541.163 65536
-8956.8262 4306.1631 10547.388 0
-8897.249 4307.6689 10551.076 0
-8837.2578 4308.9941 10554.321 0
-8777.6182 4310.5107 10558.036 0
-8719.3203 4312.7129 10563.43 0
-8659.3096 4314.0938 10566.812 0
-8599.3604 4315.5249 10570.318 0
-8538.0059 4316.2676 10572.137 0
-8476.7637 4317.0786 10574.123 0
-8414.6816 4317.4707 10575.083 0
-8354.0811 4318.6333 10577.932 65536
-8293.1533 4319.6445 10580.408 65536
-8235.0693 4322.1631 10586.577 65536
-8177.4087 4324.9448 10593.391 65536
-8121.9946 4328.9668 10603.241 65536
-8072.4307 4336.1943 10620.944 65536
-8027.9316 4346.2778 10645.643 0
-7984.0845 4356.8765 10671.604 0
-7942.7798 4369.0444 10701.407 0
-7900.7441 4381.0034 10730.698 0
-7847.23 4386.7402 10744.75 0
-7795.0146 4393.3027 10760.824 0
-7745.4058 4401.4556 10780.793 0
-7700.9575 4412.7012 10808.338 0
-7649.8604 4420.2944 10826.937 0
-7595.2012 4425.9399 10840.765 0
-7538.4014 4430.4243 10851.749 0
-7487.1138 4438.2544 10870.928 0
-7444.5366 4451.4282 10903.195 0
-7398.4731 4462.7314 10930.881 0
-7345.5269 4470.0454 10948.796 0
-7300.5796 4482.4019 10979.062 65536
-7259.0122 4497.0752 11015.002 65536
-7208.0181 4506.1226 11037.162 65536
-7174.4648 4526.3394 11086.68 65536
-7133.6401 4542.3003 11125.775 65536
-7106.1426 4567.1265 11186.582 0
-7087.1543 4597.9414 11262.06 0
-7053.437 4619.6968 11315.347 0
-7015.4775 4639.0659 11362.789 0
-6996.2114 4671.2935 11441.727 0
-6956.2236 4690.1821 11487.991 0
-6931.1138 4719.5757 11559.987 0
-6918.2212 4757.96 11654.005 0
-6894.8672 4789.853 11732.123 0
-6852.7314 4809.2178 11779.555 0
-6824.873 4839.105 11852.759 0
-6798.3701 4870.5864 11929.868 0
-6769.2031 4900.8027 12003.88 0
-6748.4468 4937.8169 12094.541 0
-6730.0649 4977.3843 12191.456 0
-6709.3145 5016.0425 12286.144 0
-6691.3906 5057.6875 12388.148 0
-6671.5503 5098.7939 12488.834 0
-6652.4868 5141.4268 12593.257 65536
-6647.3882 5195.9448 12726.792 65536
-6618.2661 5232.7241 12816.878 65536
-6612.9409 5289.3936 12955.682 65536
-6577.6343 5323.1357 13038.329 65536
-6553.9751 5367.2202 13146.309 0
-6502.8706 5389.6211 13201.177 0
-6468.8013 5426.8608 13292.391 0
-6464.2856 5490.1216 13447.34 0
-6463.8667 5558.4893 13614.797 0
-6371.8335 5548.8091 13591.087 256
-6309.5195 5565.0938 13630.974 256
-6276.8247 5608.2656 13736.718 256
-6233.8491 5643.269 13822.454 256
-6200.0605 5687.6353 13931.123 256
-6153.9463 5721.7417 14014.663 256
-6105.2637 5754.3638 14094.567 0
-6062.0718 5793.1411 14189.546 0
-6018.1445 5832.2993 14285.459 0
-5985.4165 5883.5874 14411.082 0
-5937.6216 5921.3379 14503.548 0
-5886.6699 5957.0073 14590.915 0
-5836.7461 5994.7988 14683.48 0
-5875.2339 6125.9214 15004.648 0
-6302.0122 6672.1841 16342.648 0
-5985.5029 6436.2822 15764.838 0
-5806.5869 6343.187 15536.813 0
-5767.7397 6402.5684 15682.26 0
-5685.7036 6415.1699 15713.126 0
-5494.4316 6302.8838 15438.096 0
-5408.4868 6309.6616 15454.695 0
-5341.1758 6338.7866 15526.035 0
-5283.4048 6380.457 15628.101 0
-5217.5039 6413.6255 15709.342 0
-5147.7812 6443.2188 15781.827 0
-5086.2739 6484.3833 15882.654 0
-5092.3008 6614.8315 16202.171 0
-4991.082 6608.3125 16186.203 0
-4892.9521 6605.7075 16179.823 0
-4809.7817 6623.5986 16223.644 0
-4733.8877 6652.4468 16294.305 0
-4661.4028 6687.3916 16379.897 0
-4607.0693 6750.4229 16534.283 0
-4520.0347 6767.2432 16575.482 0
-4442.2793 6799.0137 16653.301 0
-4358.0938 6822.1675 16710.012 0
-4279.2021 6854.8809 16790.141 0
-4211.8818 6908.1357 16920.58 0
-4129.0898 6937.9985 16993.727 0
-4051.3103 6977.9927 17091.688 0
-3975.8523 7024.146 17204.732 0
-3907.3005 7085.2593 17354.422 0
-3848.8748 7168.5459 17558.422 0
-3762.2554 7202.5005 17641.59 0
-3589.9153 7069.5923 17316.049 0
-3584.5256 7267.3169 17800.35 0
-3491.1052 7293.166 17863.662 0
-3398.8582 7323.1636 17937.139 0
-3327.3408 7401.2148 18128.314 0
-3318.1245 7627.708 18683.08 0
-3157.9238 7510.7847 18396.691 0
-3064.3657 7549.6611 18491.914 0
-2954.1316 7548.8179 18489.848 0
-2708.8879 7189.5825 17609.949 256
-2261.334 6242.9482 15291.291 1645337
-2205.5598 6343.9287 15538.629 2105888
-2233.6167 6705.3989 16424.004 256
-2464.1436 7735.5063 18947.117 256
-2406.1887 7915.2949 19387.486 1250579
-2308.0256 7974.249 19531.887 0
-2211.9133 8046.9087 19709.857 256
0 0 0 0
0 0 0 0
0 0 0 0
0 0 0 0
0 0 0 0
0 0 0 0
0 0 0 0
0 0 0 0
0 0 0 0
0 0 0 0
0 0 0 0
0 0 0 0
-650.5675 7597.3779 18608.789 2303783
-543.70453 7649.9355 18737.523 6646891
0 0 0 0
-328.79602 7836.2788 19193.947 2
-212.39915 7751.5869 18986.504 2
-96.812981 7538.0254 18463.414 2
12.992336 7579.374 18564.691 2
123.0635 7563.0757 18524.771 2
228.93748 7426.0259 18189.086 2
336.24039 7408.375 18145.852 1
445.12311 7425.6523 18188.17 1
563.88574 7568.791 18538.77 855566
696.7677 7823.6753 19163.076 197379
786.08081 7586.457 18582.041 256
892.16101 7549.5679 18491.686 256
1002.0753 7549.6577 18491.906 256
1117.7681 7588.9614 18588.174 65793
1222.5981 7554.0767 18502.73 0
1321.4503 7491.0625 18348.385 0
1408.1615 7374.0781 18061.846 1579032
1542.4701 7505.2617 18383.164 0
1640.6412 7454.8867 18259.777 0
1745.4091 7438.8779 18220.564 0
1864.679 7482.9355 18328.479 0
1983.8804 7521.8706 18423.844 0
2071.5293 7443.3584 18231.539 0
2132.9036 7282.9355 17838.604 2565927
2293.666 7461.0024 18274.756 0
2412.2065 7491.8335 18350.273 0
2640.938 7847.4268 19221.252 0
2612.3972 7440.7559 18225.164 0
2703.1357 7392.6772 18107.402 0
2825.7192 7432.0371 18203.809 526343
2953.0793 7480.5933 18322.742 256
2996.5901 7320.8481 17931.467 0
3162.6489 7461.1851 18275.203 263428
3287.5979 7498.438 18366.449 256
3379.0427 7459.3345 18270.672 131843
3537.9602 7566.9785 18534.33 0
3605.417 7478.4106 18317.395 0
3742.6399 7535.5029 18457.236 0
3862.1155 7554.6304 18504.086 1
4000.2388 7608.1641 18635.209 65539
4167.2842 7712.3384 18890.371 4
4357.9663 7853.6445 19236.482 518
4207.0967 7387.938 18095.795 8426646
0 0 0 0
0 0 0 0
0 0 0 0
0 0 0 0
0 0 0 0
0 0 0 0
0 0 0 0
0 0 0 0
0 0 0 0
0 0 0 0
0 0 0 0
5756.7246 7736.0337 18948.41 258
5709.5869 7525.4707 18432.662 260
5796.9702 7496.8018 18362.441 4
5803.9897 7367.1846 18044.961 4
5814.2881 7246.3569 17749.01 2
5974.4521 7313.2852 17912.941 2
6140.0151 7384.3618 18087.035 1
6290.9146 7435.6616 18212.688 0
6410.2861 7448.5913 18244.357 0
6558.5229 7494.0737 18355.76 0
6694.0918 7523.8296 18428.643 0
6840.0396 7564.1055 18527.293 0
6941.7197 7554.9268 18504.811 0
7029.0757 7530.687 18445.439 0
7212.5322 7608.5698 18636.203 0
7374.7778 7662.0591 18767.219 0
7477.7749 7653.3159 18745.803 0
7485.1445 7548.3936 18488.809 0
7533.7842 7487.5239 18339.717 0
7601.5562 7447.1338 18240.787 0
7663.6782 7402.4229 18131.273 0
7741.9126 7374.2988 18062.387 0
7952.2593 7471.0625 18299.396 0
7952.9517 7370.9043 18054.072 0
8021.0371 7335.0425 17966.232 0
8072.6069 7285.2178 17844.193 256
8129.0005 7240.9814 17735.844 2
7307.6392 6426.019 15739.698 2
8218.9971 7136.0771 17478.893 260
8237.2607 7062.666 17299.084 395274
8273.2881 7006.1094 17160.555 1582117
7579.4609 6340.3892 15529.96 2899006
0 0 0 0
0 0 0 0
0 0 0 0
9678.3115 7720.0757 18909.322 7770262
8423.5176 6642.04 16268.813 7112074
8039.0537 6266.9497 15350.078 4939880
7501.3662 5782.1694 14162.672 9809076
7567.2471 5768.2256 14128.519 4
7448.5811 5615.458 13754.335 3
7525.3193 5611.7231 13745.188 6
7656.2412 5648.04 13834.141 5
7766.2891 5668.3501 13883.887 3
7887.2026 5696.0801 13951.809 4
7978.9688 5702.4019 13967.292 4
7920.0132 5601.9849 13721.334 4
8082.3555 5658.5479 13859.878 4
8136.6562 5639.0918 13812.223 2
8257.5449 5665.7129 13877.427 2
8251.5752 5605.626 13730.252 2
8366.2412 5627.8672 13784.729 257
8446.1104 5626.4956 13781.37 256
8509.5068 5614.2822 13751.455 256
8584.6855 5610.0015 13740.97 256
8640.4248 5593.2178 13699.86 256
8709.9561 5585.5918 13681.181 256
8765.9707 5569.519 13641.812 0
8848.9961 5570.7446 13644.815 256
9150.7383 5708.3872 13981.953 256
8990.4277 5557.9106 13613.381 256
8957.582 5488.2144 13442.668 256
9016.957 5475.7534 13412.146 256
9045.0908 5444.7051 13336.098 256
9080.4365 5418.5005 13271.913 256
9169.584 5424.5747 13286.791 256
9170.4502 5378.7656 13174.587 256
9221.1572 5362.7178 13135.28 0
9249.5771 5334.0864 13065.151 256
9293.1465 5314.5957 13017.412 256
9367.1006 5312.6602 13012.671 256
9420.6533 5299.2803 12979.898 256
9461.0664 5278.7866 12929.701 256
9515.2852 5266.2632 12899.027 256
9550.1465 5243.3125 12842.812 2
9592.3135 5224.7056 12797.237 2
9670.2305 5225.71 12799.697 258
9731.042 5217.5269 12779.654 260
9974.125 5306.4434 12997.443 66051
9388.9385 4956.7231 12140.849 2172457
9691.4912 5077.4282 12436.501 922903
0 0 0 0
0 0 0 0
0 0 0 0
0 0 0 0
0 0 0 0
0 0 0 0
0 0 0 0
0 0 0 0
0 0 0 0
0 0 0 0
0 0 0 0
0 0 0 0
0 0 0 0
0 0 0 0
0 0 0 0
0 0 0 0
0 0 0 0
0 0 0 0
16414.428 7511.1836 18397.668 789775
13876.139 6307.6528 15449.776 0
13190.034 5956.3564 14589.321 1185560
12227.69 5485.7188 13436.556 66050
12938.255 5766.8374 14125.118 2237991
13734.49 6082.27 14897.73 0
15722.036 6917.8501 16944.375 2501677
0 0 0 0
0 0 0 0
0 0 0 0
0 0 0 0
0 0 0 0
19230.648 8148.5063 19958.707 66565
17856.613 7519.9077 18419.037 1515811
0 0 0 0
0 0 0 0
0 0 0 0
-9572.2305 4363.6245 10534.772 0
-9517.8564 4367.4048 10543.897 0
-9456.498 4368.0083 10545.355 0
-9402.1807 4371.895 10554.738 0
-9343.5625 4373.8193 10559.385 0
-9282.6738 4374.7002 10561.512 0
-9224.8418 4377.0444 10567.17 0
-9165.4668 4378.6826 10571.125 0
-9107.2793 4380.9146 10576.514 0
-9049.832 4383.5361 10582.843 0
-8994.7656 4387.3555 10592.064 0
-8937.8838 4390.3379 10599.264 0
-8881.0146 4393.3687 10606.58 0
-8823.7959 4396.2676 10613.58 0
-8767.7578 4399.8013 10622.111 0
-8708.5713 4401.7959 10626.926 0
-8646.8154 4402.5103 10628.65 0
-8585.9844 4403.7095 10631.546 0
-8525.0508 4404.874 10634.357 0
-8464.3096 4406.1558 10637.452 0
-8404.1533 4407.7637 10641.334 65536
-8343.666 4409.2207 10644.852 65536
-8286.3037 4412.3647 10652.441 65536
-8231.0781 4416.7031 10662.916 65536
-8174.0103 4420.1128 10671.147 65536
-8123.5562 4427.1807 10688.21 65536
-8074.9443 4435.3711 10707.984 0
-8030.2866 4445.8813 10733.358 0
-7993.2119 4460.7915 10769.354 0
-7950.0522 4472.519 10797.668 0
-7896.21 4478.3789 10811.814 0
-7843.918 4485.2217 10828.335 0
-7792.1709 4492.4917 10845.886 0
-7747.6343 4504.0742 10873.85 0
-7697.6069 4512.6333 10894.513 0
-7648.0195 4521.5977 10916.154 0
-7600.7969 4532.125 10941.569 0
-7553.9668 4543.0703 10967.994 0
-7502.2031 4551.2139 10987.654 0
-7457.7417 4563.9683 11018.447 0
-7419.6665 4580.8916 11059.304 0
-7365.6592 4588.1938 11076.933 65536
-7329.7852 4607.0249 11122.395 65536
-7289.0767 4623.1318 11161.281 65536
-7245.5049 4637.7026 11196.458 65536
-7206.8584 4655.7246 11239.968 65536
-7182.0581 4683.1128 11306.089 0
-7146.8506 4704.1685 11356.921 0
-7083.7407 4707.084 11363.961 0
-7045.3457 4726.6377 11411.167 0
-7020.1885 4755.5376 11480.938 0
-6977.0747 4772.7222 11522.426 0
-6941.7422 4795.6226 11577.713 0
-6919.1855 4827.897 11655.63 0
-6910.4287 4870.5498 11758.604 0
-6878.5615 4897.6191 11823.955 0
-6849.687 4927.4004 11895.854 0
-6826.0396 4961.6016 11978.423 0
-6798.7993 4993.8853 12056.363 0
-6770.7173 5026.2314 12134.454 0
-6753.7437 5067.6099 12234.351 0
-6732.1909 5106.4155 12328.036 0
-6703.3599 5140.4932 12410.308 0
-6675.6328 5176.1851 12496.476 0
-6652.6997 5216.4395 12593.659 65536
-6644.063 5268.9478 12720.426 65536
-6616.7666 5307.6963 12813.974 0
-6567.0225 5329.1309 12865.722 0
-6521.6934 5354.6958 12927.441 0
-6474.9995 5379.7358 12987.894 0
-6427.7544 5404.917 13048.687 0
-6364.4868 5417.0757 13078.04 0
-6335.5679 5459.1323 13179.574 0
-6348.3979 5538.666 13371.586 0
-6250.8716 5522.7144 13333.075 256
-6244.8345 5588.2231 13491.229 256
-6232.4077 5649.6436 13639.512 256
-6211.1948 5704.6143 13772.223 256
-6188.9409 5760.0835 13906.138 256
-6095.1011 5749.5269 13880.652 256
-6021.8403 5758.3594 13901.976 256
-5976.9863 5794.9795 13990.386 256
-5914.4399 5815.2373 14039.292 0
-5869.3169 5853.4512 14131.549 0
-5822.7729 5891.3369 14223.014 0
-5782.8945 5937.1821 14333.694 0
-5739.8276 5981.0757 14439.663 0
-6219.0171 6578.7695 15882.63 0
-5071.1069 5447.1353 13150.611 131585
-5037.4248 5495.6577 13267.755 0
-5708.6318 6326.9624 15274.712 0
-5592.0288 6297.8833 15204.508 0
-5534.6665 6335.6631 15295.717 0
-5421.8237 6310.1348 15234.085 0
-5274.6445 6243.0977 15072.243 0
-5203.5112 6265.3076 15125.863 0
-5193.9219 6363.7036 15363.413 0
-5078.248 6333.3184 15290.057 0
-5006.5908 6357.7217 15348.972 0
-4990.7422 6455.2153 15584.343 0
-5054.7065 6661.582 16082.558 0
-4977.9995 6686.9399 16143.777 0
-4884.8154 6690.7251 16152.916 0
-4809.2896 6719.3335 16221.983 0
-4745.9756 6766.5244 16335.913 0
-4662.9194 6786.9507 16385.227 0
-4583.417 6813.5317 16449.398 0
-4507.4858 6846.6948 16529.463 0
-4427.6226 6875.231 16598.355 0
-4347.4634 6904.5972 16669.252 0
-4273.1738 6944.873 16766.486 0
-4188.1514 6969.2124 16825.248 0
-4107.8203 7002.7393 16906.189 0
-4026.9192 7036.9521 16988.787 0
-3949.811 7079.7227 17092.045 0
-3856.7937 7095.4829 17130.094 0
-3784.4895 7151.2378 17264.697 0
-3770.1113 7322.6089 17678.426 0
-3680.9709 7354.4331 17755.258 0
-3572.1252 7347.6045 17738.771 0
-3493.0647 7403.4897 17873.689 0
-3415.2102 7465.5156 18023.436 0
-3552.0398 8016.0454 19352.539 0
0 0 0 0
-3306.5007 7978.6411 19262.236 0
-3166.6523 7915.2368 19109.164 0
-3057.3052 7926.1904 19135.607 0
-2644.031 7119.605 17188.328 0
-2119.9915 5937.9399 14335.524 0
0 0 0 0
-2157.575 6571.4092 15864.861 256
-2438.9236 7767.7915 18753.197 256
-2115.8706 7061.6001 17048.293 2500647
-2186.2485 7663.4688 18501.338 0
0 0 0 0
0 0 0 0
0 0 0 0
0 0 0 0
0 0 0 0
0 0 0 0
0 0 0 0
0 0 0 0
0 0 0 0
0 0 0 0
0 0 0 0
0 0 0 0
0 0 0 0
-691.71423 8195.4863 19785.748 0
-546.76538 7804.9922 18843.008 0
-439.77264 7894.7109 19059.609 256
-328.71185 7948.3198 19189.033 395014
-211.43826 7828.8511 18900.609 5724759
-99.351067 7848.2568 18947.459 658698
13.099663 7753.2329 18718.051 2105631
126.82587 7907.7637 19091.121 256
229.01062 7536.5356 18194.895 0
337.69968 7548.8428 18224.605 0
446.26126 7553.0137 18234.676 0
572.56152 7797.1196 18824.002 131843
671.24554 7646.8198 18461.145 1711131
783.02808 7667.0054 18509.877 256
890.78906 7647.6919 18463.25 257
1001.6871 7656.5938 18484.74 256
1116.5558 7691.0864 18568.014 0
1230.6178 7714.3174 18624.1 0
1334.765 7676.6909 18533.26 0
1437.3024 7636.248 18435.621 0
1551.3979 7658.5928 18489.566 0
1633.0005 7528.187 18174.738 0
1756.1825 7593.7529 18333.029 0
1857.2903 7561.7852 18255.852 0
1953.3232 7513.8257 18140.066 0
2053.6128 7486.3999 18073.855 0
2188.8279 7582.6934 18306.328 0
2312.9705 7633.3237 18428.562 0
2383.4512 7510.2876 18131.525 256
2533.1987 7636.8623 18437.105 256
2596.6997 7503.7129 18115.652 256
2746.4744 7620.5459 18397.713 0
2850.3713 7606.0112 18362.623 0
2933.0161 7537.9297 18198.258 0
2971.5496 7365.355 17781.625 0
3162.936 7570.4878 18276.861 256
3300.7661 7638.0684 18440.016 256
3443.5156 7712.3223 18619.281 9149588
3568.8606 7744.186 18696.207 1
3663.3882 7709.2729 18611.92 256
3756.3835 7673.2759 18525.016 256
3886.978 7713.9478 18623.205 256
4010.8218 7739.3403 18684.51 2
4197.5361 7881.4131 19027.506 4
4348.8296 7951.2686 19196.152 260
4154.6777 7402.0967 17870.328 7571850
0 0 0 0
0 0 0 0
0 0 0 0
0 0 0 0
0 0 0 0
0 0 0 0
0 0 0 0
5465.1421 8083.6636 19515.783 259
5086.7056 7367.541 17786.902 264202
0 0 0 0
0 0 0 0
5660.584 7717.5737 18631.961 1185562
5623.2573 7519.5801 18153.959 131845
5815.1982 7629.8521 18420.182 259
5783.5991 7448.1724 17981.564 2
5855.8979 7404.4585 17876.029 1
5926.7275 7360.4775 17769.85 256
6094.4224 7436.229 17952.73 256
6320.4385 7579.3105 18298.162 0
6397.7573 7542.2539 18208.699 0
6531.5361 7571.8833 18280.23 0
6680.749 7618.1426 18391.91 0
6811.7871 7642.5205 18450.766 0
6957.1577 7681.9521 18545.963 0
7024.6074 7635.4575 18433.713 0
7177.4761 7681.812 18545.623 0
7356.9385 7754.7954 18721.822 0
7498.4517 7786.1987 18797.637 0
7566.1865 7741.1958 18688.988 0
7618.186 7681.6284 18545.18 0
7636.9106 7590.6865 18325.625 0
7650.4438 7497.2148 18099.963 0
7714.0664 7454.7397 17997.42 0
7806.2188 7440.6211 17963.334 0
7888.4932 7417.5952 17907.744 0
8066.0796 7483.6118 18067.123 0
8071.9805 7390.6978 17842.809 256
8084.2178 7305.9204 17638.137 257
8104.5645 7230.5488 17456.172 2
8236.8613 7255.6963 17516.885 258
8236.8145 7165.0923 17298.146 4
8107.5825 6965.7324 16816.846 258
8442.9912 7165.5679 17299.293 260
9578.0605 8031.1016 19388.887 1251870
9700.377 8036.9683 19403.051 4611682
9639.7158 7892.8779 19055.184 5401967
8943.3682 7237.686 17473.402 6847873
8388.335 6710.5845 16200.862 7242117
7940.7168 6280.4038 15162.31 3161411
7808.6621 6106.6597 14742.851 856598
7246.647 5604.2573 13529.938 1252129
7481.2759 5722.2124 13814.709 3291709
7547.04 5709.8486 13784.86 3
7619.4624 5702.7349 13767.686 1514268
7659.522 5671.8066 13693.019 2
7881.3057 5774.6797 13941.377 2
7990.2827 5793.6182 13987.098 3
8039.6519 5769.3906 13928.607 3
8156.2656 5793.4209 13986.622 4
8268.0557 5813.5747 14035.277 2
8350.4795 5812.8838 14033.609 2
8326.3701 5738.7803 13854.707 257
8332.8125 5686.9795 13729.648 1
8420.5156 5691.1045 13739.607 256
8495.0723 5686.3501 13728.13 256
8563.6641 5677.7314 13707.322 256
8627.2402 5665.9814 13678.955 256
8698.1348 5659.2124 13662.612 256
8773.4258 5655.4019 13653.413 0
8849.8496 5652.3857 13646.132 256
8920.7725 5645.9419 13630.574 256
8979.9629 5632.2563 13597.535 256
9011.9336 5601.894 13524.233 256
9150.8281 5637.9468 13611.272 256
9123.0654 5571.5869 13451.064 256
9034.4355 5469.5298 13204.677 256
9078.7451 5449.0215 13155.164 256
9234.5762 5495.2256 13266.712 256
9211.207 5434.9136 13121.105 0
9225.7041 5397.7695 13031.431 256
9260.2256 5372.8618 12971.298 256
9416.3506 5418.3379 13081.088 256
9485.373 5413.3599 13069.069 256
9493.333 5373.897 12973.797 256
9555.8008 5365.6768 12953.951 256
9553.7627 5321.6562 12847.676 2
9617.5762 5314.7241 12830.94 2
9820.9004 5384.3892 12999.127 2
9851.4473 5358.9785 12937.78 2
9996.4688 5395.752 13026.56 2040614
10056.273 5386.3159 13003.779 198152
9995.7344 5313.0576 12826.917 921618
10237.119 5400.1758 13037.239 461066
0 0 0 0
0 0 0 0
0 0 0 0
0 0 0 0
0 0 0 0
0 0 0 0
0 0 0 0
0 0 0 0
0 0 0 0
0 0 0 0
0 0 0 0
0 0 0 0
0 0 0 0
0 0 0 0
0 0 0 0
0 0 0 0
0 0 0 0
0 0 0 0
0 0 0 0
16262.398 7450.6821 17987.623 527372
12685.236 5773.8345 13939.336 0
13555.217 6129.7827 14798.676 329480
13295.932 5973.771 14422.028 1053461
0 0 0 0
18060.371 8011.1104 19340.623 2567215
0 0 0 0
18499.654 8102.8213 19562.035 1580320
0 0 0 0
18663.77 8073.2285 19490.592 2238506
18588.266 7990.9722 19292.006 1514785
18707.596 7992.9683 19296.824 2173228
0 0 0 0
0 0 0 0
0 0 0 0
-9635.7803 4455.6221 10604.712 0
-9569.9922 4454.3369 10601.653 0
-9511.3359 4456.377 10606.509 0
-9452.9023 4458.5488 10611.678 0
-9396.5205 4461.7236 10619.234 0
-9345.9941 4467.7407 10633.556 0
-9290.2822 4471.3442 10642.133 0
-9230.2842 4472.9199 10645.883 0
-9167.4482 4473.1328 10646.39 0
-9108.4736 4475.2461 10651.419 0
-9048.2852 4476.7881 10655.089 0
-8988.5098 4478.5576 10659.301 0
-8929.3359 4480.6538 10664.29 0
-8870.9541 4483.1807 10670.304 0
-8814.0967 4486.5195 10678.251 0
-8756.4209 4489.4878 10685.315 0
-8694.4717 4490.292 10687.229 0
-8633.0908 4491.4038 10689.875 0
-8575.0859 4494.3013 10696.771 0
-8514.8984 4496.0898 10701.028 0
-8453.7119 4497.374 10704.085 65536
-8392.2939 4498.5532 10706.892 65536
-8332.5234 4500.6406 10711.859 65536
-8276.666 4504.8901 10721.974 65536
-8219.1621 4508.3018 10730.094 65536
-8169.6675 4516.1948 10748.88 65536
-8121.5312 4524.9688 10769.762 0
-8076.4932 4535.6221 10795.118 0
-8035.9136 4548.9697 10826.887 0
-7992.9697 4561.1846 10855.958 0
-7940.519 4568.1279 10872.484 0
-7888.2798 4575.3086 10889.575 0
-7839.7207 4584.7598 10912.069 0
-7797.3804 4598.0361 10943.668 0
-7747.7666 4607.2104 10965.504 0
-7698.3755 4616.6738 10988.027 0
-7652.501 4628.4263 11015.999 0
-7604.1562 4638.8745 11040.867 0
-7559.1182 4651.5396 11071.011 0
-7519.6045 4667.8564 11109.846 0
-7469.8887 4678.0728 11134.162 0
-7434.625 4697.604 11180.647 65536
-7380.4448 4705.4272 11199.267 65536
-7345.9067 4726.0288 11248.301 65536
-7302.582 4741.3047 11284.658 65536
-7255.6733 4754.5156 11316.101 65536
-7215.8706 4772.6733 11359.317 0
-7182.5435 4795.4971 11413.64 0
-7121.2393 4799.8994 11424.117 0
-7086.562 4822.5063 11477.924 0
-7066.1265 4855.3384 11556.066 0
-7032.7148 4879.811 11614.313 0
-6996.1548 4902.563 11668.465 0
-6965.0288 4929.6167 11732.854 0
-6935.2817 4958.2031 11800.893 0
-6905.5762 4987.4038 11870.392 0
-6873.1152 5015.1963 11936.541 0
-6841.8496 5044.4502 12006.167 0
-6811.105 5074.709 12078.186 0
-6780.0142 5105.3516 12151.116 0
-6770.4683 5153.0522 12264.647 0
-6743.0732 5188.0576 12347.963 0
-6715.3833 5223.604 12432.566 0
-6683.2236 5256.4263 12510.687 0
-6646.6289 5286.4595 12582.168 65536
-6630.2246 5333.418 12693.932 65536
-6634.7749 5398.5068 12848.849 65536
-6602.1289 5434.4941 12934.501 65536
-6601.9951 5498.4067 13086.617 65536
-6583.3174 5548.2148 13205.165 0
-6544.1523 5581.7505 13284.981 0
-6485.3169 5599.1226 13326.329 0
-6427.5762 5617.8813 13370.976 0
-6419.5601 5681.1138 13521.474 0
-6271.145 5620.1265 13376.319 256
-6226.4434 5651.7129 13451.497 256
-6183.2568 5685.5146 13531.947 256
-6106.5532 5688.981 13540.198 256
-6070.4814 5730.8999 13639.968 256
-6023.0127 5763.0474 13716.482 256
-5971.5117 5792.1665 13785.788 256
-5958.1235 5859.5786 13946.233 256
-5967.1802 5951.2773 14164.483 0
-5971.0635 6040.3672 14376.524 0
-5923.7856 6079.5376 14469.752 0
-5874.1602 6117.417 14559.907 0
-5827.415 6159.4741 14660.007 0
-5781.5576 6203.7593 14765.409 0
-6081.1533 6625.8042 15769.907 0
-5712.5439 6321.6128 15045.909 0
-5636.8022 6336.9937 15082.516 0
-5608.041 6406.541 15248.045 0
-5543.6436 6436.9946 15320.526 0
-5479.0889 6468.2798 15394.987 0
-5407.2129 6491.8369 15451.056 0
-5335.9922 6517.0093 15510.967 0
-5276.5894 6557.7529 15607.94 0
-5184.5864 6558.7153 15610.23 0
-5075.9214 6538.25 15561.521 0
-4990.0347 6546.9102 15582.134 0
-4964.5522 6636.6465 15795.713 0
-4898.0044 6673.8882 15884.351 0
-4837.7588 6721.3486 15997.311 0
-4848.165 6870.8408 16353.113 0
-4709.7485 6811.2217 16211.216 0
-4632.1206 6838.8628 16277.002 0
-4565.3535 6884.0581 16384.57 0
-4491.354 6920.0796 16470.305 0
-4408.0166 6942.999 16524.855 0
-4331.7959 6978.4287 16609.18 0
-4255.7769 7015.8433 16698.229 0
-4181.9985 7058.8252 16800.529 0
-4092.4766 7076.6865 16843.041 0
-4014.8369 7116.5054 16937.812 0
-3939.8452 7163.1875 17048.92 0
-3858.0361 7199.6113 17135.611 0
-3778.3828 7242.1436 17236.84 0
-3712.8525 7314.8691 17409.934 0
-3673.5034 7444.8257 17719.238 0
-3704.3284 7728.8652 18395.275 0
-3606.7512 7754.1318 18455.412 0
-3539.7014 7848.6729 18680.426 0
-3429.8928 7851.4556 18687.049 0
-3516.887 8320.0068 19802.236 0
-3301.6941 8081.3584 19234.234 0
-3147.7139 7980.792 18994.879 0
-3039.8157 7993.9272 19026.143 0
-2949.6597 8056.5386 19175.16 0
-2769.4126 7868.2222 18726.953 0
-2378.7229 7041.2085 16758.6 0
-2552.2725 7885.0942 18767.111 0
-2545.637 8223.999 19573.73 0
-2195.5264 7432.5859 17690.107 0
0 0 0 0
0 0 0 0
0 0 0 0
0 0 0 0
0 0 0 0
0 0 0 0
0 0 0 0
0 0 0 0
0 0 0 0
0 0 0 0
0 0 0 0
0 0 0 0
0 0 0 0
0 0 0 0
0 0 0 0
0 0 0 0
-456.32547 8309.4053 19777.004 0
-325.92245 7993.9507 19026.197 592393
-219.58345 8247.1006 19628.713 592649
-95.760544 7673.1636 18262.701 592394
12.914644 7753.4048 18453.68 257
121.88505 7708.7422 18347.379 256
231.07178 7713.479 18358.654 0
337.17599 7645.2832 18196.344 0
449.14337 7710.8691 18352.441 0
559.80432 7732.7778 18404.586 0
655.87048 7578.8755 18038.287 0
784.74963 7794.1143 18550.572 256
869.57581 7572.6899 18023.566 1053201
1002.667 7774.0527 18502.824 0
1118.8147 7817.2261 18605.58 0
1232.3336 7835.917 18650.066 0
1344.9852 7846.4644 18675.168 0
1442.8451 7775.6885 18506.717 0
1542.3734 7723.293 18382.012 0
1631.6951 7630.1011 18160.209 0
1763.7996 7736.1216 18412.545 0
1889.3293 7802.6021 18570.773 0
1944.4937 7587.1865 18058.068 0
2040.7877 7546.395 17960.982 0
2187.4597 7686.686 18294.885 0
2305.2849 7717.1235 18367.328 0
2348.5139 7506.3823 17865.748 0
2456.1475 7510.8198 17876.311 0
2606.0532 7638.7969 18180.906 0
2736.3196 7701.3091 18329.689 0
2766.4817 7488.0806 17822.189 0
2862.9836 7463.5205 17763.734 0
2964.5234 7453.3721 17739.58 0
3085.7002 7491.5972 17830.559 0
3189.4299 7486.3311 17818.025 0
3331.2876 7568.0229 18012.457 986894
3558.4661 7832.4238 18641.752 0
3675.5667 7845.8853 18673.791 0
3748.3818 7766.7964 18485.555 0
3893.3723 7837.5039 18653.842 256
4053.6431 7934.2036 18883.994 257
4229.5576 8055.4873 19172.658 514
4359.4922 8085.1323 19243.217 773
4327.4443 7820.5283 18613.439 6124403
0 0 0 0
0 0 0 0
0 0 0 0
0 0 0 0
0 0 0 0
0 0 0 0
0 0 0 0
5168.7842 7755.0093 18457.5 988440
5182.9653 7614.6768 18123.498 264
5622.957 8092.9116 19261.732 1250841
5590.8604 7886.1606 18769.648 2238249
5238.2256 7244.2095 17241.758 2
5534.1504 7506.6094 17866.289 4278346
5651.749 7521.7993 17902.441 257
5735.3057 7491.9585 17831.418 2
5796.7676 7434.8623 17695.525 2
5997.5771 7555.3413 17982.275 2
6289.3032 7784.1279 18526.805 256
6509.9004 7918.5205 18846.668 256
6569.0044 7855.2529 18696.086 0
6518.1719 7664.813 18242.826 0
6690.7437 7739.0122 18419.426 0
6857.207 7803.8706 18573.793 0
7082.8564 7932.9634 18881.043 0
6997.1235 7714.7134 18361.592 0
7120.1592 7729.8105 18397.523 0
7287.2275 7791.5308 18544.422 0
7426.0239 7821.6338 18616.07 0
7511.228 7795.2349 18553.238 0
7578.1401 7750.8892 18447.693 0
7652.7729 7715.5938 18363.688 0
7650.2715 7604.6167 18099.555 0
7688.6074 7536.749 17938.023 0
7764.2363 7506.793 17866.727 0
7853.1118 7490.2803 17827.424 0
7940.835 7473.1226 17786.588 0
8072.5742 7497.2954 17844.121 0
8091.1851 7417.1367 17653.338 0
8130.8027 7358.041 17512.686 1
8180.4668 7309.4155 17396.953 1
8148.917 7190.3442 17113.555 65539
8166.9565 7117.4243 16940 4
8438.8467 7264.8149 17290.801 4
8557.5381 7278.3599 17323.039 260
9077.2051 7628.5684 18156.561 3817284
9236.1182 7670.9272 18257.379 725269
8645.167 7096.7461 16890.783 4609369
8018.8818 6507.0732 15487.318 5598318
8057.418 6464.144 15385.144 8097425
7787.9741 6177.8706 14703.792 461068
7105.8521 5574.2231 13267.065 8
7228.1235 5607.9106 13347.245 6
7328.021 5623.6968 13384.817 262
7500.2056 5694.0225 13552.198 2106921
7520.772 5648.9712 13444.973 2765877
7426.3276 5519.3896 13136.559 2369061
7771.939 5716.1592 13604.884 260
7976.9854 5806.5571 13820.038 3
8055.4033 5803.8774 13813.66 3
8034.5005 5730.4136 13638.811 394759
8079.4204 5704.895 13578.074 2
8329.5752 5823.3643 13860.041 1
8438.6885 5841.8745 13904.097 256
8539.7021 5854.4731 13934.081 256
8482.4395 5759.3633 13707.714 256
8546.0938 5747.3828 13679.199 256
8601.3115 5730.0068 13637.843 256
8659.8008 5715.1152 13602.399 256
8730.9219 5708.7583 13587.27 0
8816.9727 5712.1895 13595.436 256
8890.5928 5707.5786 13584.462 256
8944.0117 5690.1987 13543.097 256
8977.8916 5660.8096 13473.147 256
9077.9492 5673.2974 13502.869 256
9120.0723 5649.6768 13446.651 512
8679.2578 5329.897 12685.552 5593946
8661.0537 5272.9136 12549.927 263686
9199.6133 5552.9702 13216.482 256
9266.1201 5545.7622 13199.327 256
9211.9883 5467.0801 13012.058 256
9213.8721 5422.6738 12906.367 0
9305.1104 5431.1558 12926.555 263429
9533.9873 5519.1768 13136.051 256
9634.8428 5532.2588 13167.188 256
9690.7861 5519.5498 13136.939 256
9554.5234 5398.4443 12848.699 256
9745.6729 5462.7852 13001.835 197380
10132.676 5635.0327 13411.798 1
10228.969 5644.1826 13433.574 1
10750.742 5886.146 14009.465 1
11282.314 6129.7139 14589.175 2
11639.349 6275.4619 14936.066 3
11105.067 5942.0806 14142.594 260
11949.046 6345.6445 15103.107 517
0 0 0 0
0 0 0 0
0 0 0 0
0 0 0 0
0 0 0 0
0 0 0 0
0 0 0 0
0 0 0 0
0 0 0 0
0 0 0 0
0 0 0 0
0 0 0 0
0 0 0 0
0 0 0 0
0 0 0 0
0 0 0 0
0 0 0 0
17295.146 8090.7222 19256.521 196608
16289.91 7570.3735 18018.053 1
15747.781 7270.6348 17304.652 258
13934.951 6391.9194 15213.244 257
13814.304 6295.729 14984.304 1053717
14603.666 6612.8418 15739.056 2040611
17225 7750.1924 18446.035 1382940
17774.691 7946.9409 18914.311 988182
17627.406 7831.5596 18639.695 725011
17095.477 7547.7979 17964.32 132874
17367.754 7620.418 18137.162 790547
18077.412 7882.8672 18761.811 264203
18438.592 7991.0718 19019.346 263947
0 0 0 0
0 0 0 0
