# .PCD v0.7 - Point Cloud Data file format
VERSION 0.7
FIELDS x y z rgb
SIZE 4 4 4 4
TYPE F F F U
COUNT 1 1 1 1
WIDTH 1656
HEIGHT 1
VIEWPOINT 0 0 0 1 0 0 0
POINTS 1656
DATA ascii
0 0 0 0
0 0 0 0
0 0 0 0
0 0 0 0
0 0 0 0
0 0 0 0
0 0 0 0
0 0 0 0
0 0 0 0
0 0 0 0
0 0 0 0
15825.771 7473.1494 19140.416 3623251
15314.886 7180.2896 18390.336 4741731
15728.205 7321.8174 18752.82 4083802
16267.91 7519.7739 19259.832 3820630
0 0 0 0
0 0 0 0
0 0 0 0
0 0 0 0
0 0 0 0
11966.256 5307.2866 13593.154 4
12246.595 5395.1978 13818.313 5860722
14146.996 6190.8965 15856.277 6979206
15531.538 6751.812 17292.908 3360336
16182.011 6988.3389 17898.707 1253674
16472.301 7067.2432 18100.799 3425104
16421.42 6999.7002 17927.805 4478048
15424.194 6532.2437 16730.543 1846841
15199.423 6395.8193 16381.131 3096905
15054.428 6294.4873 16121.597 2503740
15341.423 6373.9165 16325.032 1516332
15930.158 6576.9238 16844.98 2568763
17656.043 7243.9473 18553.377 3358022
18409.135 7506.0488 19224.678 2042419
0 0 0 0
0 0 0 0
0 0 0 0
0 0 0 0
0 0 0 0
-9044.8564 3945.728 9954.3682 0
-8992.0225 3948.5066 9961.3779 0
-8935.4863 3949.6858 9964.3535 0
-8880.2441 3951.4563 9968.8203 0
-8826.2061 3953.79 9974.708 0
-8769.4873 3954.9468 9977.626 0
-8707.8701 3953.8953 9974.9727 65536
-8642.6621 3951.187 9968.1406 65536
-8580.498 3949.8425 9964.749 65536
-8519.7988 3949.1592 9963.0244 65536
-8457.3125 3947.6318 9959.1709 0
-8394.458 3945.9089 9954.8252 0
-8332.6523 3944.6594 9951.6729 0
-8261.5908 3938.9783 9937.3398 0
-8201.2734 3938.375 9935.8184 0
-8144.0244 3939.2468 9938.0176 0
-8088.1118 3940.7827 9941.8926 0
-8032.1953 3942.3396 9945.8203 0
-7975.3535 3943.4617 9948.6514 0
-7920.5103 3945.5962 9954.0361 0
-7870.6729 3950.2754 9965.8408 0
-7829.9595 3959.6394 9989.4648 65536
-7787.7876 3968.4038 10011.575 65536
-7738.4976 3973.6477 10024.805 65536
-7684.1084 3976.334 10031.582 65536
-7612.9443 3970.3145 10016.396 65536
-7557.9331 3972.6899 10022.389 65536
-7495.0005 3970.9065 10017.89 65536
-7438.4106 3972.4819 10021.864 65536
-7389.2715 3978.094 10036.022 65536
-7336.5928 3981.8765 10045.564 65536
-7290.8452 3989.5134 10064.831 0
-7238.0684 3993.3984 10074.633 0
-7186.0181 3997.7527 10085.617 0
-7134.8325 4002.6653 10098.011 0
-7076.9189 4003.8547 10101.012 0
-7027.6494 4009.9971 10116.508 0
-6970.4604 4011.6873 10120.771 0
-6913.6138 4013.6055 10125.611 0
-6858.2871 4016.4478 10132.782 0
-6798.8818 4016.9307 10134 0
-6741.4976 4018.627 10138.279 0
-6693.7612 4026.157 10157.276 0
-6644.7451 4033.0474 10174.659 0
-6583.1504 4032.3589 10172.923 0
-6150.2656 3802.1252 9592.084 2171425
-5829.7529 3637.7014 9177.2725 6712170
-6085.022 3832.8472 9669.5898 7174004
-6668.4258 4240.3706 10697.699 1250837
-6407.229 4113.499 10377.625 513
-6850.3452 4440.7314 11203.174 257
-6163.1738 4034.4878 10178.294 256
-6128.3604 4051.4646 10221.123 256
-6068.9209 4052.3379 10223.326 0
-6079.3262 4100.3374 10344.421 0
-6056.395 4126.6035 10410.686 65536
-6037.6904 4156.3213 10485.658 65536
-6017.7075 4185.77 10559.952 65536
-5984.377 4206.457 10612.142 65536
-5953.9023 4229.6143 10670.562 65536
-5913.4683 4246.1182 10712.199 65536
-5898.3379 4281.3481 10801.078 65536
-5856.957 4298.0894 10843.314 65536
-5818.5068 4317.3784 10891.977 65536
-5786.0913 4341.6294 10953.157 65536
-5767.1382 4376.6489 11041.505 65536
-5746.4331 4411.1299 11128.494 65536
-6353.2461 4933.7231 12446.904 65536
-6490.875 5099.9849 12866.353 65536
-6453.7886 5131.2969 12945.348 0
-6417.4819 5163.9927 13027.833 65536
-6398.438 5211.5474 13147.806 65536
-6373.9961 5255.8271 13259.516 65536
-6314.7793 5272.1821 13300.776 0
-6349.6548 5368.5044 13543.78 0
-6332.5825 5422.8164 13680.799 0
-6281.521 5449.0557 13746.996 0
-6224.563 5470.8042 13801.864 0
-6177.979 5502.3735 13881.508 0
-6145.3657 5547.4082 13995.122 0
-6125.2563 5605.1216 14140.723 0
-6185.7246 5739.2007 14478.98 0
-6133.6924 5771.2114 14559.738 0
-6044.7461 5768.9092 14553.93 0
-5989.2363 5798.9141 14629.626 0
-5947.127 5842.9673 14740.766 0
-5896.291 5879.6372 14833.277 0
-5841.6533 5913.5713 14918.887 0
-5801.5029 5963.4434 15044.705 0
-5784.3862 6038.9243 15235.13 0
-6289.0195 6670.1772 16827.668 0
-5824.3535 6277.1738 15836.19 0
-5527.7729 6055.3887 15276.666 0
-5454.4717 6074.8716 15325.818 0
-5388.814 6103.6738 15398.481 0
-5331.9849 6143.644 15499.318 0
-5335.4893 6255.7593 15782.165 0
-5281.5874 6303.374 15902.29 0
-5426.1875 6593.9463 16635.352 0
-5370.5029 6647.3989 16770.203 0
-5048.9434 6367.561 16064.222 0
-5025.8359 6460.5874 16298.911 0
-4912.2324 6438.6543 16243.577 0
-4800.8623 6418.8281 16193.56 0
-4717.1729 6435.957 16236.772 0
-4624.8218 6441.7358 16251.353 0
-4558.4341 6484.6982 16359.737 0
-4508.8701 6553.9863 16534.539 0
-4427.5317 6579.146 16598.014 0
-4338.9771 6594.4858 16636.713 0
-4254.1226 6616.2964 16691.736 0
-4184.3271 6663.1279 16809.885 0
-4178.9458 6817.3325 17198.914 0
-4081.0212 6824.5132 17217.031 0
-4025.4475 6904.7075 17419.348 0
-3931.8691 6922.2271 17463.545 0
-3822.5239 6912.1846 17438.209 256
-3728.8032 6930.6235 17484.729 256
-3477.3169 6648.479 16772.928 256
-3580.2534 7047.3213 17779.135 256
-3493.3955 7085.4717 17875.383 0
-3444.2166 7204.835 18176.514 0
-3304.3289 7136.0332 18002.939 0
-3235.7307 7221.7363 18219.152 0
-3234.6934 7469.3813 18843.918 0
-3123.8872 7472.2266 18851.096 0
-2994.2734 7428.624 18741.094 0
-2869.9321 7395.2373 18656.865 0
-2283.0059 6119.2744 15437.839 256
-2607.3042 7281.1333 18369.002 256
-2654.5635 7737.0767 19519.266 0
-2445.5935 7453.751 18804.484 0
-2365.6343 7555.3198 19060.725 0
-2352.27 7890.4941 19906.311 0
0 0 0 0
0 0 0 0
0 0 0 0
0 0 0 0
0 0 0 0
0 0 0 0
0 0 0 0
-1399.4359 7854.8325 19816.342 0
-1286.9062 7886.9805 19897.447 0
-1170.0846 7896.6704 19921.893 0
-1046.688 7859.1733 19827.293 1
-849.88391 7191.0444 18141.725 2
-747.65515 7245.2524 18278.48 260
0 0 0 0
0 0 0 0
0 0 0 0
0 0 0 0
-74.922508 2654.7156 6697.374 7307137
-35.566963 2688.677 6783.0532 2504247
4.7884278 2712.1074 6842.1636 4280659
46.724144 2787.9075 7033.394 3623498
90.641212 2854.52 7201.4453 6846583
0 0 0 0
0 0 0 0
558.38879 7276.7915 18358.049 0
668.46283 7287.3208 18384.611 0
779.53925 7304.2842 18427.406 0
905.5426 7439.7031 18769.045 0
1023.8834 7489.3696 18894.344 0
1124.1329 7409.9639 18694.02 0
1232.002 7390.5522 18645.047 0
1363.4346 7504.0332 18931.338 0
1478.0872 7514.8989 18958.75 0
1580.4227 7466.0386 18835.484 0
1692.8953 7468.3628 18841.348 0
1809.3607 7486.9199 18888.164 256
1922.8093 7491.5557 18899.859 256
2005.5474 7382.6309 18625.061 256
2069.5891 7219.8774 18214.463 526088
2209.8638 7326.0278 18482.262 197379
2320.8059 7329.4883 18490.992 256
2433.3445 7337.4492 18511.076 2369575
2570.8374 7416.7134 18711.047 2370088
2656.2512 7345.3896 18531.109 256
2808.0613 7456.0415 18810.264 256
2853.7375 7287.2007 18384.309 0
2959.3315 7278.1733 18361.535 0
3068.8201 7279.0269 18363.688 0
3170.0286 7260.856 18317.846 0
3314.875 7340.5249 18518.836 0
3434.7507 7361.5542 18571.889 0
3580.5198 7435.043 18757.287 256
3657.3245 7365.2104 18581.113 0
3816.78 7461.0376 18822.867 131844
0 0 0 0
0 0 0 0
0 0 0 0
0 0 0 0
0 0 0 0
0 0 0 0
0 0 0 0
0 0 0 0
0 0 0 0
0 0 0 0
0 0 0 0
0 0 0 0
0 0 0 0
0 0 0 0
0 0 0 0
0 0 0 0
0 0 0 0
0 0 0 0
5881.21 7384.3022 18629.279 4610144
5896.1802 7266.3032 18331.588 6451315
6059.6831 7332.3115 18498.115 1844518
6108.2817 7259.4087 18314.195 259
6140.6865 7170.1514 18089.014 258
6253.6255 7176.3818 18104.732 1
6235.2866 7034.3018 17746.289 2
6351.9526 7046.7202 17777.619 2
6460.6597 7050.0469 17786.012 256
6544.4888 7026.5562 17726.748 256
6648.063 7024.6733 17721.998 0
6838.0024 7112.6831 17944.031 0
6972.1587 7140.8574 18015.111 256
7103.8809 7165.7246 18077.846 256
7185.0732 7139.6392 18012.037 256
7364.7285 7210.7246 18191.373 0
7393.5669 7134.2271 17998.383 0
7294.7485 6938.4883 17504.568 0
7388.9321 6929.2485 17481.26 65536
7497.9487 6933.9829 17493.203 0
7628.5781 6958.3018 17554.555 0
7832.5566 7047.9663 17780.762 1
7961.4106 7068.5435 17832.676 257
8414.8018 7372.9355 18600.602 770
8690.2197 7515.5171 18960.311 2
0 0 0 0
0 0 0 0
0 0 0 0
0 0 0 0
0 0 0 0
0 0 0 0
0 0 0 0
0 0 0 0
9574.7441 7415.1001 18706.975 7771807
9565.1934 7322.6719 18473.797 8033953
9298.9004 7038.0229 17755.678 7968675
8505.6875 6365.4287 16058.843 8166053
8248.4199 6104.3989 15400.311 8034206
7863.0674 5755.3467 14519.715 2240826
7308.3457 5291.2495 13348.88 659477
7714.0381 5524.9937 13938.574 261
7758.8784 5498.0649 13870.639 3
7834.2886 5493.1377 13858.207 3
7889.8906 5474.5679 13811.359 2
7978.4946 5479.0449 13822.653 2
8046.2354 5469.2485 13797.939 2
8144.748 5480.355 13825.959 2
8229.583 5482.1289 13830.434 2
8301.9619 5475.6519 13814.094 256
8346.502 5451.1206 13752.205 256
8413.4033 5441.5269 13728.002 0
8486.4404 5436.0483 13714.181 0
8549.752 5424.5029 13685.054 0
8577.9219 5391.0894 13600.758 0
8628.0537 5371.9736 13552.532 0
10381.752 6404.0708 16156.329 256
10919.325 6673.9492 16837.184 256
11046.952 6690.6396 16879.291 256
8870.4434 5324.0771 13431.698 256
8897.3594 5292.6021 13352.292 256
8943.3828 5272.9487 13302.71 256
9001.8633 5260.9204 13272.364 256
9027.1396 5229.8633 13194.014 256
9045.248 5195.2246 13106.626 259
8609.7773 4902.8848 12369.104 258
8597.5693 4854.4834 12246.996 260
8947.9375 5009.8989 12639.082 4
9593.9297 5326.8672 13438.736 4
9581.0264 5275.7808 13309.854 6
9235.7607 5044.0151 12725.151 263
9405.6582 5095.0801 12853.979 517
10523.278 5654.5708 14265.475 1646887
0 0 0 0
0 0 0 0
0 0 0 0
0 0 0 0
0 0 0 0
0 0 0 0
0 0 0 0
0 0 0 0
0 0 0 0
0 0 0 0
0 0 0 0
0 0 0 0
0 0 0 0
0 0 0 0
16027.209 7683.4775 19384.045 4084828
16030.352 7630.1377 19249.477 4412766
16351.568 7727.8779 19496.059 3228237
0 0 0 0
0 0 0 0
0 0 0 0
0 0 0 0
0 0 0 0
0 0 0 0
12364.036 5567.1851 14045.016 858145
12746.136 5700.7461 14381.967 2636610
14111.79 6269.4946 15816.818 4346971
15754.392 6952.9424 17541.035 4346716
17011.395 7458.3452 18816.076 3621966
17090.217 7443.9683 18779.805 1317926
17301.191 7486.9653 18888.279 1975857
14802.268 6364.2793 16055.943 1318951
14919.246 6373.4863 16079.171 1911861
14922.085 6334.1265 15979.873 5399402
14357.141 6055.7764 15277.645 3425612
15640.248 6555.5249 16538.422 2306361
17475.602 7279.0581 18363.766 2832961
18394.773 7614.3623 19209.68 5662318
0 0 0 0
19041.891 7785.5864 19641.646 3358019
0 0 0 0
0 0 0 0
0 0 0 0
-9116.9746 4036.8223 10033.737 0
-9061.2412 4038.5613 10038.06 0
-9003.5459 4039.4424 10040.249 0
-8947.3506 4041.0127 10044.153 0
-8891.4746 4042.7493 10048.47 65536
-8833.3154 4043.4648 10050.248 65536
-8773.7949 4043.5625 10050.49 65536
-8712.6484 4042.9065 10048.86 65536
-8651.5596 4042.2688 10047.274 65536
-8590.7637 4041.7598 10046.01 65536
-8530.0234 4041.2705 10044.794 0
-8468.1348 4040.2261 10042.197 0
-8406.8203 4039.4431 10040.251 0
-8339.918 4035.9443 10031.555 0
-8275.0537 4033.3882 10025.202 0
-8217.5566 4034.4128 10027.748 0
-8157.8013 4034.3347 10027.555 0
-8098.627 4034.5457 10028.079 0
-8038.5703 4034.3169 10027.51 0
-7989.0278 4039.4004 10040.146 0
-7939.9946 4044.8198 10053.616 65536
-7892.8364 4051.2844 10069.684 65536
-7849.0605 4059.5969 10090.345 65536
-7790.8179 4060.4973 10092.583 65536
-7733.2642 4061.7737 10095.755 65536
-7676.8193 4063.657 10100.437 65536
-7619.8599 4065.2954 10104.509 65536
-7558.0142 4064.3318 10102.114 65536
-7501.5288 4066.259 10106.904 65536
-7451.2979 4071.6348 10120.266 65536
-7403.8618 4078.6379 10137.672 65536
-7361.1016 4088.3523 10161.818 0
-7310.915 4094.0693 10176.028 0
-7255.9722 4097.1953 10183.798 0
-7201.978 4100.915 10193.043 0
-7144.4014 4102.6401 10197.331 0
-7090.8999 4106.7549 10207.559 0
-7030.3403 4106.8174 10207.714 0
-6969.4946 4106.7129 10207.454 0
-6914.3657 4110.0044 10215.635 0
-6853.7563 4110.0674 10215.792 0
-6795.5352 4111.5776 10219.545 0
-6744.8125 4117.6914 10234.742 0
-6681.9766 4116.4551 10231.669 65536
-6619.7798 4115.5938 10229.527 0
-6188.5879 3883.1802 9651.8516 65793
-6062.4985 3839.6538 9543.6641 8554375
-6108.4263 3905.2798 9706.7812 921359
-6688.1138 4316.6577 10729.283 258
-6736.6885 4389.8643 10911.242 258
-6488.6929 4269.3599 10611.722 256
-6107.4883 4057.9817 10086.33 0
-6044.627 4056.0256 10081.469 0
-5970.5259 4046.4131 10057.576 0
-5986.356 4098.1724 10186.226 0
-5950.999 4115.5884 10229.515 65536
-5952.5112 4159.1255 10337.728 65536
-5968.9585 4214.1143 10474.406 65536
-5985.8779 4270.5996 10614.803 65536
-5974.6416 4307.9863 10707.73 65536
-5931.8091 4323.1514 10745.423 65536
-5938.5635 4375.1782 10874.739 65536
-5901.4316 4395.6616 10925.652 65536
-5867.5142 4419.022 10983.716 65536
-5815.856 4429.3965 11009.502 65536
-5782.2773 4453.9336 11070.489 65536
-5749.7124 4479.8247 11134.844 65536
-6541.6367 5156.1914 12815.988 65536
-6518.5151 5198.4961 12921.141 65536
-6470.7178 5221.8979 12979.306 65536
-6441.5503 5261.0796 13076.693 65536
-6392.7422 5284.9805 13136.102 65536
-6374.4121 5334.981 13260.381 65536
-6334.2676 5367.748 13341.824 65536
-6338.4111 5439.3506 13519.797 0
-6304.6577 5479.8545 13620.471 0
-6279.6104 5529.0767 13742.815 0
-6222.4858 5550.9805 13797.259 0
-6169.7656 5577.4507 13863.052 0
-6137.0376 5622.9556 13976.156 0
-6113.3398 5678.0962 14113.211 0
-6075.4116 5721.3701 14220.771 0
-6113.6372 5838.5923 14512.133 0
-6077.0361 5886.6865 14631.674 0
-5980.2085 5876.9902 14607.573 0
-5935.1899 5918.6733 14711.179 0
-5893.0474 5964.5132 14825.116 0
-5841.5137 6002.0962 14918.53 0
-5796.1704 6047.2964 15030.878 0
-5755.915 6099.3018 15160.141 0
-6268.2373 6747.8174 16772.061 0
-6149.8047 6727.3071 16721.08 0
-5566.7417 6189.5112 15384.36 0
-5491.8989 6208.2671 15430.979 0
-5419.0146 6229.9121 15484.779 0
-5352.9736 6260.3081 15560.329 0
-5285.7124 6290.3198 15634.926 0
-5231.9736 6337.7871 15752.908 0
-5208.73 6424.5977 15968.68 0
-5147.5176 6466.9292 16073.897 0
-5060.8442 6478.2695 16102.085 0
-4982.8794 6501.4102 16159.603 0
-4895.1997 6512.5352 16187.254 0
-4781.7241 6489.1001 16129.005 0
-4697.4209 6505.104 16168.783 0
-4590.2471 6489.4438 16129.859 0
-4515.1279 6519.3999 16204.316 0
-4452.8218 6569.5649 16329.003 0
-4410.2065 6651.6641 16533.066 0
-4355.8984 6719.4678 16701.596 0
-4280.6216 6757.332 16795.709 0
-4222.1509 6824.1685 16961.836 0
-4128.1157 6835.3867 16989.719 0
-4034.4167 6847.7378 17020.418 0
-3983.0291 6934.3872 17235.789 0
-3904.8921 6977.8125 17343.725 0
-3815.5898 7003.0991 17406.576 256
-3801.9919 7172.6152 17827.918 256
-3724.5615 7227.9761 17965.52 256
-3651.9626 7296.2559 18135.234 0
-3500.095 7205.5024 17909.662 0
-3162.4082 6714.52 16689.297 0
-3255.4788 7135.9521 17736.789 0
0 0 0 0
-3175.4062 7442.4224 18498.537 0
-3083.1826 7485.4414 18605.465 0
-2994.5183 7540.6255 18742.627 0
-2893.179 7566.9229 18807.99 0
-2408.6987 6552.9805 16287.782 0
-2615.853 7414.5381 18429.23 0
-2664.6125 7882.8149 19593.158 0
-2579.3105 7979.1694 19832.652 0
-2467.1992 7997.8442 19879.068 0
-2341.793 7973.1323 19817.646 0
-2192.5227 7860.2495 19537.07 0
-2042.4688 7731.7764 19217.742 0
-1933.4659 7752.687 19269.717 0
0 0 0 0
0 0 0 0
0 0 0 0
0 0 0 0
0 0 0 0
0 0 0 0
0 0 0 0
-1046.1996 7973.2915 19818.041 0
-913.79651 7847.7539 19506.012 2
0 0 0 0
0 0 0 0
0 0 0 0
0 0 0 0
0 0 0 0
-77.679199 2793.6621 6943.7964 5925229
-34.810452 2670.9451 6638.7769 6189170
4.848196 2787.1321 6927.5659 5794155
46.580902 2821.0342 7011.8315 5464931
87.871628 2808.7917 6981.4019 5858918
0 0 0 0
0 0 0 0
568.04205 7513.5854 18675.418 460552
680.38043 7528.4556 18712.379 256
779.59015 7414.2881 18428.607 0
891.31323 7432.5962 18474.115 0
1002.0402 7439.4937 18491.258 0
1117.3048 7475.3862 18580.471 0
1246.6615 7590.6245 18866.902 0
1346.583 7522.4106 18697.354 0
1465.2594 7561.3804 18794.215 0
1588.8129 7618.2139 18935.477 0
1689.0314 7563.0415 18798.344 0
1807.7784 7592.5332 18871.646 0
1918.8396 7588.1851 18860.838 0
2007.156 7499.335 18639.998 256
2043.2883 7235.0044 17982.99 1842717
2188.7283 7364.7559 18305.494 131843
2335.0388 7485.0098 18604.393 256
2480.3508 7591.334 18868.666 0
2588.1028 7578.4766 18836.707 855565
2700.1633 7578.7783 18837.457 256
2783.2039 7500.8452 18643.752 256
2860.1189 7413.0039 18425.418 256
3007.1238 7506.605 18658.068 1316373
3105.0579 7475.4106 18580.533 0
3162.9973 7353.3784 18277.215 0
3298.2908 7413.313 18426.186 0
3422.1138 7444.4429 18503.561 0
3504.5532 7386.4106 18359.318 256
3662.1943 7485.5981 18605.854 1
3843.6938 7626.3076 18955.596 259
4016.342 7741.9429 19243.012 516
3798.9897 7120.2192 17697.686 8164757
0 0 0 0
0 0 0 0
0 0 0 0
0 0 0 0
0 0 0 0
0 0 0 0
0 0 0 0
0 0 0 0
0 0 0 0
0 0 0 0
0 0 0 0
0 0 0 0
0 0 0 0
0 0 0 0
0 0 0 0
6143.6631 7979.7207 19834.021 6979201
4814.1294 6135.1343 15249.203 329481
5115.8218 6399.1401 15905.404 395532
5612.1333 6892.5898 17131.9 2435117
6041.5513 7287.7612 18114.121 260
5996.7412 7107.063 17664.984 3
6309.666 7349.2588 18266.975 1
6242.481 7148.0117 17766.766 256
6369.9536 7172.6484 17828 256
6491.0054 7189.3657 17869.553 0
6575.6772 7165.8999 17811.227 0
6669.8057 7153.3198 17779.959 0
6892.2339 7276.5864 18086.344 256
7022.5146 7300.2744 18145.223 1
7113.5024 7283.0181 18102.33 3
7255.5938 7317.8169 18188.824 2
7338.4287 7292.7065 18126.41 2
7261.4497 7111.8027 17676.766 0
7334.9404 7081.3262 17601.014 0
7431.1758 7073.3555 17581.203 0
7534.3774 7072.146 17578.195 0
7647.5649 7080.2124 17598.246 256
7902.2251 7217.2734 17938.918 256
8084.0874 7285.0811 18107.457 515
8211.3779 7302.5752 18150.941 771
8756.2139 7686.1343 19104.297 4676193
0 0 0 0
0 0 0 0
0 0 0 0
0 0 0 0
8674.0234 7150.3872 17772.668 329997
9447.8965 7694.6221 19125.395 5928830
0 0 0 0
0 0 0 0
0 0 0 0
9503.7246 7384.7051 18355.078 7770523
9113.9385 7001.46 17402.504 7573144
8187.8296 6219.4297 15458.725 7572631
8056.0176 6051.4019 15041.083 6980235
7857.874 5837.7842 14510.124 4281438
7996.1406 5876.0171 14605.154 9279904
7469.4771 5430.0483 13496.675 527116
7460.4668 5365.8735 13337.165 3
7863.791 5596.498 13910.395 3
7941.915 5593.293 13902.429 2
7980.918 5562.8867 13826.852 257
8047.3506 5552.0239 13799.852 257
8147.002 5564.0664 13829.785 2
8226.9258 5562.5312 13825.968 2
8298.8525 5555.6729 13808.921 256
8337.6709 5527 13737.654 256
8384.1719 5503.9272 13680.306 0
8470.165 5506.9746 13687.879 0
8538.7061 5498.7246 13667.374 0
8567.1152 5465.0303 13583.624 0
8614.1182 5443.7144 13530.643 0
8716.0889 5457.2095 13564.186 0
10827.962 6717.3394 16696.305 256
10974.533 6746.4409 16768.639 256
8886.0576 5413.4189 13455.342 256
8900.7998 5374.0361 13357.454 256
8955.9365 5359.5239 13321.383 256
8977.9434 5325.6128 13237.096 256
8447.7422 4967.5737 12347.169 256
8466.2139 4935.562 12267.603 0
8536.0459 4933.7822 12263.18 0
8498.2021 4870.3247 12105.451 2
8528.7793 4846.814 12047.016 2
9194.1758 5181.4536 12878.779 1
9240.1201 5164.3516 12836.271 259
9252.6592 5129.0127 12748.435 260
9364.2178 5148.6904 12797.345 773
10465.093 5707.6216 14186.598 530971
0 0 0 0
0 0 0 0
0 0 0 0
0 0 0 0
0 0 0 0
0 0 0 0
0 0 0 0
0 0 0 0
0 0 0 0
0 0 0 0
0 0 0 0
0 0 0 0
0 0 0 0
0 0 0 0
16186.508 7876.1973 19576.709 4413022
16310.421 7879.8501 19585.789 3557711
0 0 0 0
0 0 0 0
0 0 0 0
0 0 0 0
0 0 0 0
0 0 0 0
0 0 0 0
12671.705 5791.271 14394.514 5793134
11712.747 5317.1064 13215.952 4
13511.826 6092.9551 15144.365 4084570
14100.131 6316.168 15699.172 3556427
15396.229 6851.4175 17029.564 3491404
16457.092 7275.6787 18084.088 3754320
16541.682 7265.6255 18059.1 66825
15362.644 6704.2534 16663.779 1186851
14482.901 6279.8496 15608.902 2502454
14168.864 6104.5796 15173.259 2042160
14034.015 6008.2397 14933.801 1582123
14420.646 6134.9644 15248.781 1317666
15362.339 6494.7705 16143.1 3951699
16907.441 7103.6323 17656.457 4214613
16431.414 6861.0454 17053.496 3161413
17618.854 7311.7676 18173.789 4806752
0 0 0 0
0 0 0 0
0 0 0 0
-9199.3496 4133.4692 10124.396 0
-9142.8535 4135.1323 10128.47 0
-9081.8711 4134.7744 10127.593 0
-9020.7207 4134.3354 10126.517 0
-8961.8916 4134.9609 10128.05 65536
-8904.9531 4136.4736 10131.755 65536
-8844.8857 4136.5435 10131.926 65536
-8784.2275 4136.3359 10131.417 65536
-8723.2607 4135.979 10130.543 65536
-8662.6123 4135.7695 10130.03 65536
-8597.7129 4133.5132 10124.504 0
-8534.5088 4132.0459 10120.909 0
-8474.0811 4131.9116 10120.58 0
-8413.5117 4131.7056 10120.076 0
-8353.1826 4131.6152 10119.855 0
-8292.8379 4131.5161 10119.612 0
-8231.7959 4131.0654 10118.509 0
-8170.4731 4130.4668 10117.042 0
-8109.9844 4130.2837 10116.594 0
-8050.1743 4130.4458 10116.991 0
-7998.0239 4134.5703 10127.093 65536
-7945.4082 4138.5146 10136.755 65536
-7893.9248 4143.1138 10148.02 65536
-7845.5918 4149.4507 10163.54 65536
-7798.1572 4156.3633 10180.473 65536
-7741.6631 4158.5186 10185.751 65536
-7689.313 4162.9512 10196.608 65536
-7623.2646 4159.9795 10189.329 65536
-7573.7085 4166.0312 10204.152 65536
-7523.6084 4171.8794 10218.477 65536
-7480.834 4181.9185 10243.065 65536
-7429.9702 4187.5625 10256.89 0
-7376.6382 4191.8975 10267.508 0
-7316.9048 4192.6362 10269.317 0
-7261.0542 4195.6313 10276.654 0
-7198.7651 4194.9253 10274.925 0
-7136.3086 4194.1094 10272.926 0
-7075.0298 4193.9771 10272.602 0
-7011.3091 4192.3818 10268.695 0
-6949.3125 4191.7993 10267.268 0
-6886.1406 4190.4907 10264.062 0
-6825.1338 4190.4883 10264.057 0
-6770.3931 4194.3682 10273.56 65536
-6704.8188 4191.5449 10266.646 65536
-6643.0513 4191.0723 10265.487 65536
-6186.5684 3939.2585 9648.7021 131330
-6192.5845 3979.9814 9748.4473 7568504
-6189.4419 4015.531 9835.5215 0
-6588.9829 4315.499 10570.255 256
-6992.2651 4623.7163 11325.192 0
-6140.5903 4100.0044 10042.429 0
-6629.3096 4469.7622 10948.102 0
-6993.3804 4761.9741 11663.837 0
-6252.4932 4300.1104 10532.562 0
-5974.8223 4150.6997 10166.6 0
-5943.6025 4171.1948 10216.8 65536
-5952.3672 4220.4634 10337.478 65536
-5925.0894 4244.9385 10397.425 65536
-5905.8071 4275.7168 10472.813 65536
-5899.3193 4316.5137 10572.739 65536
-5927.4727 4383.8076 10737.567 65536
-5920.3418 4426.1875 10841.371 65536
-5901.7163 4460.812 10926.18 65536
-5854.5137 4474.3662 10959.379 65536
-5821.3857 4499.104 11019.971 65536
-5762.7275 4504.4482 11033.061 65536
-5760.8301 4554.793 11156.374 65536
-6546.2622 5236.0605 12825.05 65536
-6530.3691 5284.8843 12944.638 65536
-6495.1182 5319.0205 13028.25 0
-6462.3281 5356.0195 13118.874 0
-6413.1123 5380.1421 13177.959 0
-6369.3804 5409.5186 13249.913 0
-6362.0156 5470.9043 13400.27 0
-6332.2061 5514.3003 13506.562 0
-6310.8174 5566.2383 13633.777 0
-6265.9126 5598.5161 13712.838 0
-6221.9819 5632.5264 13796.141 0
-6172.7139 5662.5488 13869.677 0
-6132.2021 5701.5249 13965.145 0
-6105.1294 5754.2373 14094.257 0
-6072.5977 5803.1997 14214.184 0
-6090.396 5902.3193 14456.964 0
-6036.4551 5933.7573 14533.968 0
-5967.2856 5950.9214 14576.008 0
-5924.1021 5994.8867 14683.696 0
-5878.5928 6037.7783 14788.754 0
-5830.4434 6079.2192 14890.258 0
-5779.9282 6119.4331 14988.757 0
-5751.9863 6185.1797 15149.794 0
-5457.9673 5962.3516 14604.005 0
-5659.668 6282.6021 15388.417 0
-5568.6021 6283.0449 15389.502 0
-5499.2983 6308.4668 15451.771 0
-5434.5034 6340.0127 15529.037 0
-5363.0063 6364.6948 15589.492 0
-5288.5996 6386.7305 15643.467 0
-5222.8652 6420.2153 15725.483 0
-5163.2871 6462.627 15829.364 0
-5123.8789 6532.3262 16000.083 0
-5021.9922 6523.5015 15978.469 0
-4963.8481 6572.2539 16097.883 0
-4892.3833 6604.9395 16177.941 0
-4812.9922 6628.0195 16234.474 0
-4727.0283 6642.8076 16270.694 0
-4647.4868 6667.4277 16330.998 0
-4569.7915 6695.8022 16400.498 0
-4500.5596 6738.0854 16504.064 0
-4413.6782 6755.2393 16546.08 0
-4353.4004 6814.8203 16692.018 0
-4337.9155 6948.9346 17020.512 0
-4212.1152 6908.5181 16921.518 0
-4116.1543 6916.2637 16940.49 0
-4024.4922 6931.8013 16978.547 0
-3947.0237 6973.2144 17079.982 0
-3872.8882 7022.8579 17201.578 0
-3790.0796 7059.0391 17290.199 0
-3718.9568 7119.6084 17438.557 0
-3718.1868 7322.1963 17934.77 0
-3671.5032 7443.6577 18232.271 0
-3577.0522 7472.7153 18303.445 0
-3191.2646 6875.8838 16841.584 0
-3270.5974 7274.9976 17819.16 0
0 0 0 0
-3190.6211 7588.5518 18587.172 0
-3105.9314 7652.0664 18742.742 0
-3011.5312 7695.4937 18849.111 0
-2927.2048 7769.0112 19029.184 0
-2749.1023 7589.5488 18589.613 0
0 0 0 0
-2632.0598 7901.5396 19353.795 0
-2581.582 8104.1714 19850.115 0
0 0 0 0
0 0 0 0
-2140.7959 7788.1846 19076.146 0
-2028.5944 7792.6963 19087.197 0
-1912.6763 7782.6206 19062.518 0
0 0 0 0
0 0 0 0
0 0 0 0
0 0 0 0
0 0 0 0
0 0 0 0
0 0 0 0
0 0 0 0
0 0 0 0
-734.6272 7332.4883 17959.977 1317402
-618.34174 7221.043 17687.006 5529953
0 0 0 0
0 0 0 0
0 0 0 0
0 0 0 0
-36.393906 2833.6924 6940.7612 6188400
4.9377661 2880.5579 7055.5522 6715000
46.720165 2871.2666 7032.7949 6254705
87.171822 2827.5852 6925.8022 6780791
0 0 0 0
0 0 0 0
569.02557 7637.7808 18707.752 3950919
682.0191 7658.0698 18757.447 257
781.52069 7542.4473 18474.244 256
892.35388 7551.2002 18495.684 0
1003.6613 7561.6064 18521.172 0
1116.7773 7582.2349 18571.699 0
1225.5315 7572.2012 18547.123 0
1339.5995 7593.9468 18600.387 0
1453.7581 7612.8521 18646.691 0
1562.338 7601.9351 18619.951 0
1681.1234 7638.8335 18710.33 0
1799.4414 7669.1616 18784.615 0
1909.3116 7662.0459 18767.186 0
2005.1904 7602.6665 18621.744 0
2060.9187 7405.2324 18138.154 0
2184.7573 7459.9927 18272.283 0
2319.6997 7545.6865 18482.178 0
2448.9661 7606.0024 18629.914 987408
2563.998 7618.8027 18661.268 1184275
2681.8062 7638.4492 18709.389 329222
2797.7314 7651.3818 18741.066 2369320
2897.4272 7620.6392 18665.766 65794
3040.1125 7701.0625 18862.752 256
3125.4551 7635.6724 18702.588 0
3175.2964 7491.0225 18348.285 256
3275.0063 7469.7183 18296.105 0
3417.2654 7543.7129 18477.346 0
3537.1636 7565.2739 18530.156 256
3662.0823 7595.9463 18605.283 514
3791.564 7634.0083 18698.512 515
4077.4849 7975.9116 19535.959 6782075
4026.2593 7657.6528 18756.426 7902099
0 0 0 0
0 0 0 0
0 0 0 0
0 0 0 0
0 0 0 0
0 0 0 0
0 0 0 0
0 0 0 0
0 0 0 0
0 0 0 0
0 0 0 0
0 0 0 0
0 0 0 0
0 0 0 0
6071.4941 8159.0293 19984.482 5203818
6126.0151 8074.3403 19777.047 7506057
6109.4258 7900.8774 19352.174 264458
5243.2451 6655.4141 16301.572 516
5487.0034 6838.4609 16749.922 259
6100.2412 7467.2617 18290.088 1
6009.6445 7227.5703 17702.994 258
6115.5522 7228.3892 17705 0
6232.7954 7242.3516 17739.199 0
6349.6089 7255.3589 17771.059 0
6458.0859 7258.5708 17778.926 0
6551.8096 7245.3638 17746.578 0
6669.6724 7258.8462 17779.602 0
6801.6968 7287.0815 17848.76 256
7094.0991 7483.6333 18330.188 1184530
7188.1011 7468.1113 18292.168 256
7178.4819 7346.9971 17995.516 1
7489.292 7552.5762 18499.055 0
7314.7051 7269.79 17806.406 0
7387.959 7237.876 17728.236 0
7483.9023 7228.7759 17705.947 0
7584.3032 7224.1738 17694.674 0
7664.2544 7200.4849 17636.652 257
7955.2056 7372.9937 18059.189 514
8243.7002 7538.6621 18464.973 514
8312.0371 7501.2939 18373.445 515
8788.3438 7828.2974 19174.398 1055259
0 0 0 0
0 0 0 0
0 0 0 0
8438.4395 7145.9653 17503.113 1031
8490.7217 7102.6792 17397.09 5333348
8994.209 7433.3379 18206.994 1320746
0 0 0 0
0 0 0 0
0 0 0 0
9749.2021 7687.3579 18829.184 7770781
8864.9785 6910.8101 16927.131 7836575
8655.8604 6672.0718 16342.372 7902367
7839.6113 5975.8389 14637.04 7902621
7609.8818 5737.062 14052.188 8230300
7695.8013 5738.8535 14056.576 2437690
7465.5635 5507.377 13489.604 396051
7649.7632 5583.3018 13675.572 7109005
7549.54 5452.2222 13354.51 2633260
7403.6792 5291.2544 12960.24 131845
8009.8765 5665.5469 13877.021 259
8082.8481 5658.8926 13860.723 2
8183.5654 5671.6021 13891.853 1
8280.5879 5681.5229 13916.151 256
8297.7412 5636.9878 13807.069 256
8329.5205 5603.165 13724.225 256
8366.0488 5573.1616 13650.734 0
8444.1826 5571.1836 13645.891 0
8517.4121 5566.0386 13633.289 0
8559.5996 5540.897 13571.707 0
8606.502 5519.248 13518.681 0
8687.5713 5519.7075 13519.806 0
10778.438 6785.3945 16619.941 256
10930.047 6818.3511 16700.664 256
8927.0908 5518.7559 13517.476 256
8917.0928 5463.4072 13381.906 256
8950.3984 5435.334 13313.145 256
8973.1895 5401.4243 13230.087 256
8363.4961 4990.6855 12224.035 256
8446.7217 4996.9409 12239.358 256
8523.0127 4999.0225 12244.456 0
8485.7803 4935.0469 12087.756 256
8494.293 4898.5259 11998.303 256
9199.7656 5261.1934 12886.609 258
9215.1895 5226.502 12801.638 514
9272.0605 5215.6943 12775.165 260
9655.7412 5387.4043 13195.747 2173740
10231.767 5662.8018 13870.298 1187103
0 0 0 0
0 0 0 0
0 0 0 0
0 0 0 0
0 0 0 0
0 0 0 0
0 0 0 0
0 0 0 0
0 0 0 0
0 0 0 0
0 0 0 0
0 0 0 0
0 0 0 0
0 0 0 0
15141.784 7476.6865 18313.172 3359307
16142.303 7913.835 19383.91 67857
0 0 0 0
0 0 0 0
0 0 0 0
0 0 0 0
0 0 0 0
0 0 0 0
0 0 0 0
12896.598 5981.1226 14649.982 4016979
12760.692 5878.4058 14398.391 131845
13309.779 6090.5073 14917.906 4940905
14086.666 6403.3525 15684.18 2504249
15795.024 7132.7183 17470.666 2438199
16299.277 7312.3589 17910.672 2371379
15026.133 6697.4463 16404.523 1030
14581.334 6457.292 15816.298 1846319
14798.054 6511.2896 15948.557 1319205
14560.125 6365.8223 15592.254 2109750
14161.377 6152.3291 15069.33 6187889
14438.086 6233.1226 15267.224 1911345
14681.269 6298.5234 15427.415 3819854
16425 7002.8789 17152.643 2899010
16139.722 6838.8042 16750.762 2503739
17518.643 7377.5796 18070.422 4675936
0 0 0 0
0 0 0 0
0 0 0 0
-9266.8027 4224.3916 10198.632 0
-9210.749 4226.4844 10203.685 0
-9152.126 4227.4175 10205.938 0
-9093.5352 4228.3784 10208.258 0
-9032.7354 4228.3184 10208.112 0
-8974.8145 4229.6143 10211.24 0
-8912.5732 4228.8774 10209.462 0
-8852.5791 4229.2046 10210.252 0
-8791.001 4228.7739 10209.212 0
-8727.8389 4227.5698 10206.306 65536
-8664.9824 4226.4985 10203.719 0
-8603.5693 4226.1211 10202.808 0
-8540.3818 4224.8599 10199.763 0
-8476.8525 4223.4106 10196.265 0
-8416.0361 4223.3027 10196.003 0
-8353.1836 4222.1631 10193.252 0
-8291.4473 4221.5752 10191.833 0
-8230.3027 4221.2817 10191.125 0
-8170.2666 4221.5581 10191.791 0
-8111.7349 4222.6206 10194.356 0
-8042.2891 4217.9751 10183.142 65536
-7998.1851 4226.6514 10204.088 65536
-7956.8467 4236.9326 10228.909 65536
-7910.5312 4244.7017 10247.665 65536
-7855.2588 4247.7476 10255.019 65536
-7801.8408 4251.8521 10264.928 65536
-7752.583 4258.3062 10280.509 65536
-7684.855 4254.6367 10271.65 65536
-7634.019 4260.3359 10285.41 65536
-7586.375 4267.9229 10303.727 65536
-7533.874 4272.8779 10315.689 65536
-7487.0762 4281.1758 10335.723 0
-7434.9575 4286.5439 10348.682 0
-7375.7944 4287.9058 10351.97 0
-7313.4331 4287.4155 10350.786 0
-7248.9839 4285.6831 10346.604 0
-7188.2065 4286.1099 10347.634 0
-7132.6816 4289.7036 10356.31 0
-7069.8071 4288.8999 10354.37 0
-7007.3745 4288.3535 10353.051 0
-6936.1123 4282.3462 10338.548 0
-6873.9761 4281.916 10337.509 0
-6822.3071 4288.0566 10352.334 0
-6750.9058 4281.7944 10337.216 0
-6693.0547 4284.0898 10342.758 65536
-6217.7676 4016.759 9697.3604 2500134
-6059.0327 3950.8362 9538.208 1776924
-6586.4814 4335.3252 10466.45 256
-6674.147 4434.9126 10706.877 0
-6165.7812 4136.5483 9986.5586 0
-6090.4556 4125.7285 9960.4375 0
-6815.9399 4662.4966 11256.316 0
-6946.3936 4798.8364 11585.472 0
-6718.0303 4687.5396 11316.775 0
-6892.0459 4857.5933 11727.324 0
-6359.541 4528.0698 10931.78 65536
-5913.8276 4254.1792 10270.546 65536
-5931.0747 4311.084 10407.927 65536
-5900.9038 4334.3589 10464.118 65536
-5872.248 4359.2544 10524.222 65536
-5891.0747 4420.314 10671.633 65536
-5895.7642 4471.9795 10796.365 65536
-5874.2656 4504.6997 10875.358 65536
-5851.5659 4537.2163 10953.861 65536
-5849.7876 4586.8691 11073.735 65536
-5758.1431 4566.3857 11024.283 65536
-6003.293 4815.5928 11625.926 65536
-6525.8892 5295.752 12785.137 65536
-6541.6836 5371.1094 12967.066 65536
-6500.377 5400.8208 13038.797 0
-6468.0566 5438.8066 13130.503 0
-6428.689 5471.7207 13209.966 0
-6410.7754 5523.936 13336.025 0
-6367.8281 5555.6182 13412.513 0
-6334.4282 5596.5381 13511.303 0
-6310.29 5646.7969 13632.639 0
-6267.5029 5681.4575 13716.317 0
-6222.2295 5714.7485 13796.689 0
-6182.6353 5754.2148 13891.97 0
-6151.854 5803.0625 14009.898 0
-6108.1865 5840.9277 14101.314 0
-6068.9341 5884.1274 14205.608 0
-6059.6211 5957.9834 14383.913 0
-6006.5264 5990.29 14461.908 0
-5950.9971 6021.0703 14536.22 0
-5911.8521 6069.5796 14653.332 0
-5883.75 6131.0474 14801.729 0
-5831.4917 6168.8267 14892.936 0
-5777.8843 6206.3218 14983.457 0
-5735.9268 6257.6997 15107.495 0
-5681.7588 6297.1792 15202.808 0
-5613.064 6321.5732 15261.702 0
-5555.0537 6359.001 15352.06 0
-5485.0522 6383.7222 15411.743 0
-5418.9126 6413.8545 15484.487 0
-5358.6348 6452.0854 15576.786 0
-5442.6001 6668.3901 16098.994 0
-5317.1372 6631.2485 16009.327 0
-5149.9248 6539.7373 15788.397 0
-5084.313 6576.2437 15876.532 0
-5000.4653 6590.0977 15909.979 0
-4954.8379 6655.8262 16068.663 0
-4882.9556 6688.1777 16146.766 0
-4798.8022 6704.6816 16186.61 0
-4721.5332 6731.6753 16251.78 0
-4636.4961 6748.4912 16292.377 0
-4565.7612 6787.2852 16386.033 0
-4488.8276 6818.354 16461.041 0
-4409.061 6846.4087 16528.771 0
-4340.8579 6894.1069 16643.926 0
-4271.4014 6941.9927 16759.533 0
-4189.356 6971.2168 16830.086 0
-4108.4814 7003.8672 16908.912 0
-4032.1516 7046.0952 17010.861 0
-3974.5562 7124.0767 17199.125 0
-3908.116 7189.9019 17358.043 0
-3804.2634 7188.6035 17354.906 0
-3758.1899 7299.4541 17622.525 0
-3692.1677 7376.8037 17809.266 0
-3660.0176 7528.3926 18175.234 0
-3605.4302 7641.6455 18448.652 0
-3135.6899 6854.4951 16548.295 0
-3250.5247 7335.604 17709.799 0
0 0 0 0
-3289.2268 7936.959 19161.605 0
-3121.6235 7802.6841 18837.436 0
-3076.2305 7975.2559 19254.062 0
-2915.9438 7851.7866 18955.98 0
-2775.9351 7775.1899 18771.059 0
-2670.6965 7793.645 18815.613 0
-2662.093 8108.0396 19574.633 0
-2587.5439 8241.1367 19895.959 0
-2472.4595 8251.6973 19921.453 0
0 0 0 0
-2127.8838 7853.9028 18961.09 0
-2104.6873 8202.6982 19803.16 0
0 0 0 0
0 0 0 0
0 0 0 0
0 0 0 0
0 0 0 0
0 0 0 0
0 0 0 0
0 0 0 0
0 0 0 0
-936.24567 8278.1074 19985.213 2
-699.75244 7086.0698 17107.367 132102
-543.54742 6439.9937 15547.595 6450287
0 0 0 0
0 0 0 0
0 0 0 0
0 0 0 0
0 0 0 0
4.8976626 2898.7556 6998.2485 6253935
46.426048 2894.7266 6988.5215 7437951
0 0 0 0
0 0 0 0
0 0 0 0
471.82819 6425.3374 15512.211 3488826
656.41516 7477.8721 18053.266 1
795.70068 7791.0894 18809.443 256
892.53168 7662.6528 18499.369 0
1003.297 7668.8994 18514.449 0
1115.1666 7681.5176 18544.912 0
1228.3969 7700.3955 18590.488 0
1341.6499 7716.2886 18628.857 0
1450.2866 7705.2314 18602.164 0
1555.6816 7679.7393 18540.619 0
1671.5934 7706.1016 18604.264 0
1792.2623 7749.7627 18709.672 0
1898.817 7730.8579 18664.031 0
1998.7439 7688.5444 18561.877 0
2103.3965 7667.8857 18512.002 0
2193.6855 7599.5205 18346.953 0
2318.2471 7650.7388 18470.605 0
2420.9834 7628.5527 18417.043 657930
2578.1467 7772.3672 18764.244 1
2700.179 7802.7383 18837.566 1
2860.7495 7937.6216 19163.205 2
2916.5469 7782.5952 18788.938 256
3030.9756 7789.688 18806.061 0
3174.033 7867.2354 18993.277 1579289
3230.5286 7732.27 18667.441 256
3269.0305 7564.6309 18262.721 256
3383.1292 7577.0762 18292.768 0
3530.8127 7661.624 18496.885 1
3654.1208 7689.77 18564.836 257
3932.9937 8034.043 19395.988 593678
4025.0078 7987.8765 19284.531 7570308
4218.4731 8140.0273 19651.859 6518904
0 0 0 0
0 0 0 0
0 0 0 0
0 0 0 0
0 0 0 0
0 0 0 0
0 0 0 0
0 0 0 0
0 0 0 0
0 0 0 0
0 0 0 0
0 0 0 0
0 0 0 0
5622.1958 7818.1807 18874.848 8
5634.9912 7682.6802 18547.721 7
5285.5938 7068.0464 17063.855 2303787
5883.064 7718.896 18635.152 5402475
5497.6113 7079.875 17092.412 3028534
5699.1841 7206.3027 17397.637 259
6025.6924 7483.3838 18066.572 2
6034.3745 7362.9604 17775.844 257
6133.6685 7355.3408 17757.449 0
6248.2183 7365.9639 17783.096 256
6392.6538 7410.8794 17891.531 0
6482.8677 7392.4956 17847.148 256
6587.5127 7390.8955 17843.285 256
6703.8901 7402.3003 17870.818 0
6832.1133 7426.2251 17928.578 0
7169.8418 7673.6406 18525.896 0
7318.7642 7714.5566 18624.676 0
7421.6963 7706.4976 18605.221 0
7532.7544 7706.9893 18606.408 0
7368.4497 7429.812 17937.238 0
7426.7534 7381.8008 17821.328 0
7507.5576 7357.1895 17761.912 0
7617.4609 7361.3818 17772.033 0
7714.8188 7353.5024 17753.01 256
8096.9121 7613.5728 18380.879 256
8368.3867 7764.0884 18744.258 257
8375.9541 7669.0161 18514.73 260
8798.0527 7951.0312 19195.58 258
8706.4287 7767.5059 18752.508 989726
9141.2158 8052.3262 19440.127 5334377
8887.4814 7731.0991 18664.613 3753806
8663.2637 7443.1533 17969.447 520
8664.6523 7353.6919 17753.467 2964287
8092.7554 6785.6885 16382.18 5992311
9733.8145 8064.6719 19469.934 3164237
0 0 0 0
0 0 0 0
9570.585 7656.3745 18484.211 7837085
8707.9502 6887.2178 16627.295 7837342
8428.9316 6591.7334 15913.928 7837085
8104.2695 6267.5068 15131.172 7967901
7984.4077 6107.043 14743.777 8296350
7934.9009 6003.292 14493.299 3755092
7105.7876 5318.2778 12839.52 1053979
7462.4609 5525.8848 13340.729 197898
8426.6924 6174.2876 14906.12 3
7888.5386 5719.8452 13808.993 5923689
7773.457 5578.3643 13467.428 1250324
7645.8062 5430.8403 13111.271 132099
8117.5659 5707.7598 13779.817 0
8101.4238 5639.5127 13615.053 256
8300.4736 5720.9316 13811.616 256
8319.5752 5677.9453 13707.838 256
8364.417 5653.1895 13648.072 0
8434.0029 5645.4722 13629.44 0
8508.0947 5640.8892 13618.376 0
8566.1182 5625.8394 13582.042 0
8599.1768 5594.8281 13507.174 0
8653.6865 5578.2173 13467.072 0
10655.07 6805.3774 16429.713 256
10837.769 6859.2061 16559.668 256
8842.5605 5546.0771 13389.479 256
8902.875 5534.1025 13360.569 256
8949.125 5513.6743 13311.251 256
9009.127 5502.0024 13283.072 256
8340.7822 5049.5864 12190.838 256
8414.4141 5050.293 12192.544 256
8484.5645 5048.916 12189.22 256
8455.4727 4989.0059 12044.584 256
8498.3857 4972.2305 12004.084 256
9203.832 5340.1416 12892.305 257
9222.8125 5306.9731 12812.228 514
9513.0342 5429.1465 13107.182 772
9786.3994 5539.7935 13374.309 2898748
9716.3975 5455.853 13171.657 4409934
0 0 0 0
0 0 0 0
0 0 0 0
0 0 0 0
0 0 0 0
0 0 0 0
0 0 0 0
0 0 0 0
0 0 0 0
0 0 0 0
0 0 0 0
0 0 0 0
0 0 0 0
0 0 0 0
15676.015 7853.1592 18959.295 2569276
0 0 0 0
0 0 0 0
0 0 0 0
0 0 0 0
0 0 0 0
0 0 0 0
0 0 0 0
0 0 0 0
13012.943 6122.9355 14782.146 2569275
13118.039 6130.9941 14801.6 1515818
13248.781 6150.8501 14849.537 1452331
15282.102 7047.8867 17015.186 6584955
15272.842 6997.3125 16893.088 1053720
14625.736 6657.0762 16071.68 329739
13944.719 6305.9194 15223.908 518
13921.15 6254.6772 15100.199 66827
13807.582 6163.915 14881.078 2436146
13982.237 6202.1562 14973.401 1450534
0 0 0 0
14989.302 6565.292 15850.093 3688012
14530.34 6324.5205 15268.816 4016977
15509.983 6709.0225 16197.09 1122085
17112.271 7356.4517 17760.131 4347225
17602.859 7520.9604 18157.291 3952467
0 0 0 0
0 0 0 0
0 0 0 0
-9332.292 4315.2881 10270.707 0
-9276.4932 4317.7285 10276.516 0
-9219.5312 4319.6567 10281.104 0
-9159.9004 4320.3516 10282.758 0
-9099.9014 4320.8813 10284.019 0
-9040.3398 4321.627 10285.793 0
-8979.2891 4321.6655 10285.886 0
-8915.3975 4320.3286 10282.704 0
-8854.4482 4320.4087 10282.895 0
-8793.7334 4320.605 10283.362 65536
-8728.3486 4318.4941 10278.338 0
-8665.8076 4317.77 10276.614 0
-8606.1035 4318.4595 10278.255 0
-8543.2051 4317.5439 10276.076 0
-8480.9131 4316.9238 10274.601 0
-8420.0508 4317.0278 10274.848 0
-8359.4922 4317.2905 10275.474 0
-8296.2012 4316.1353 10272.724 0
-8220.6182 4308.5205 10254.6 0
-8159.3491 4308.3506 10254.195 0
-8099.7607 4309.0723 10255.912 65536
-8048.9863 4314.5293 10268.9 65536
-7997.9341 4319.9189 10281.729 65536
-7955.1514 4329.8931 10305.468 65536
-7907.5669 4337.3882 10323.307 65536
-7855.7671 4342.6704 10335.879 65536
-7803.9067 4348.002 10348.568 65536
-7749.041 4351.7305 10357.442 65536
-7692.4229 4354.5273 10364.099 65536
-7639.1938 4359.3022 10375.464 65536
-7585.5845 4363.9365 10386.494 65536
-7543.1499 4375.1289 10413.132 0
-7503.1201 4387.9116 10443.557 0
-7445.1909 4390.3535 10449.368 0
-7391.0439 4395.0854 10460.63 0
-7337.4077 4400.2031 10472.812 0
-7283.2979 4405.123 10484.521 0
-7227.1797 4408.9019 10493.515 0
-7174.1924 4414.6733 10507.252 0
-7114.022 4416.0879 10510.617 0
-7055.8545 4418.7808 10517.027 0
-7002.3311 4424.457 10530.537 0
-6956.1294 4434.9033 10555.4 0
-6897.0811 4437.2744 10561.044 0
-6790.8555 4409.0591 10493.889 65793
-6296.3335 4125.877 9819.8945 3158064
-6243.6104 4129.6069 9828.7715 0
-6662.0542 4447.9873 10586.541 0
-6728.5215 4535.1973 10794.107 0
-6469.7261 4402.7402 10478.85 0
-6557.1855 4505.6299 10723.735 0
-6570.7007 4559.2319 10851.312 0
-6536.7026 4580.6011 10902.172 0
-6484.8169 4589.7388 10923.92 0
-6459.5498 4618.0903 10991.399 0
-6420.5405 4637.0967 11036.636 65536
-6447.6465 4704.7393 11197.63 65536
-6396.811 4716.3267 11225.208 65536
-6397.2583 4766.3667 11344.307 65536
-6351.5464 4782.7153 11383.219 65536
-6277.6523 4777.9658 11371.915 65536
-6250.0898 4808.7603 11445.208 65536
-6231.0498 4846.8618 11535.893 65536
-6012.1108 4728.5894 11254.395 65536
-5969.0356 4747.5293 11299.474 65536
-6041.7119 4860.0122 11567.191 65536
-6367.0117 5180.6367 12330.301 65536
-6581.417 5417.4448 12893.923 65536
-6557.8438 5461.6353 12999.099 65536
-6507.376 5484.2139 13052.837 0
-6480.1992 5527.2021 13155.153 0
-6436.3921 5556.8833 13225.796 0
-6421.3594 5612.4473 13358.042 0
-6388.4287 5653.564 13455.902 0
-6340.6797 5682.4429 13524.637 0
-6311.7061 5729.1055 13635.697 0
-6272.6108 5767.6753 13727.496 0
-6232.1372 5805.978 13818.659 0
-6184.7354 5838.7622 13896.688 0
-6149.1553 5883.7456 14003.752 0
-6112.1089 5928.541 14110.369 0
-6059.4424 5959.2217 14183.391 0
-6027.8809 6011.8164 14308.57 0
-5990.9775 6060.5122 14424.471 0
-5953.6089 6110.145 14542.601 0
-5914.9556 6159.9023 14661.025 0
-5871.8086 6206.397 14771.687 0
-5834.1763 6260.2212 14899.792 0
-5772.2275 6289.2095 14968.787 0
-5717.0093 6326.5542 15057.67 0
-5666.5225 6370.4053 15162.039 0
-5605.1289 6403.2144 15240.127 0
-5545.1411 6438.7339 15324.665 0
-5480.7485 6470.2388 15399.649 0
-5417.1479 6503.7646 15479.444 0
-5349.5317 6533.5449 15550.323 0
-5389.8086 6698.4624 15942.839 0
-5298.9678 6703.4126 15954.62 0
-5162.8896 6650.2729 15828.146 0
-5134.0771 6735.8936 16031.928 0
-5008.4097 6695.2754 15935.254 0
-4940.6997 6732.063 16022.812 0
-4865.0825 6759.311 16087.664 0
-4793.3105 6793.1016 16168.086 0
-4717.3374 6822.1978 16237.338 0
-4631.5718 6838.0518 16275.072 0
-4558.9409 6874.3887 16361.557 0
-4487.8062 6914.6138 16457.295 0
-4417.1372 6957.3647 16559.047 0
-4342.6191 6995.8652 16650.68 0
-4264.1113 7029.5825 16730.93 0
-4182.0171 7058.8564 16800.604 0
-4096.1255 7082.9961 16858.059 0
-4034.562 7151.4692 17021.029 0
-3978.7332 7233.8911 17217.199 0
-3919.094 7313.5542 17406.803 0
-3840.1982 7360.627 17518.84 0
-3729.4255 7347.521 17487.646 0
-3660.0923 7417.646 17654.549 0
-3610.634 7533.3784 17930.002 0
-3594.207 7727.1636 18391.225 0
-3494.9873 7749.5269 18444.451 0
-3366.2285 7705.7192 18340.186 0
-3245.585 7678.1782 18274.637 0
-3233.8848 7915.3853 18839.207 0
-3134.6638 7947.7046 18916.129 0
-3028.9629 7965.3877 18958.215 0
-2881.7742 7871.1191 18733.85 0
-2808.9614 7980.5845 18994.385 0
-2711.1221 8025.1367 19100.422 0
-2613.8093 8075.2085 19219.598 0
-2547.707 8230.6865 19589.646 0
-2445.6941 8279.4863 19705.795 0
-2356.7671 8379.7236 19944.367 0
0 0 0 0
0 0 0 0
0 0 0 0
0 0 0 0
0 0 0 0
0 0 0 0
0 0 0 0
0 0 0 0
0 0 0 0
0 0 0 0
-1054.0977 8389.5078 19967.652 0
-856.65643 7683.0762 18286.293 257
-783.849 8051.5713 19163.338 1053203
0 0 0 0
0 0 0 0
0 0 0 0
0 0 0 0
0 0 0 0
0 0 0 0
0 0 0 0
0 0 0 0
0 0 0 0
0 0 0 0
449.20914 7711.999 18355.131 6317928
589.70544 8145.8125 19387.641 6779506
715.7124 8270.375 19684.107 4738894
801.6795 7962.2612 18950.775 256
888.3075 7735.8145 18411.814 256
998.73669 7743.5791 18430.295 256
1112.7384 7774.7705 18504.531 0
1205.6805 7666.4404 18246.699 723723
1327.2655 7743.0894 18429.129 0
1413.8407 7619.3794 18134.689 0
1546.8684 7745.8018 18435.584 0
1658.1676 7753.8921 18454.84 0
1778.0837 7798.7725 18561.658 0
1886.9747 7792.8774 18547.629 0
1986.2952 7750.291 18446.27 0
2089.8042 7727.647 18392.375 0
2202.509 7739.5688 18420.75 256
2305.96 7719.3833 18372.707 66049
2408.3059 7697.4912 18320.602 987408
2536.7019 7757.1528 18462.602 256
2713.3086 7953.1812 18929.164 2829612
2829.645 7963.9717 18954.846 1513752
2899.3958 7847.8413 18678.447 257
3000.6343 7822.3623 18617.805 0
3214.375 8081.5464 19234.682 4210752
3227.6431 7836.2119 18650.768 1
3271.1965 7678.2563 18274.822 0
3377.6196 7673.2803 18262.979 256
3497.3186 7697.835 18321.42 257
3594.8196 7673.5225 18263.555 514
3975.2119 8236.7979 19604.191 1119767
3807.7209 7665.0845 18243.471 2435626
4223.3945 8266.459 19674.787 2504502
0 0 0 0
0 0 0 0
0 0 0 0
0 0 0 0
0 0 0 0
0 0 0 0
0 0 0 0
0 0 0 0
0 0 0 0
0 0 0 0
0 0 0 0
0 0 0 0
0 0 0 0
0 0 0 0
5278.7559 7300.2612 17375.164 266
5437.2368 7375.1538 17553.416 7
5369.9556 7146.7651 17009.834 197896
5602.0034 7317.8267 17416.973 4410189
5578.0845 7154.3818 17027.961 856080
6005.0674 7564.7769 18004.732 257
6053.1211 7491.8105 17831.066 0
6157.6919 7490.1011 17826.998 256
6279.5532 7509.125 17872.277 0
6394.1069 7518.9233 17895.598 256
6526.4272 7548.9517 17967.066 256
6626.0308 7540.7803 17947.617 256
6730.3286 7538.1235 17941.295 0
6857.2144 7560.4556 17994.447 0
6991.8198 7590.4819 18065.912 0
7379.8833 7890.5981 18780.211 0
7582.1768 7986.1055 19007.525 0
7598.1489 7885.4414 18767.938 0
7388.3506 7556.7734 17985.684 0
7464.1631 7525.436 17911.098 0
7539.5029 7494.5098 17837.49 0
7730.8975 7578.2031 18036.688 0
7969.5859 7705.3335 18339.268 256
8255.7383 7874.3052 18741.432 1
8606.3945 8099.4805 19277.367 65794
8380.2881 7783.0806 18524.311 1
8220.3506 7535.5415 17935.15 2
8731.8447 7901.9595 18807.252 4
8762.9004 7829.8325 18635.584 395276
8673.168 7652.9258 18214.533 65540
7950.521 6928.8027 16491.066 7
8860.666 7627.9502 18155.09 8
8746.1494 7438.7788 17704.848 520
8647.7969 7267.6885 17297.641 1978675
10102.745 8390.6914 19970.471 7574681
9532.3018 7824.9863 18624.051 7706268
9174.0293 7444.4385 17718.318 7771292
8722.1055 6997.3955 16654.322 7837085
8351.9062 6625.2139 15768.502 7902878
7934.4663 6224.2339 14814.14 7639192
7877.9966 6112.1123 14547.282 7967899
7570.8564 5810.0547 13828.362 6783368
7727.5718 5866.6357 13963.029 9151142
8031.7739 6032.7939 14358.498 4476245
7948.4722 5907.4575 14060.188 6
8142.8564 5988.9639 14254.18 6
7928.5635 5771.3101 13736.147 4
7901.8311 5693.229 13550.309 3
7882.4111 5621.9395 13380.634 65795
7638.6519 5393.6675 12837.33 2
8326.3574 5821.1147 13854.687 256
8307.0039 5750.7134 13687.126 256
8349.6836 5724.2036 13624.031 0
8421.2568 5717.8223 13608.843 0
8503.8018 5718.9404 13611.504 0
8562.917 5704.4292 13576.966 0
8603.2783 5677.813 13513.617 0
8668.3105 5667.8188 13489.831 0
10646.63 6897.5562 16416.697 256
10809.971 6939.7803 16517.193 256
8834.665 5620.6318 13377.522 256
8892.79 5607.1499 13345.435 256
8950.2676 5593.502 13312.95 256
8993.2139 5571.0908 13259.611 256
8858.0723 5439.7061 12946.905 0
8362.8877 5091.3882 12117.883 0
8453.4619 5102.5869 12144.537 256
8409.9648 5033.354 11979.758 0
8403.2305 4987.1025 11869.676 256
9201.7402 5415.5342 12889.375 256
9253.583 5401.0806 12854.974 256
9274.3994 5368.9023 12778.388 257
9390.0859 5391.7212 12832.697 260
9678.8438 5512.7476 13120.75 1383457
9702.6533 5482.1396 13047.9 2042672
0 0 0 0
0 0 0 0
0 0 0 0
0 0 0 0
0 0 0 0
0 0 0 0
0 0 0 0
0 0 0 0
0 0 0 0
0 0 0 0
0 0 0 0
0 0 0 0
0 0 0 0
0 0 0 0
0 0 0 0
0 0 0 0
0 0 0 0
0 0 0 0
0 0 0 0
0 0 0 0
0 0 0 0
0 0 0 0
14438.901 6891.3701 16401.975 1909034
14825.341 7028.3584 16728.016 724758
13795.271 6496.4595 15462.058 262
0 0 0 0
13916.705 6467.4795 15393.082 1053978
13760.454 6353.1016 15120.854 528151
13888.59 6370.6543 15162.631 2238251
13523.394 6163.1489 14668.754 658706
13589.742 6153.7158 14646.302 2
13738.561 6181.5088 14712.451 264461
14484.394 6475.8716 15413.056 1910058
16541.57 7349.1421 17491.506 3094589
16599.373 7328.7637 17443.004 3555139
17533.271 7693.042 18310.012 3686984
19055.48 8309.3652 19776.908 1253157
0 0 0 0
0 0 0 0
0 0 0 0
0 0 0 0
-9373.6797 4395.7388 10316.256 0
-9325.9561 4402.1533 10331.311 0
-9277.4717 4408.2915 10345.716 0
-9220.5605 4410.481 10350.854 0
-9160.8164 4411.3354 10352.859 0
-9101.8896 4412.5977 10355.822 0
-9042.6074 4413.7041 10358.418 0
-8983.666 4414.9927 10361.442 0
-8922.0732 4414.9873 10361.43 0
-8861.1953 4415.3379 10362.252 0
-8798.5332 4414.7979 10360.985 0
-8739.252 4415.959 10363.71 0
-8683.6602 4419.0142 10370.88 0
-8622.0615 4419.0347 10370.928 0
-8560.7119 4419.1836 10371.277 0
-8498.9326 4419.1104 10371.106 0
-8428.8682 4414.6978 10360.75 0
