# .PCD v0.7 - Point Cloud Data file format
VERSION 0.7
FIELDS x y z rgb
SIZE 4 4 4 4
TYPE F F F U
COUNT 1 1 1 1
WIDTH 1616
HEIGHT 1
VIEWPOINT 0 0 0 1 0 0 0
POINTS 1616
DATA ascii
1791.1017 6966.8618 18697.555 0
1883.3354 6897.6699 18511.859 0
1994.0327 6900.0044 18518.125 0
2106.2063 6906.937 18536.73 65536
2206.1633 6875.1099 18451.312 0
2322.9973 6896.4004 18508.451 0
2406.804 6822.1489 18309.176 0
2571.5178 6973.7339 18715.998 256
2696.8708 7010.4321 18814.488 0
2783.1279 6946.6245 18643.242 0
2830.5994 6794.6021 18235.248 0
2956.9202 6836.0835 18346.574 256
3124.5454 6966.7085 18697.145 256
3180.6201 6848.1836 18379.049 256
3281.1494 6830.0659 18330.424 987152
3388.0029 6825.8545 18319.121 256
3591.8174 7011.1709 18816.471 395015
3616.9622 6847.0669 18376.051 1579545
3840.9768 7058.0176 18942.197 256
3910.3491 6980.8818 18735.182 0
4033.6807 7001.6792 18790.998 0
4157.2817 7021.8125 18845.031 0
4361.2441 7173.061 19250.949 257
4510.5952 7229.0532 19401.221 770
4688.2085 7326.4194 19662.529 1976360
0 0 0 0
0 0 0 0
0 0 0 0
0 0 0 0
0 0 0 0
0 0 0 0
0 0 0 0
0 0 0 0
0 0 0 0
0 0 0 0
0 0 0 0
6099.7847 7337.5361 19692.365 1383455
5827.957 6878.5688 18460.596 4
6006.5845 6958.3975 18674.84 4
5992.229 6815.8232 18292.201 4
5999.688 6702.7007 17988.604 2
6134.6396 6733.4771 18071.201 1
6304.3921 6800.7339 18251.705 256
6483.8125 6875.9702 18453.621 256
6613.9517 6897.3096 18510.893 256
6766.9917 6941.4419 18629.334 256
6913.8188 6977.8838 18727.135 0
7045.8599 6998.4834 18782.42 0
7188.6665 7028.9673 18864.232 0
7261.2793 6990.9336 18762.158 0
7425.8164 7041.2144 18897.102 0
7599.1685 7098.2305 19050.121 0
7727.1807 7111.8428 19086.654 0
7813.3862 7087.1416 19020.361 0
7797.9517 6972.2666 18712.061 0
7850.6519 6920.6855 18573.629 0
7911.3154 6877.458 18457.615 0
7994.5732 6854.7856 18396.768 0
8107.5732 6857.8828 18405.08 0
8187.6465 6833.4175 18339.418 0
8291.2451 6828.9702 18327.484 256
8320.1826 6763.9424 18152.963 256
8381.3545 6726.4487 18052.34 256
8243.7666 6532.4062 17531.57 256
8403.8613 6576.1475 17648.963 514
8527.7979 6590.8647 17688.461 771
8452.6982 6453.269 17319.184 1977645
8474.8721 6392.3535 17155.699 2503989
9181.876 6843.2935 18365.926 4675930
9584.5615 7059.4932 18946.158 1582632
0 0 0 0
0 0 0 0
9485.4443 6748.6318 18111.873 7244171
8440.5918 5937.8623 15935.942 7441294
8063.5605 5609.6777 15055.166 8098968
7376.9941 5075.7227 13622.145 3
7505.354 5107.981 13708.72 262
7609.2773 5123.0947 13749.281 7
7718.0762 5141.1343 13797.695 6
7829.2441 5160.3564 13849.284 6
7923.1431 5167.9146 13869.568 4
8035.647 5187.3271 13921.668 4
8031.1089 5131.5596 13772 2
8156.6934 5159.2212 13846.237 2
8205.6357 5138.3369 13790.188 2
8208.1162 5089.0591 13657.938 2
8202.9717 5036.0654 13515.714 2
8339.8438 5070.4434 13607.977 2
8492.2227 5113.4971 13723.524 256
8552.6494 5100.8911 13689.691 0
8623.5771 5094.7261 13673.146 0
8680.8604 5080.6904 13635.478 0
8755.8936 5077.2075 13626.131 0
8802.0596 5057.2026 13572.441 0
8885.2881 5058.6611 13576.356 0
10002.502 5643.4751 15145.871 0
9079.499 5077.021 13625.63 0
9008.8926 4993.0059 13400.151 0
9066.7998 4981.0659 13368.106 0
9092.0684 4951.5576 13288.913 0
9148.7764 4939.5322 13256.64 0
9221.7461 4936.4175 13248.28 0
9263.6143 4916.8472 13195.758 0
9312.6426 4901.3745 13154.232 0
9246.4209 4826.0063 12951.961 256
8725.7891 4516.6694 12121.768 256
9426.3037 4839.3169 12987.684 256
9516.707 4846.0454 13005.74 256
9559.1719 4828.4512 12958.521 256
9614.9424 4817.8047 12929.949 256
9661.0605 4802.5293 12888.954 2
9703.5693 4785.7144 12843.825 2
9780.1611 4785.8398 12844.162 258
9851.4316 4783.3794 12837.559 260
10116.348 4874.2593 13081.462 66052
10237.892 4895.2002 13137.662 67594
10323.339 4898.6953 13147.043 528916
10778.506 5076.2617 13623.593 198151
0 0 0 0
0 0 0 0
0 0 0 0
0 0 0 0
0 0 0 0
0 0 0 0
0 0 0 0
0 0 0 0
0 0 0 0
0 0 0 0
0 0 0 0
0 0 0 0
17072.578 7325.1675 19659.17 263433
0 0 0 0
0 0 0 0
0 0 0 0
0 0 0 0
16890.797 7007.3862 18806.314 2961203
13642.838 5622.7178 15090.162 1
12981.464 5315.1997 14264.85 592911
12218.64 4970.4033 13339.491 263689
12081.247 4882.8315 13104.467 921877
13136.654 5275.3818 14157.987 2
14092.332 5623.1421 15091.301 461582
0 0 0 0
17950.689 7072.6787 18981.545 1185563
0 0 0 0
0 0 0 0
0 0 0 0
19209.078 7382.895 19814.1 989723
0 0 0 0
0 0 0 0
-10099.896 4180.4438 11043.263 0
-10301.419 4291.7466 11337.285 0
-9190.7666 3854.2402 10181.548 0
-9802.1855 4137.8892 10930.848 0
-9776.3789 4154.5298 10974.807 0
-9817.8604 4200.1807 11095.401 0
-9783.749 4213.8911 11131.618 0
-9742.127 4224.5312 11159.726 0
-9726.3516 4246.6021 11218.029 0
-9505.2363 4178.7056 11038.671 0
-9458.4346 4187.0303 11060.662 0
-9393.8301 4187.5352 11061.996 0
-9329.4561 4188.1509 11063.622 0
-9261.1475 4186.9961 11060.572 0
-9192.7861 4185.8013 11057.415 65536
-9123.4658 4184.1494 11053.052 65536
-9049.9355 4180.5283 11043.486 65536
-8978.3389 4177.7544 11036.158 0
-8904.6562 4173.9619 11026.141 0
-8843.207 4175.8901 11031.233 0
-8782.1885 4178.0513 11036.943 0
-8726.0566 4182.5884 11048.928 0
-8664.3389 4184.4961 11053.967 0
-8609.8008 4189.9263 11068.312 0
-8546.4189 4191.104 11071.423 0
-8484.5518 4193.0479 11076.559 0
-8421.8496 4194.6069 11080.677 0
-8359.6768 4196.4561 11085.562 65536
-8296.8076 4197.9819 11089.593 65536
-8228.8711 4196.9478 11086.861 65536
-8166.1025 4198.5547 11091.104 65536
-8108.7671 4203.0029 11102.856 65536
-8058.6514 4211.2979 11124.769 65536
-8008.459 4219.6895 11146.936 0
-7968.3696 4233.5884 11183.652 0
-7916.0977 4241.1948 11203.745 0
-7862.6353 4248.2861 11222.479 0
-7811.1592 4256.5815 11244.393 0
-7760.1289 4265.2656 11267.332 0
-7724.2095 4282.4785 11312.802 0
-7669.0435 4289.229 11330.635 0
-7615.8584 4297.2168 11351.736 0
-7563.479 4305.8062 11374.427 65536
-7520.8809 4320.1689 11412.368 65536
-7470.6709 4330.3813 11439.345 65536
-7424.1323 4342.9282 11472.49 65536
-7380.2598 4357.2822 11510.408 65536
-7327.481 4366.5977 11535.016 0
-7275.8496 4376.7793 11561.911 0
-7228.7085 4389.8813 11596.522 0
-7176.9634 4400.4126 11624.344 0
-7136.8511 4418.3516 11671.73 0
-7094.2905 4435.1108 11716.004 0
-7040.2373 4444.9473 11741.987 0
-6992.1016 4458.7539 11778.46 0
-6973.2231 4491.6846 11865.452 0
-6934.3306 4512.2656 11919.82 0
-6910.2144 4542.9854 12000.971 0
-6872.8315 4565.5332 12060.534 0
-6840.2876 4591.8052 12129.935 0
-6804.7407 4616.5986 12195.431 0
-6769.6387 4642.2319 12263.145 65536
-6740.3408 4672.4458 12342.959 65536
-6707.4556 4700.811 12417.89 65536
-6676.9409 4731.4873 12498.926 65536
-6650.3794 4765.686 12589.267 65536
-6620.5527 4798.2969 12675.414 65536
-6589.1919 4830.5337 12760.572 65536
-6549.4912 4857.3364 12831.375 65536
-6520.7329 4892.9814 12925.537 65536
-6523.4272 4953.3589 13085.033 65536
-6495.4214 4991.6011 13186.055 65536
-6470.2471 5032.979 13295.361 65536
-6467.4595 5093.0103 13453.943 65536
-6432.0527 5128.5352 13547.787 65536
-6379.6572 5151.2437 13607.774 0
-6320.3872 5168.9136 13654.452 0
-6279.459 5202.2378 13742.482 0
-6231.4312 5230.4814 13817.093 0
-6191.3594 5266.2466 13911.571 0
-6148.1758 5300.2974 14001.521 0
-6097.0166 5328.3125 14075.528 0
-6056.9551 5366.9404 14177.569 0
-6013.3545 5403.478 14274.089 0
-5959.521 5431.7349 14348.733 0
-5908.4263 5463.3442 14432.234 0
-5861.5356 5499.8301 14528.617 0
-5817.2666 5539.9028 14634.476 0
-5761.3433 5569.9258 14713.785 0
-5710.4609 5605.8223 14808.611 0
-5652.7432 5636.0273 14888.403 0
-5589.4365 5661.5332 14955.779 0
-5535.9072 5697.9258 15051.916 0
-5478.2427 5731.1875 15139.782 0
-5427.0288 5772.4219 15248.71 0
-5367.4155 5805.9712 15337.335 0
-5308.5732 5841.5283 15431.264 0
-5269.9995 5901.0308 15588.448 0
-5193.771 5919.7451 15637.885 0
-5121.186 5943.3696 15700.292 0
-5066.791 5989.3726 15821.817 0
-5004.7109 6027.8599 15923.486 0
-4923.9443 6044.8901 15968.474 0
-4839.0557 6057.4292 16001.599 0
-4770.5947 6091.4482 16091.465 0
-4710.5981 6137.8877 16214.142 0
-4641.1216 6173.6567 16308.63 0
-4656.8252 6326.6753 16712.852 0
-4480.6333 6219.9766 16430.992 0
-4403.0762 6248.4985 16506.336 0
-4334.6606 6291.5884 16620.164 0
-4253.2139 6317.333 16688.172 0
-4175.3462 6349.7495 16773.805 0
-4091.6401 6374.6548 16839.598 0
-4019.5168 6419.3086 16957.557 0
-3928.136 6434.7134 16998.25 0
-3852.9275 6478.1226 17112.922 0
-3774.053 6517.5547 17217.088 0
-3690.3232 6550.5654 17304.291 0
-3608.5127 6588.9741 17405.754 0
-3536.927 6648.8711 17563.98 0
-3488.6699 6757.5996 17851.201 0
-3476.3506 6944.9429 18346.098 0
-3387.6372 6986.8594 18456.826 0
-3298.3191 7030.293 18571.562 0
0 0 0 0
-3264.5815 7457.5093 19700.117 0
-3046.2986 7217.7354 19066.719 0
-2936.8875 7227.355 19092.131 0
-2833.28 7252.6035 19158.828 0
-2726.0618 7270.3369 19205.674 0
-2489.7668 6930.3315 18307.5 0
-2369.2615 6896.2837 18217.557 0
-2321.2178 7079.9902 18702.846 0
-2328.4856 7459.3696 19705.031 0
-2049.7329 6914.1309 18264.703 0
0 0 0 0
0 0 0 0
0 0 0 0
0 0 0 0
0 0 0 0
0 0 0 0
0 0 0 0
0 0 0 0
0 0 0 0
0 0 0 0
0 0 0 0
0 0 0 0
0 0 0 0
0 0 0 0
0 0 0 0
0 0 0 0
0 0 0 0
0 0 0 0
0 0 0 0
126.96698 7235.0142 19112.363 258
238.01285 7158.4561 18910.123 0
348.90277 7127.8223 18829.201 65536
457.01749 7069.1421 18674.188 0
565.16156 7033.7583 18580.717 0
673.5564 7012.5527 18524.699 0
792.7002 7093.4937 18738.516 66050
892.90967 7005.9297 18507.203 0
1027.0309 7174.4692 18952.426 0
1091.1816 6869.2139 18146.049 526343
1258.4274 7209.502 19044.969 0
1371.7494 7210.1909 19046.789 0
1486.4178 7217.313 19065.604 0
1597.6818 7208.0664 19041.178 0
1702.554 7173.1143 18948.846 0
1802.0327 7121.1846 18811.666 0
1888.9037 7028.4111 18566.59 0
1974.0599 6939.8491 18332.643 0
2096.2112 6983.8076 18448.764 0
2196.2444 6953.3687 18368.355 65536
2372.0901 7154.4717 18899.598 65536
2482.1079 7147.8218 18882.031 0
2570.9653 7083.4473 18711.977 256
2606.2822 6883.0146 18182.504 0
2795.3455 7088.4092 18725.084 0
2900.3088 7072.9814 18684.33 0
2986.4329 7014.4419 18529.689 0
3057.2351 6925.3584 18294.363 0
3126.0491 6838.0449 18063.711 0
3269.595 6914.5737 18265.873 0
3474.613 7112.0093 18787.428 256
3515.8755 6972.4023 18418.635 263684
3417.5923 6572.8462 17363.148 1908509
3838.4375 7165.8569 18929.674 256
3917.4424 7105.0967 18769.166 0
4041.1428 7126.5205 18825.762 0
4176.3779 7166.5835 18931.594 65536
4324.7168 7226.4409 19089.717 1
4513.6387 7349.3169 19414.311 515
4747.981 7538.1792 19913.219 66307
0 0 0 0
0 0 0 0
0 0 0 0
0 0 0 0
0 0 0 0
0 0 0 0
0 0 0 0
0 0 0 0
5406.7324 7011.1685 18521.043 518
5846.8345 7430.5898 19629.006 4343884
0 0 0 0
6098.5713 7453.0918 19688.449 395275
5847.4883 7011.7065 18522.463 1448733
6024.9985 7091.062 18732.092 4
6078.3911 7024.1079 18555.225 2
6074.5698 6894.604 18213.119 2
6118.5254 6822.9111 18023.732 256
6282.8511 6885.6035 18189.344 256
6489.0894 6991.332 18468.641 256
6608.9443 7002.022 18496.879 256
6752.396 7036.9517 18589.152 256
6905.7427 7080.9033 18705.258 0
7038.4102 7102.5957 18762.561 0
7190.4443 7142.8491 18868.896 0
7259.9971 7101.1895 18758.846 0
7408.9434 7137.2715 18854.162 0
7571.519 7185.2129 18980.807 0
7731.7383 7229.5435 19097.912 0
7823.1558 7209.189 19044.143 0
7892.5293 7169.3916 18939.012 0
7928.2134 7100.5396 18757.129 0
7929.1562 7002.9146 18499.238 0
7983.5791 6954.5469 18371.469 0
8062.5107 6928.5464 18302.783 0
8215.8457 6966.3247 18402.58 0
8295.4434 6941.4092 18336.764 256
8369.6465 6912.686 18260.885 256
8374.7803 6828.3809 18038.182 256
8359.9502 6730.1362 17778.652 256
8439.4473 6709.332 17723.697 257
8482.0576 6660.0791 17593.586 257
8653.9902 6712.3311 17731.619 66052
8627.5225 6611.292 17464.709 516
9081.4336 6876.395 18165.018 2897468
9492.8477 7103.4678 18764.865 2112055
10213.037 7553.6401 19954.061 5335917
9504.2588 6948.7329 18356.109 6125689
9257.9072 6691.8081 17677.404 6519934
8135.8071 5814.7427 15360.505 3951441
7704.8081 5445.5977 14385.354 1778729
6818.6304 4766.375 12591.087 594456
7398.5439 5115.6045 13513.629 3686725
7504.9492 5133.4497 13560.77 3
7670.5762 5190.9932 13712.779 329225
7742.0083 5184.252 13694.971 4
7904.7808 5238.1787 13837.426 4
8031.2842 5267.2075 13914.11 3
8090.3687 5251.8799 13873.62 3
8209.0049 5275.1299 13935.038 2
8255.7373 5252.1704 13874.388 2
8375.8154 5275.8657 13936.982 2
8335.1084 5198.811 13733.431 2
8410.7529 5195.1187 13723.677 1
8488.0361 5192.5 13716.759 256
8560.4707 5186.9927 13702.211 256
8629.3994 5179.4849 13682.379 256
8682.5215 5162.7192 13638.089 0
8754.8408 5157.5723 13624.492 0
8824.2139 5150.7998 13606.603 0
8895.6328 5145.3335 13592.162 0
8970.6826 5142.0479 13583.482 0
9035.4639 5132.9863 13559.546 0
9058.4805 5100.5693 13473.911 0
9135.1748 5098.6792 13468.918 256
9148.415 5061.7144 13371.27 0
9080.6152 4980.9331 13157.874 0
9244.8672 5027.7305 13281.496 0
9262.8867 4994.8818 13194.722 256
9316.3613 4981.5425 13159.484 256
9366.8652 4966.8506 13120.674 256
9406.9238 4946.9082 13067.992 256
9502.4111 4956.2026 13092.545 256
9584.5723 4958.4517 13098.486 256
9600.3125 4926.5796 13014.292 256
9662.7031 4918.9653 12994.177 256
9705.2725 4901.4609 12947.937 256
9760.9443 4890.7979 12919.769 1
9856.2441 4900.001 12944.08 258
9917.5664 4892.3018 12923.741 258
10516.266 5147.769 13598.596 198151
11161.854 5422.1167 14323.326 1516066
10511.719 5067.6499 13386.949 5463904
10977.118 5252.2622 13874.631 67336
0 0 0 0
0 0 0 0
0 0 0 0
0 0 0 0
0 0 0 0
0 0 0 0
0 0 0 0
0 0 0 0
0 0 0 0
0 0 0 0
0 0 0 0
0 0 0 0
17043.758 7429.4463 19625.984 2566446
0 0 0 0
0 0 0 0
0 0 0 0
0 0 0 0
16874.303 7112.207 18787.949 197380
13725.062 5746.8311 15181.107 394759
13337.935 5548.2637 14656.562 1
12074.428 4990.085 13182.051 66051
12030.073 4939.7026 13048.958 461067
12115.992 4943.1152 13057.973 593425
13725.418 5564.0928 14698.378 1514269
0 0 0 0
18500.941 7405.7534 19563.396 2106921
18386.916 7314.1431 19321.395 1186333
0 0 0 0
0 0 0 0
19157.121 7480.3706 19760.508 66566
0 0 0 0
0 0 0 0
-10193.385 4285.3813 11145.484 0
-10421.812 4410.0732 11469.785 0
-9308.2041 3964.7747 10311.646 0
-9909.0371 4248.6694 11050.003 0
-9909.0547 4277.0234 11123.747 0
-9929.8623 4314.7925 11221.977 0
-9884.8721 4324.2881 11246.673 0
-9847.9023 4337.4453 11280.893 0
-9832.8877 4360.519 11340.904 0
-9565.6104 4271.271 11108.786 0
-9522.2314 4281.4521 11135.266 0
-9457.3086 4282.022 11136.746 65536
-9394.0469 4283.3569 11140.22 65536
-9330.1084 4284.4004 11142.933 65536
-9266.1953 4285.4702 11145.715 65536
-9188.084 4279.9414 11131.335 65536
-9121.7715 4279.8687 11131.146 65536
-9055.3457 4279.7412 11130.815 0
-8988.1699 4279.2554 11129.551 0
-8922.7949 4279.6245 11130.513 0
-8860.7607 4281.6152 11135.688 0
-8799.2979 4283.9131 11141.666 0
-8738.6387 4286.6401 11148.758 0
-8674.4541 4287.667 11151.429 0
-8612.0742 4289.6079 11156.477 0
-8540.8115 4287.1201 11150.006 0
-8486.041 4292.9365 11165.134 0
-8429.9688 4298.1812 11178.773 65536
-8367.0156 4299.9727 11183.434 0
-8307.8174 4303.7378 11193.227 0
-8246.5703 4306.4946 11200.396 0
-8187.3716 4310.374 11210.485 0
-8132.9893 4316.8735 11227.39 0
-8083.9351 4326.3325 11251.99 0
-8040.8325 4339.1606 11285.354 0
-7978.459 4341.7183 11292.006 0
-7918.1558 4345.4546 11301.724 0
-7868.9629 4355.4048 11327.603 0
-7819.6055 4365.4346 11353.688 0
-7797.416 4390.939 11420.02 0
-7737.4521 4395.4321 11431.705 0
-7679.7651 4401.3091 11446.991 0
-7624.7158 4408.8169 11466.518 65536
-7574.7773 4419.4419 11494.151 65536
-7518.6714 4426.6299 11512.845 65536
-7471.1709 4439.062 11545.179 65536
-7426.835 4453.6226 11583.048 65536
-7377.5029 4465.4312 11613.761 0
-7326.9199 4476.6992 11643.066 0
-7276.2617 4488.1353 11672.81 0
-7221.8877 4497.4775 11697.106 0
-7180.2324 4514.9985 11742.677 0
-7133.6641 4529.7446 11781.028 0
-7080.9834 4540.8638 11809.946 0
-7031.041 4553.978 11844.055 0
-7005.2217 4583.1401 11919.9 0
-6970.0479 4606.7163 11981.217 0
-6934.0293 4630.2139 12042.33 0
-6898.8525 4654.77 12106.196 0
-6873.4819 4686.5308 12188.799 0
-6841.1636 4714.1792 12260.708 0
-6807.0015 4741.1392 12330.826 65536
-6776.04 4770.9399 12408.332 65536
-6740.5332 4798.1606 12479.129 65536
-6705.6025 4826.4019 12552.579 65536
-6676.3184 4859.3882 12638.37 65536
-6647.8306 4893.7114 12727.639 65536
-6617.1641 4927.2026 12814.743 65536
-6584.7803 4960.1807 12900.512 65536
-6553.2949 4994.6201 12990.082 65536
-6535.4185 5040.3765 13109.087 65536
-6503.4712 5076.2534 13202.396 65536
-6476.0942 5116.6177 13307.377 65536
-6463.8911 5170.1182 13446.521 65536
-6438.0244 5213.8906 13560.365 65536
-6389.6812 5240.3408 13629.157 0
-6338.998 5265.5254 13694.657 0
-6278.9937 5283.5225 13741.465 0
-6255.4829 5333.1064 13870.423 0
-6217.312 5371.3491 13969.886 0
-6167.3438 5400.2969 14045.174 0
-6118.4253 5430.9712 14124.951 0
-6075.8809 5468.2349 14221.868 0
-6030.5332 5503.9927 14314.867 0
-5979.2515 5535.2798 14396.238 0
-5923.4082 5563.1909 14468.83 0
-5871.4106 5595.5898 14553.094 0
-5820.3672 5629.8794 14642.275 0
-5753.4028 5649.5781 14693.507 0
-5696.3804 5679.7954 14772.098 0
-5630.1074 5701.5913 14828.785 0
-5569.5435 5729.9541 14902.551 0
-5509.8203 5760.1123 14980.986 0
-5448.9175 5790.0083 15058.74 0
-5388.4971 5821.4229 15140.443 0
-5324.0161 5849.4438 15213.321 0
-5268.5986 5888.5635 15315.063 0
-5218.0542 5934.6001 15434.797 0
-5155.8135 5968.7437 15523.599 0
-5090.1182 6000.0601 15605.046 0
-5031.9409 6041.5649 15712.993 0
-4969.2393 6079.1045 15810.626 0
-4906.3018 6117.7974 15911.259 0
-4835.2285 6147.6665 15988.944 0
-4758.7812 6171.7642 16051.617 0
-4691.5088 6208.9897 16148.434 0
-4694.6606 6342.9204 16496.764 0
-4668.0854 6441.5435 16753.264 0
-4477.2476 6312.8584 16418.576 0
-4397.2231 6338.1641 16484.393 0
-4318.6548 6366.771 16558.793 0
-4235.647 6390.0142 16619.244 0
-4154.1992 6416.7769 16688.85 0
-4083.8635 6462.4336 16807.594 0
-4006.7576 6499.397 16903.729 0
-3930.9827 6540.4756 17010.568 0
-3855.9011 6584.9082 17126.129 0
-3789.6616 6647.2598 17288.293 0
-3746.4468 6754.5981 17567.461 0
-3655.04 6778.7134 17630.18 0
-3556.2825 6790.2168 17660.098 0
-3504.9673 6895.7593 17934.594 0
-3446.9382 6994.2983 18190.877 0
-3369.7646 7059.1152 18359.453 0
-3381.4858 7320.7217 19039.844 0
-3134.9329 7021.9355 18262.756 0
-3235.6792 7507.5332 19525.705 0
-3099.1482 7458.2402 19397.504 0
-2958.7461 7395.4624 19234.229 0
-2899.6055 7538.916 19607.326 0
-2820.6028 7640.5806 19871.736 0
-2709.335 7659.9092 19922.008 0
-2574.1277 7610.2295 19792.799 0
-2442.4966 7566.8706 19680.031 0
-2332.9604 7591.0435 19742.9 0
0 0 0 0
0 0 0 0
0 0 0 0
0 0 0 0
0 0 0 0
0 0 0 0
0 0 0 0
0 0 0 0
0 0 0 0
0 0 0 0
0 0 0 0
0 0 0 0
0 0 0 0
0 0 0 0
0 0 0 0
0 0 0 0
0 0 0 0
-223.12868 7668.9893 19945.623 0
-104.37114 7653.3115 19904.848 256
13.572756 7456.9126 19394.051 256
128.43857 7433.7773 19333.881 4343108
236.75084 7232.2939 18809.857 131587
348.29126 7227.043 18796.201 0
456.24054 7167.9219 18642.439 0
564.16199 7131.5542 18547.854 0
678.07941 7170.4805 18649.094 0
802.60443 7294.8833 18972.641 0
929.27924 7405.7666 19261.029 0
1038.8967 7371.3018 19171.393 0
1115.248 7130.9448 18546.268 0
1263.4233 7351.7632 19120.576 0
1372.5134 7327.4722 19057.398 0
1485.6011 7326.5981 19055.127 0
1605.6228 7357.624 19135.818 0
1696.7722 7260.9917 18884.496 0
1770.0122 7104.4658 18477.4 0
1886.4089 7129.3296 18542.068 0
2053.4871 7332.4185 19070.264 0
2111.0349 7143.6167 18579.227 0
2184.1638 7023.6904 18267.32 0
2287.2419 7006.8691 18223.57 0
2436.9961 7128.0942 18538.855 0
2496.6409 6986.667 18171.029 0
2602.679 6981.4131 18157.365 0
2803.7576 7221.3647 18781.434 0
2914.2153 7218.4746 18773.918 0
2961.3828 7064.8101 18374.264 0
3022.2415 6953.5752 18084.963 0
3121.9736 6936.3501 18040.164 0
3230.4248 6938.9971 18047.047 0
3347.2451 6958.8726 18098.74 0
3461.5986 6972.542 18134.293 0
3598.1912 7028.8291 18280.686 0
3838.3853 7278.2632 18929.416 65536
3890.4771 7166.9727 18639.971 65536
4026.7837 7212.689 18758.869 0
4176.7183 7279.6934 18933.137 0
4352.4355 7386.9419 19212.068 256
4492.5542 7429.8325 19323.621 769
4723.6426 7617.2827 19811.143 5993071
3819.9512 6010.188 15631.388 7704460
0 0 0 0
0 0 0 0
0 0 0 0
0 0 0 0
0 0 0 0
0 0 0 0
5680.104 7636.7852 19861.865 5662312
5291.9746 6970.0977 18127.936 773
5170.1396 6673.7554 17357.203 260
5989.6997 7580.4141 19715.254 3027767
5779.9468 7174.6011 18659.811 394761
5858.8838 7135.6714 18558.561 526859
5886.1143 7036.3677 18300.291 2
6111.793 7173.5938 18657.189 3
5921.8535 6826.7974 17755.236 256
6195.0063 7016.6572 18249.027 256
6392.418 7115.6729 18506.549 256
6651.0972 7278.3843 18929.73 256
6790.9077 7307.7666 19006.15 256
6882.0615 7284.6841 18946.117 256
6902.9419 7189.1582 18697.672 0
7088.9292 7265.8877 18897.23 0
7394.0679 7460.4453 19403.238 0
7240.9517 7193.7588 18709.635 0
7362.6519 7204.0347 18736.361 0
7505.5161 7234.4038 18815.346 0
7674.228 7288.4302 18955.859 0
7758.8193 7262.1567 18887.527 0
7841.4546 7234.8286 18816.451 0
7915.2866 7200.2612 18726.547 0
7966.8682 7146.6919 18587.223 0
7959.9277 7042.8086 18317.043 0
8031.8667 7010.5786 18233.219 0
8113.0396 6987.1582 18172.307 0
8204.6465 6973.2227 18136.062 256
8382.373 7031.8931 18288.652 256
8380.7598 6940.54 18051.061 256
8386.958 6857.8838 17836.088 0
8448.3066 6821.8242 17742.303 256
8428.4395 6721.8813 17482.371 1
8453.793 6659.9995 17321.426 2
8693.8955 6766.7524 17599.07 260
8458.4434 6505.2266 16918.891 4
8999.7676 6840.2305 17790.174 3685954
9390.0303 7053.9746 18346.084 988181
9248.6826 6868.04 17862.502 6122606
8991.7178 6601.4424 17169.131 5071719
8311.9131 6033.876 15692.995 6913408
7949.8135 5706.978 14842.794 2765365
7230.5874 5133.6963 13351.795 266
7323.3301 5143.0986 13376.249 262
7413.9683 5150.8374 13396.375 6
7882.0464 5417.8506 14090.827 3225918
7784.7134 5294.6914 13770.514 725270
7704.2969 5185.481 13486.477 2697771
7819.3447 5208.7241 13546.928 260
8029.6426 5294.2959 13769.484 3
8095.8916 5284.1221 13743.024 2
8061.1729 5208.9082 13547.407 1
8274.1465 5293.6519 13767.81 2
8371.0938 5303.231 13792.723 2
8396.8672 5267.9712 13701.02 256
8501.2637 5282.2427 13738.136 256
8547.3223 5260.3374 13681.164 256
8618.3711 5254.0806 13664.892 256
8673.1123 5238.0918 13623.308 0
8742.7871 5231.334 13605.732 0
8821.8232 5230.2515 13602.916 0
8896.3975 5226.5664 13593.332 0
8965.4248 5219.7178 13575.521 0
9020.9102 5205.1782 13537.705 0
9059.9014 5181.4614 13476.023 256
9166.5693 5196.5273 13515.207 256
9125.582 5128.3525 13337.896 256
9371.9004 5221.4204 13579.948 1711131
9503.9551 5249.7822 13653.712 131586
9241.7031 5061.7007 13164.547 256
9297.6094 5049.5703 13132.998 256
9332.291 5026.2104 13072.243 256
9374.4639 5007.2383 13022.9 0
9522.3369 5044.5723 13119.999 66049
9572.4609 5029.9365 13081.935 256
9625.2559 5016.9292 13048.105 256
9682.7949 5006.583 13021.196 256
9698.54 4974.9614 12938.955 256
9910.4541 5043.6733 13117.661 256
10191.274 5146.1064 13384.071 257
10309.495 5165.4844 13434.47 2
11169.219 5553.2324 14442.931 66821
11176.298 5514.3726 14341.862 329737
12099.897 5924.8877 15409.537 257
11423.236 5551.5312 14438.506 3
14533.829 7010.5703 18233.197 3
0 0 0 0
0 0 0 0
0 0 0 0
0 0 0 0
0 0 0 0
0 0 0 0
0 0 0 0
0 0 0 0
0 0 0 0
0 0 0 0
0 0 0 0
0 0 0 0
0 0 0 0
0 0 0 0
0 0 0 0
0 0 0 0
0 0 0 0
15680.052 6668.4849 17343.496 2
15616.585 6598.1187 17160.486 1
14060.449 5902.0942 15350.255 66052
12204.158 5089.8608 13237.787 395017
12332.927 5110.6182 13291.773 0
12787.776 5265.376 13694.27 921874
0 0 0 0
0 0 0 0
0 0 0 0
19115.777 7675.5269 19962.625 856854
18279.887 7294.6177 18971.951 259
17744.844 7037.6958 18303.746 1449505
0 0 0 0
0 0 0 0
-10286.61 4391.4219 11247.418 0
-10922.201 4693.2583 12020.49 0
-9403.9639 4067.479 10417.728 0
-10018.261 4361.8984 11171.803 0
-9980.9619 4374.6523 11204.468 0
-10038.718 4429.5205 11344.998 0
-9981.8027 4434.1899 11356.957 0
-9954.6279 4452.2246 11403.148 0
-9943.3604 4477.6699 11468.319 0
-9646.0439 4373.7646 11202.194 0
-9595.376 4381.0293 11220.801 0
-9530.2139 4381.7314 11222.599 0
-9465.6895 4382.7383 11225.178 65536
-9394.8584 4380.8193 11220.263 65536
-9326.124 4379.8579 11217.8 65536
-9263.9795 4381.9985 11223.283 65536
-9198.3447 4382.5078 11224.588 65536
-9133.7842 4383.5405 11227.232 0
-9069.9463 4384.937 11230.81 0
-9006.3389 4386.4673 11234.729 0
-8938.7344 4386.0586 11233.682 0
-8872.3545 4386.249 11234.17 0
-8806.9561 4386.9316 11235.918 0
-8740.9277 4387.3086 11236.883 0
-8674.4297 4387.4536 11237.255 0
-8607.9238 4387.5967 11237.621 0
-8546.2227 4390.21 11244.314 0
-8482.623 4391.8818 11248.597 0
-8419.6484 4393.9067 11253.783 0
-8367.959 4401.9004 11274.257 0
-8311.6494 4407.5728 11288.784 0
-8252.665 4411.9082 11299.888 0
-8189.084 4413.8364 11304.827 0
-8135.0181 4420.9678 11323.093 0
-8091.3662 4433.9253 11356.279 0
-8050.4971 4448.6377 11393.961 0
-7992.9766 4454.3208 11408.517 0
-7940.7432 4463.0728 11430.933 0
-7889.9692 4472.8032 11455.854 0
-7853.998 4491.1675 11502.889 0
-7798.7808 4498.752 11522.315 0
-7745.1055 4507.3687 11544.384 0
-7688.291 4514.2959 11562.126 65536
-7632.5894 4522.0068 11581.876 65536
-7579.6162 4531.4902 11606.165 65536
-7531.0723 4543.8198 11637.744 65536
-7486.0693 4558.5342 11675.432 65536
-7441.1533 4573.5771 11713.96 0
-7394.0205 4587.5293 11749.694 0
-7341.519 4598.3848 11777.497 0
-7290.6338 4610.4712 11808.453 0
-7235.5078 4620.0845 11833.075 0
-7193.2163 4638.1626 11879.377 0
-7134.5571 4645.9404 11899.297 0
-7080.4346 4656.8579 11927.26 0
-7051.2246 4684.5469 11998.177 0
-7006.0684 4702.0996 12043.134 0
-6970.9673 4726.832 12106.479 0
-6936.0215 4752.188 12171.422 0
-6899.6304 4777.0771 12235.168 0
-6868.7393 4806.3447 12310.129 0
-6829.9102 4830.6284 12372.325 65536
-6785.0684 4851.1416 12424.864 65536
-6758.3779 4885.2275 12512.166 65536
-6753.7163 4936.1719 12642.646 65536
-6723.7871 4969.5869 12728.229 65536
-6686.269 4998.0898 12801.231 65536
-6652.8394 5030.3403 12883.832 65536
-6618.6152 5062.7339 12966.8 65536
-6589.5708 5099.8994 13061.989 65536
-6559.0259 5136.7764 13156.438 65536
-6525.9316 5172.5225 13247.992 65536
-6490.9609 5207.6357 13337.926 65536
-6467.6328 5253.0737 13454.303 65536
-6447.5337 5302.3047 13580.395 65536
-6400.7529 5330.564 13652.772 0
-6345.3193 5352.25 13708.315 0
-6284.5254 5369.9199 13753.572 0
-6261.1348 5420.4365 13882.956 0
-6208.4702 5446.6201 13950.019 0
-6169.9155 5486.0596 14051.031 0
-6124.2104 5520.1353 14138.308 0
-6074.5381 5551.5342 14218.727 0
-6018.853 5578.2461 14287.142 0
-5958.4819 5601.3169 14346.231 0
-5901.2134 5628.0161 14414.615 0
-5849.8247 5661.1934 14499.589 0
-5793.0464 5690.0684 14573.545 0
-5733.3496 5716.9102 14642.292 0
-5681.541 5752.5659 14733.615 0
-5629.6392 5789.2427 14827.552 0
-5563.5586 5812.2725 14886.536 0
-5500.5894 5839.3496 14955.888 0
-5445.1421 5875.4331 15048.306 0
-5378.52 5900.4624 15112.411 0
-5311.5488 5925.9526 15177.696 0
-5249.5527 5957.9697 15259.699 0
-5191.8691 5996.0928 15357.342 0
-5127.9458 6028.2451 15439.691 0
-5056.1006 6052.0874 15500.756 0
-5005.6108 6102.8501 15630.771 0
-4941.2002 6138.2407 15721.415 0
-4885.5215 6186.0513 15843.868 0
-4814.9937 6216.5703 15922.033 0
-4903.5332 6457.7988 16539.873 0
-4847.7715 6514.9683 16686.299 0
-4708.7246 6460.2622 16546.184 0
-5239.1079 7341.2544 18802.604 0
-4645.0244 6650.6587 17033.832 0
-4429.8843 6483.9429 16606.834 0
-4324.7153 6474.2588 16582.031 0
-4249.6865 6510.2964 16674.332 0
-4173.2236 6545.8047 16765.277 0
-4094.4475 6579.3335 16851.152 0
-4025.0107 6629.9277 16980.734 0
-3938.4827 6654.2476 17043.023 0
-3870.6934 6712.3462 17191.828 0
-3803.0789 6773.9082 17349.502 0
-3744.3921 6855.2466 17557.826 0
-3666.6724 6905.4028 17686.289 0
-3637.1113 7051.8931 18061.484 0
-3539.8491 7072.0381 18113.08 0
-3433.1189 7073.9385 18117.947 0
-3363.5933 7155.104 18325.83 0
-3187.9905 7008.501 17950.346 0
-3163.8137 7196.168 18431.004 0
-3145.7571 7411.7158 18983.07 0
-3071.9998 7507.1821 19227.582 0
-3068.241 7787.6934 19946.033 0
-2849.8416 7524.0635 19270.818 0
0 0 0 0
0 0 0 0
0 0 0 0
0 0 0 0
0 0 0 0
0 0 0 0
0 0 0 0
0 0 0 0
0 0 0 0
0 0 0 0
0 0 0 0
0 0 0 0
0 0 0 0
0 0 0 0
0 0 0 0
0 0 0 0
0 0 0 0
0 0 0 0
0 0 0 0
0 0 0 0
0 0 0 0
-340.09882 7751.668 19853.764 256
-222.48854 7765.1919 19888.402 0
-104.16283 7756.1021 19865.121 0
13.865028 7735.2358 19811.678 0
131.32829 7718.5225 19768.871 1052688
240.21164 7451.4414 19084.816 1776410
346.79553 7307.2388 18715.48 0
459.12183 7324.6875 18760.172 65793
578.57281 7426.7725 19021.635 263171
679.36554 7295.1299 18684.467 0
796.29047 7349.3687 18823.385 0
924.10376 7478.3594 19153.76 0
1021.7969 7362.04 18855.84 0
1142.5388 7418.3672 19000.105 0
1267.7839 7491.1694 19186.568 0
1410.5924 7647.1719 19586.127 131842
1463.2533 7327.9326 18768.482 0
1572.24 7316.0171 18737.963 0
1671.3838 7262.9043 18601.93 0
1771.1907 7219.0859 18489.703 0
1885.2172 7234.958 18530.354 0
2049.5166 7431.3638 19033.393 0
2086.7083 7170.4482 18365.129 0
2183.6196 7130.4819 18262.768 0
2288.4026 7118.7886 18232.818 0
2394.0879 7110.8325 18212.441 0
2493.2517 7085.0332 18146.363 0
2595.3652 7069.4072 18106.342 0
2705.1006 7074.9609 18120.564 0
2814.688 7079.7163 18132.744 0
2909.5918 7048.5493 18052.92 0
3009.9585 7032.3633 18011.463 0
3109.5776 7015.6016 17968.533 0
3224.9355 7034.2832 18016.381 0
3347.4043 7066.7759 18099.602 0
3454.05 7064.8809 18094.748 0
3589.9189 7121.0684 18238.656 0
3733.457 7188.729 18411.951 0
3938.2207 7367.0688 18868.719 0
3986.6587 7251.1973 18571.945 0
4116.8218 7286.2109 18661.625 0
4290.0859 7393.6704 18936.852 256
4404.396 7396.6294 18944.43 513
4486.5093 7346.7178 18816.596 6781561
0 0 0 0
0 0 0 0
0 0 0 0
0 0 0 0
0 0 0 0
0 0 0 0
5475.4932 7634.1382 19552.744 2
5418.6978 7397.9429 18947.795 3488061
5325.9907 7123.3335 18244.459 4937048
5449.3369 7142.8813 18294.525 3
5461.4512 7018.7158 17976.51 260
5693.9824 7177.146 18382.285 258
5770.9902 7137.2686 18280.148 1
5606.7397 6806.0015 17431.699 3
6085.1909 7252.7729 18575.982 0
5834.6797 6830.2739 17493.867 256
6267.833 7208.8774 18463.557 256
6586.5806 7445.1348 19068.664 256
6779.2764 7533.3262 19294.543 256
6919.084 7560.7905 19364.885 256
6715.7954 7218.5752 18488.393 256
7064.0762 7470.6948 19134.129 0
7265.1016 7561.5625 19366.861 0
7450.7993 7633.8916 19552.111 0
7372.021 7437.1846 19048.301 0
7563.1294 7514.582 19246.533 0
7475.7515 7317.0972 18740.73 0
7630.377 7358.8008 18847.543 0
7725.5518 7342.793 18806.543 0
7795.2236 7303.3472 18705.514 0
7888.2212 7286.5581 18662.514 0
8064.6548 7346.2373 18815.365 0
8225.835 7390.5801 18928.936 0
8037.9453 7124.333 18247.018 0
8098.2192 7082.2021 18139.111 0
8180.0142 7059.7524 18081.613 256
8289.8574 7061.7778 18086.801 256
8430.1123 7089.3267 18157.359 256
8474.1572 7036.2935 18021.529 256
8534.0908 6997.6118 17922.457 256
8393.4092 6797.416 17409.711 256
8427.5713 6741.9683 17267.697 258
8480.6582 6702.814 17167.412 258
8691.6113 6787.8779 17385.281 260
8263.2324 6377.5107 16334.238 2
8293.9189 6326.8638 16204.52 5
7860.7974 5927.6328 15182 772
8024.8594 5982.6748 15322.976 1448991
8546.8721 6300.3462 16136.602 7439748
8090.5811 5897.8091 15105.615 4017999
7444.4282 5367.2236 13746.667 1844777
7354.9116 5245.1206 13433.934 261
7401.0273 5221.3271 13372.993 6
7378.3091 5149.9937 13190.291 4
7721.2637 5332.7129 13658.276 4
8334.9736 5696.6821 14590.484 197381
7667.6758 5186.6445 13284.162 4
7950.4072 5323.082 13633.609 3
7896.1157 5233.394 13403.898 2
8034.2783 5271.7783 13502.21 1645083
8006.0742 5201.3198 13321.749 258
8339.6709 5364.9912 13740.949 256
8364.3477 5328.6846 13647.959 256
8423.5498 5314.8594 13612.549 256
8515.7432 5321.9136 13630.617 256
8580.582 5311.9028 13604.977 256
8635.3867 5295.9238 13564.051 0
8698.3574 5285.2021 13536.591 0
8769.8242 5279.7925 13522.735 0
8864.0342 5288.0488 13543.882 0
8939.2051 5284.9009 13535.818 0
8990.583 5267.8672 13492.192 0
9039.2607 5249.5674 13445.322 256
9115.0264 5247.1816 13439.212 256
9073.7295 5178.0342 13262.109 256
9496.416 5372.5752 13760.372 131842
9198.4014 5159.5405 13214.742 395528
9324.8467 5186.1841 13282.982 256
9357.4551 5160.6289 13217.53 256
9356.8652 5117.3438 13106.667 0
9389.1045 5092.5786 13043.238 0
9909.0752 5330.5952 13652.853 256
9655.957 5152.2393 13196.043 256
9746.3506 5158.5723 13212.263 256
9741.4375 5114.7627 13100.058 256
9703.7354 5054.5684 12945.886 256
10204.641 5273.6694 13507.053 263685
10963.163 5621.4443 14397.783 257
10527.841 5356.4209 13718.998 257
10172.513 5135.8584 13154.088 2
11340.15 5681.7051 14552.124 2
11169.282 5553.7388 14224.373 2
11608.882 5728.96 14673.154 4
12930.132 6333.4165 16221.303 257
13568.708 6597.0146 16896.438 0
0 0 0 0
0 0 0 0
0 0 0 0
0 0 0 0
0 0 0 0
0 0 0 0
0 0 0 0
0 0 0 0
0 0 0 0
0 0 0 0
0 0 0 0
0 0 0 0
0 0 0 0
0 0 0 0
0 0 0 0
0 0 0 0
17837.354 7703.2134 19729.66 131074
16696.379 7163.3823 18347.031 65538
14402.944 6139.3164 15724.169 2
14107.635 5974.6724 15302.479 2
13226.503 5565.627 14254.821 527630
0 0 0 0
0 0 0 0
0 0 0 0
0 0 0 0
18019.127 7347.0283 18817.391 462094
17123.441 6938.7603 17771.725 66822
16658.988 6709.1694 17183.691 724751
0 0 0 0
0 0 0 0
-10376.731 4497.3281 11345.957 0
-11117.4 4849.854 12235.317 0
-9512.2168 4176.9302 10537.65 0
-10124.078 4475.0698 11289.804 0
-10087.546 4488.6714 11324.118 0
-10408.395 4662.5483 11762.778 0
-10103.029 4556.3604 11494.885 0
-10070.495 4572.6084 11535.876 0
-9970.1904 4558.0967 11499.265 0
-9726.4209 4477.3433 11295.539 0
-9657.4102 4476.4731 11293.344 0
-9591.8896 4477.2197 11295.228 65536
-9520.6602 4475.2935 11290.367 65536
-9455.6328 4476.2754 11292.846 65536
-9392.3252 4478.0918 11297.428 65536
-9324.3896 4477.7119 11296.47 65536
-9253.7246 4476.0063 11292.166 65536
-9188.043 4476.7036 11293.926 0
-9123.249 4477.8477 11296.812 0
-9058.8838 4479.2197 11300.273 0
-8995.9141 4481.3076 11305.541 0
-8934.1025 4484.0088 11312.354 0
-8869.6689 4485.4248 11315.927 0
-8802.1387 4485.2847 11315.573 0
-8735.042 4485.3638 11315.773 0
-8668.3486 4485.6538 11316.505 0
-8603.3828 4486.8496 11319.521 0
-8541.4541 4489.6602 11326.612 0
-8477.3164 4491.3447 11330.862 0
-8416.5576 4494.8613 11339.734 0
-8358.21 4499.7324 11352.023 0
-8313.8203 4512.2588 11383.625 0
-8262.1436 4521.0029 11405.685 0
-8205.7725 4527.3018 11421.575 0
-8154.4824 4536.5327 11444.863 0
-8102.8911 4545.749 11468.115 0
-8047.6226 4553.0425 11486.515 0
-7994.5391 4561.7065 11508.373 0
-7944.1978 4572.0991 11534.592 0
-7903.8525 4588.4751 11575.905 0
-7851.2842 4597.981 11599.887 0
-7796.1323 4606.1289 11620.441 0
-7739.8472 4613.7461 11639.659 65536
-7687.0918 4623.6245 11664.58 65536
-7635.1357 4634.1675 11691.179 65536
-7582.0864 4644.2344 11716.576 65536
-7534.9487 4658.1431 11751.665 65536
-7487.4985 4672.1167 11786.918 0
-7441.5967 4687.3296 11825.297 0
-7392.3281 4700.6909 11859.006 0
-7340.4009 4712.6035 11889.06 0
-7288.4263 4724.7168 11919.619 0
-7236.5181 4737.1118 11950.889 0
-7185.3584 4750.2471 11984.026 0
-7140.5889 4767.9116 12028.591 0
-7116.438 4799.8403 12109.143 0
-7060.4189 4810.7085 12136.56 0
-7018.4624 4831.481 12188.966 0
-6978.6577 4854.1831 12246.239 0
-6934.062 4873.9966 12296.226 0
-6898.9688 4900.9829 12364.307 0
-6861.6743 4926.9697 12429.866 65536
-6823.6138 4952.9658 12495.449 65536
-6789.8228 4982.667 12570.381 65536
-6761.8667 5017.3594 12657.903 65536
-6752.3188 5066.6445 12782.24 65536
-6722.3828 5101.5791 12870.374 65536
-6687.7646 5133.7227 12951.468 65536
-6646.1782 5161.2046 13020.8 65536
-6608.603 5192.4854 13099.715 65536
-6577.7954 5229.8931 13194.088 65536
-6542.0391 5264.2212 13280.691 65536
-6511.2417 5303.4268 13379.601 65536
-6478.6035 5342.084 13477.125 65536
-6449.4165 5384.5898 13584.36 65536
-6401.3887 5412.2446 13654.129 0
-6367.9233 5453.0801 13757.148 0
-6314.1689 5477.3765 13818.444 0
-6259.501 5501.5112 13879.333 0
-6205.9756 5527.3081 13944.413 0
-6191.3652 5588.9316 14099.879 0
-6114.8013 5595.5542 14116.586 0
-6068.2754 5630.23 14204.066 0
-6026.938 5670.7661 14306.332 0
-5968.8013 5696.4297 14371.077 0
-5908.0562 5720.3135 14431.331 0
-5847.5107 5745.0962 14493.854 0
-5802.3271 5785.939 14596.893 0
-5744.1533 5814.8711 14669.884 0
-5682.981 5841.6133 14737.35 0
-5617.4268 5864.6177 14795.386 0
-5553.9312 5890.5376 14860.776 0
-5499.9014 5927.4961 14954.017 0
-5440.0073 5959.2461 15034.115 0
-5378.3945 5990.1411 15112.058 0
-5313.3799 6018.2334 15182.93 0
-5243.1123 6041.2422 15240.978 0
-5177.396 6070.3975 15314.531 0
-5111.5693 6100.4644 15390.384 0
-5056.9131 6145.2007 15503.246 0
-4978.0527 6161.6396 15544.719 0
-4909.1519 6191.2603 15619.445 0
-5373.1802 6907.0903 17425.357 0
-4858.7544 6368.5586 16066.738 0
-5260.9351 7033.9526 17745.408 0
-5056.7119 6899.2129 17405.484 0
-4694.1714 6538.3315 16495.045 0
-4474.6904 6365.5669 16059.19 0
-4569.2505 6641.7539 16755.961 0
-4490.2798 6672.3882 16833.246 0
-4289.6406 6519.5039 16447.547 0
-4207.9199 6544.439 16510.453 0
-4168.1938 6637.4375 16745.072 0
-4086.7903 6666.9946 16819.639 0
-3997.9595 6685.6138 16866.611 0
-3979.6089 6826.0815 17220.988 0
-3936.5444 6930.457 17484.309 0
-3856.7026 6973.9883 17594.131 0
-3836.9722 7131.6743 17991.943 0
-3787.2295 7241.0186 18267.799 0
-3707.4456 7297.6841 18410.756 0
-3582.6082 7266.4165 18331.875 0
-3463.7361 7245.666 18279.525 0
-3411.6687 7367.8442 18587.758 197379
-3400.2542 7588.9307 19145.52 987407
-3211.9297 7416.8159 18711.305 256
-3122.3376 7468.52 18841.746 0
-3047.552 7560.8057 19074.564 0
-2880.7461 7423.1035 18727.166 0
-2800.5957 7506.6001 18937.814 0
-2715.6106 7583.5884 19132.043 0
-2704.906 7883.8071 19889.439 0
0 0 0 0
0 0 0 0
0 0 0 0
0 0 0 0
0 0 0 0
-1948.412 7697.2036 19418.674 256
-1885.2799 7916.7397 19972.523 2566438
0 0 0 0
0 0 0 0
0 0 0 0
0 0 0 0
0 0 0 0
0 0 0 0
0 0 0 0
0 0 0 0
0 0 0 0
0 0 0 0
0 0 0 0
0 0 0 0
-341.71893 7907.1538 19948.34 256
0 0 0 0
-103.15862 7798.2539 19673.605 0
13.145705 7445.5679 18783.84 0
129.43726 7723.1826 19484.213 0
248.82535 7836.1367 19769.176 1052689
355.211 7598.4897 19169.637 0
461.09421 7468.1313 18840.766 0
584.74872 7620.3081 19224.68 0
686.49036 7483.8501 18880.42 0
786.56622 7370.1265 18593.516 0
899.42969 7389.481 18642.344 0
1007.5373 7369.8018 18592.697 0
1118.9851 7376.0322 18608.414 0
1258.2231 7547.8491 19041.877 0
1354.7582 7456.2798 18810.865 263172
1473.4617 7491.3813 18899.42 0
1591.9589 7520.5361 18972.973 0
1681.6063 7418.5596 18715.703 0
1773.4631 7338.3794 18513.424 0
1889.0098 7359.8667 18567.633 0
1986.7653 7313.4907 18450.635 0
2085.5286 7275.4824 18354.746 0
2178.4517 7221.8921 18219.547 0
2284.3943 7214.4941 18200.883 0
2399.4585 7235.27 18253.297 0
2493.5835 7193.8403 18148.777 0
2598.6208 7186.0225 18129.055 0
2710.0779 7195.8735 18153.906 0
2821.7014 7205.394 18177.926 0
2926.4287 7197.2534 18157.387 0
3026.5105 7178.6714 18110.508 0
3125.0869 7157.9185 18058.152 0
3233.0764 7159.3872 18061.859 0
3358.2957 7197.6914 18158.492 256
3497.645 7262.9512 18323.131 256
3634.9805 7320.2134 18467.594 658442
3702.1846 7237.0269 18257.729 3224881
3835.1399 7283.4473 18374.84 512
4067.8672 7511.5327 18950.258 256
4103.8921 7373.8926 18603.016 256
4256.3008 7447.1055 18787.721 768
4410.8433 7520.2148 18972.162 66563
4084.6838 6790.5405 17131.324 7372670
0 0 0 0
0 0 0 0
0 0 0 0
0 0 0 0
0 0 0 0
4982.6328 7205.6514 18178.574 7
5024.1655 7111.5107 17941.074 4
5258.3608 7288.3218 18387.137 1053974
5684.8223 7718.9971 19473.654 5134426
0 0 0 0
5429.9189 7084.4165 17872.721 260
5463.5444 6991.5156 17638.348 3
5623.3838 7060.583 17812.592 2
5545.4277 6834.0444 17241.076 256
5592.3882 6766.877 17071.625 256
5752.4438 6836.5122 17247.303 256
6152.6797 7184.1558 18124.344 256
6675.7241 7660.7627 19326.74 0
6808.7871 7681.2925 19378.533 132100
7014.9346 7782.2183 19633.148 256
6767.3228 7384.6855 18630.246 256
7209.4614 7740.5098 19527.928 256
7407.5698 7827.2046 19746.643 0
7424.9658 7723.2246 19484.318 0
0 0 0 0
7427.5688 7492.2295 18901.561 0
7514.4839 7466.9673 18837.828 0
7676.2261 7515.709 18960.793 0
7782.4556 7509.4751 18945.066 0
7801.5503 7420.5381 18720.695 0
7861.5713 7372.4839 18599.463 0
8084.7446 7476.6426 18862.236 0
8257.0703 7531.5723 19000.814 0
8133.8398 7319.0688 18464.707 0
8179.7593 7262.4043 18321.752 0
8304.3525 7276.1616 18356.459 256
8234.4541 7121.3599 17965.922 256
8339.6699 7120.0269 17962.559 256
8459.1143 7130.7212 17989.539 256
8662.1328 7210.7192 18191.359 256
8482.2373 6973.9209 17593.959 256
8405.5811 6826.7368 17222.641 2
8423.4375 6758.9316 17051.58 2
8420.8125 6676.4995 16843.619 2
8125.1328 6366.3838 16061.252 259
8270.8486 6405.3062 16159.445 516
8220.8965 6293.54 15877.479 516
8077.062 6113.2549 15422.652 6783105
7973.1948 5966.9258 15053.49 5927795
8162.7617 6041.0054 15240.381 7178119
8002.833 5857.6475 14777.801 4480089
7184.0894 5201.2876 13121.922 3227197
7391.8511 5294.2349 13356.411 791317
7429.4893 5264.6553 13281.786 3
7564.8423 5304.2109 13381.579 259
7702.8159 5344.7622 13483.883 4
7802.8735 5358.4404 13518.391 2
7870.9893 5350.1284 13497.421 2
7836.5151 5272.9546 13302.725 1
7890.1152 5255.9927 13259.933 0
8164.416 5384.9321 13585.224 256
8265.0596 5397.9302 13618.016 256
8109.3232 5244.8574 13231.841 256
8369.1309 5360.9043 13524.606 256
8477.5605 5378.7002 13569.502 256
8561.8799 5381.0068 13575.321 256
8620.1709 5367.0659 13540.15 256
8673.3213 5350.2104 13497.628 0
8737.124 5340.1763 13472.313 0
8824.5938 5344.6572 13483.618 0
8917.3096 5352.207 13502.665 0
8984.9805 5344.7241 13483.786 0
9028.3398 5323.0386 13429.078 0
9055.8398 5292.4648 13351.946 0
9075.2197 5257.7188 13264.287 0
9221.0654 5296.207 13361.387 0
9417.5254 5362.8613 13529.544 0
9296.6729 5249.2212 13242.85 0
9327.0557 5222.165 13174.592 0
8300.2363 4608.5649 11626.589 0
9446.2354 5201.5581 13122.604 256
9427.7451 5148.8652 12989.67 0
9502.7959 5147.7002 12986.729 0
9566.9824 5140.7153 12969.108 0
9658.4463 5148.3823 12988.451 256
9725.6055 5143.0757 12975.063 256
10171.982 5336.8115 13463.825 0
11078.488 5767.0498 14549.238 0
10102.977 5218.5024 13165.352 0
10324.993 5292.1934 13351.261 0
11120.575 5656.5059 14270.356 0
11430.851 5770.3198 14557.488 0
11338.808 5680.8579 14331.792 2
12946.828 6438.1274 16242.249 0
0 0 0 0
0 0 0 0
0 0 0 0
0 0 0 0
0 0 0 0
0 0 0 0
0 0 0 0
0 0 0 0
0 0 0 0
0 0 0 0
0 0 0 0
0 0 0 0
0 0 0 0
0 0 0 0
0 0 0 0
0 0 0 0
0 0 0 0
0 0 0 0
17396.703 7577.4639 19116.592 256
0 0 0 0
0 0 0 0
0 0 0 0
15803.555 6708.2935 16923.828 2568495
17781.986 7500.3604 18922.072 1712419
18237.078 7643.9727 19284.381 3752003
18196.826 7579.4658 19121.643 395787
17420.234 7210.96 18191.967 264203
16066.164 6609.4321 16674.418 258
15721.683 6428.0654 16216.863 1382941
0 0 0 0
0 0 0 0
-10481.073 4610.6606 11460.044 0
-11310.077 5007.8867 12447.37 0
-9619.1035 4287.1982 10656.061 0
-10235.276 4592.0586 11413.807 0
-10198.31 4606.0005 11448.46 0
-10933.386 4971.1602 12356.084 0
-10189.626 4664.3184 11593.412 0
-10191.332 4696.8599 11674.296 0
-10732.292 4980.0762 12378.245 0
-9793.8965 4576.0034 11373.9 0
-9713.6592 4570.0566 11359.12 0
-9644.5576 4569.3037 11357.248 65536
-9576.165 4568.8774 11356.189 65536
-9510.5615 4569.7856 11358.446 65536
-9443.1895 4569.8511 11358.609 65536
-9377.5146 4570.7451 11360.831 65536
-9311.9893 4571.7251 11363.267 0
-9245.7842 4572.3833 11364.902 0
-9181.5723 4574.0439 11369.03 0
-9117.4902 4575.7944 11373.381 0
-9055.2832 4578.519 11380.153 0
-8992.7852 4581.1367 11386.659 0
-8927.8584 4582.5464 11390.164 0
-8861.252 4583.1099 11391.564 0
-8796.3496 4584.5703 11395.194 0
-8728.498 4584.5044 11395.03 0
-8665.4609 4586.9854 11401.197 0
-8612.9502 4595.1226 11421.422 0
-8549.8779 4597.7085 11427.85 0
-8490.2998 4602.23 11439.088 0
-8432.3623 4607.7207 11452.736 0
-8373.3477 4612.708 11465.132 0
-8317.2881 4619.4175 11481.81 0
-8259.3877 4625.2085 11496.202 0
-8205.5762 4633.4043 11516.573 0
-8154.2891 4643.1753 11540.86 0
-8095.9688 4649.0732 11555.52 0
-8045.4287 4659.5781 11581.631 0
-8000.1855 4673.3589 11615.883 0
-7960.4575 4690.6289 11658.809 0
-7903.7451 4698.1064 11677.395 0
-7850.2085 4707.6216 11701.044 0
-7793.3574 4715.3003 11720.131 65536
-7740.2935 4725.4307 11745.31 65536
-7686.8726 4735.5249 11770.4 65536
-7635.0015 4746.7681 11798.346 65536
-7585.3076 4759.5859 11830.205 65536
-7536.8135 4773.4038 11864.55 0
-7490.3745 4788.7964 11902.809 0
-7441.3755 4802.8301 11937.69 0
-7386.6812 4813.4224 11964.019 0
-7332.1323 4824.3169 11991.097 0
-7285.1777 4840.4707 12031.248 0
-7228.5332 4850.4429 12056.035 0
-7175.4585 4863.0342 12087.331 0
-7129.9814 4881.0811 12132.188 0
-7092.4741 4905.0093 12191.662 0
-7050.5522 4926.3457 12244.695 0
-7012.2925 4950.7134 12305.263 0
-6972.7227 4974.6602 12364.783 0
-6937.2417 5002.0649 12432.899 0
-6891.6436 5022.6865 12484.155 65536
-6856.5317 5051.4824 12555.729 65536
-6820.2617 5080.0493 12626.734 65536
-6796.7129 5118.8325 12723.132 65536
-6765.0537 5152.313 12806.349 65536
-6731.5312 5185.1187 12887.889 65536
-6694.167 5215.686 12963.866 65536
-6656.0649 5246.3843 13040.169 65536
-6620.2026 5279.5923 13122.708 65536
-6603.5332 5329.0806 13245.714 65536
-6563.6538 5360.8066 13324.57 65536
-6532.0327 5400.1343 13422.322 0
-6489.8755 5431.6172 13500.574 0
-6449.9097 5465.7446 13585.399 0
-6402.9756 5494.7578 13657.514 0
-6364.0396 5531.4668 13748.757 0
-6314.48 5559.7788 13819.127 0
-6270.9277 5594.1953 13904.671 0
-6307.3184 5701.7979 14172.124 0
-6429.4258 5890.8516 14642.025 0
-6116.4341 5680.9702 14120.354 0
-6062.748 5709.4443 14191.129 0
-6013.5825 5743.0391 14274.63 0
-5962.3545 5775.5972 14355.556 0
-5906.644 5804.6958 14427.881 0
-5849.9614 5833.6826 14499.929 0
-5924.061 5995.9033 14903.138 0
-5970.4448 6134.5718 15247.806 0
-5753.0308 6002.2871 14919.006 0
-5615.0181 5949.9995 14789.042 0
-5555.2256 5980.2539 14864.24 0
-5493.5732 6009.4512 14936.812 0
-5440.1875 6048.7993 15034.613 0
-5378.4307 6079.9985 15112.16 0
-5310.4683 6105.1226 15174.608 0
-5251.3511 6141.46 15264.927 0
-5188.8677 6175.0693 15348.464 0
-5134.9897 6220.3052 15460.9 0
-5070.9946 6254.7109 15546.417 0
-5000.9941 6282.8486 15616.356 0
-4916.3169 6293.2637 15642.243 0
-4862.0352 6343.7383 15767.7 0
-4946.5356 6580.8325 16357.01 0
-5371.2817 7289.167 18117.613 0
-4910.6001 6800.3203 16902.559 0
-4638.6572 6557.8838 16299.97 0
-4476.6484 6463.8394 16066.217 0
-4443.4072 6555.6753 16294.48 0
-4396.5562 6631.0752 16481.893 0
-4278.2241 6599.6455 16403.771 0
-4200.6182 6631.0405 16481.805 0
-4159.7773 6723.3545 16711.258 0
-4225.6753 6996.9268 17391.234 0
-4053.5942 6880.2881 17101.322 0
-3979.6121 6928.439 17221.004 0
-3873.1155 6921.0298 17202.588 0
-3888.4417 7136.811 17738.924 0
-3866.0076 7293.3833 18128.094 0
-3725.6982 7230.1816 17971.002 0
-3664.8274 7321.9585 18199.119 0
-3561.4224 7331.7549 18223.469 0
-3493.0483 7416.5449 18434.219 0
-3194.1909 7001.6108 17402.877 0
-3385.5156 7669.3325 19062.535 0
-3250.6902 7618.8696 18937.107 0
-3176.8958 7712.9609 19170.977 0
-3088.5503 7777.4106 19331.17 0
-2972.6699 7774.8252 19324.744 0
-2869.9375 7807.8018 19406.709 0
-2785.7183 7896.0151 19625.967 0
-2671.3584 7902.772 19642.762 0
-2566.9255 7940.8564 19737.422 0
-2459.0403 7971.396 19813.33 0
-2349.999 8001.0723 19887.092 0
0 0 0 0
0 0 0 0
-1988.9562 7975.1875 19822.754 0
0 0 0 0
0 0 0 0
0 0 0 0
0 0 0 0
0 0 0 0
0 0 0 0
0 0 0 0
0 0 0 0
-935.96948 8038.1772 19979.318 0
-817.91663 8044.9746 19996.215 0
0 0 0 0
0 0 0 0
0 0 0 0
-337.9841 7937.9971 19730.314 0
-221.17854 7954.4868 19771.301 0
-102.2916 7848.6558 19508.252 0
13.096604 7528.979 18713.68 0
125.43787 7596.7729 18882.186 0
247.30142 7904.9199 19648.1 0
357.22113 7756.0664 19278.117 0
457.25803 7517.0444 18684.016 0
583.99524 7724.6011 19199.908 0
671.5896 7431.1846 18470.607 0
782.3559 7440.5918 18493.988 0
892.74927 7444.5713 18503.879 0
1012.4461 7516.7495 18683.283 0
1170.0696 7828.4111 19457.934 0
1260.5205 7675.0088 19076.645 394500
1379.6211 7706.9707 19156.088 0
1467.8619 7574.8101 18827.596 1052686
1565.6003 7506.9121 18658.83 1645082
1768.4102 7918.478 19681.801 0
1859.7363 7810.7529 19414.043 0
1918.7825 7587.959 18860.277 0
2025.5519 7568.0684 18810.838 0
2119.0159 7503.1455 18649.469 0
2202.0269 7409.5044 18416.719 0
2302.0576 7379.2881 18341.615 0
2412.2651 7382.9517 18350.721 0
2519.9868 7379.0186 18340.945 0
2617.3225 7346.2617 18259.525 0
2729.2341 7355.3945 18282.227 0
2884.2427 7475.5298 18580.828 0
2965.0249 7401.5156 18396.861 0
3043.3301 7326.8018 18211.156 0
3132.6956 7282.9331 18102.119 0
3238.1736 7278.1929 18090.336 256
3383.0115 7359.3794 18292.131 131843
