# .PCD v0.7 - Point Cloud Data file format
VERSION 0.7
FIELDS x y z rgb
SIZE 4 4 4 4
TYPE F F F U
COUNT 1 1 1 1
WIDTH 1525
HEIGHT 1
VIEWPOINT 0 0 0 1 0 0 0
POINTS 1525
DATA ascii
6693.6528 7101.3779 14993.039 0
6731.5117 7047.7207 14879.753 0
6838.6943 7067.0938 14920.654 0
6917.1235 7056.6382 14898.579 0
7033.0156 7084.1816 14956.731 0
7133.9834 7096.1924 14982.09 0
7216.7446 7090.0205 14969.059 0
7294.8149 7079.4458 14946.732 0
7385.2324 7080.9644 14949.939 0
7464.3555 7071.7461 14930.478 0
7526.1772 7046.5469 14877.274 0
7590.1313 7023.9058 14829.472 0
7635.1768 6984.4868 14746.247 0
7698.0879 6962.1196 14699.024 0
7809.9951 6984.0698 14745.367 0
7882.1724 6970.3989 14716.504 0
7957.5044 6959.7871 14694.099 0
8091.3218 7000.0024 14779.005 0
8177.7646 6998.8096 14776.486 0
8249.9414 6985.5625 14748.519 0
8339.7324 6987.3516 14752.296 0
8414.3184 6976.4976 14729.379 0
8495.3379 6971.144 14718.077 0
8575.8506 6965.4902 14706.14 0
8652.7471 6957.042 14688.304 0
8752.1719 6966.6953 14708.685 0
8872.959 6992.9932 14764.206 0
8951.4287 6985.752 14748.918 0
8985.8105 6944.5786 14661.989 0
9039.9238 6919.2988 14608.616 65536
9185.1416 6963.5684 14702.082 65536
9297.2334 6982.127 14741.266 65536
9399.749 6993.2144 14764.675 65536
9493.5371 6997.6646 14774.069 65536
9565.124 6985.8179 14749.058 0
9684.3125 7008.6367 14797.234 0
9800.8994 7029.1782 14840.604 0
9935.9883 7062.5044 14910.965 0
10033.53 7068.7896 14924.234 0
10136.573 7078.8062 14945.382 0
10240.81 7089.4746 14967.906 0
10343.391 7098.8232 14987.645 0
10497.987 7143.4067 15081.772 0
10604.005 7154.459 15105.107 0
10748.837 7191.2935 15182.875 0
10885.27 7221.9429 15247.585 0
11005.525 7241.4414 15288.752 0
11152.835 7278.2759 15366.52 0
11392.494 7374.29 15569.232 0
11649.993 7480.21 15792.861 65536
11838.752 7540.6543 15920.477 65536
12123.385 7660.7222 16173.974 0
12436.845 7796.9731 16461.639 131072
12874.904 8008.603 16908.449 131072
13238.581 8171.0435 17251.408 65536
13611.929 8336.9111 17601.602 65536
14022.82 8523.0674 17994.631 65536
14284.655 8616.4951 18191.883 0
14413.195 8628.7188 18217.691 0
14681.679 8723.916 18418.68 0
14881.643 8777.291 18531.369 0
15068.698 8822.3242 18626.447 0
16116.505 9366.9717 19776.354 0
15714.147 9066.9951 19143.018 0
15912.672 9115.5439 19245.518 0
16267.771 9252.4541 19534.574 0
0 0 0 0
0 0 0 0
0 0 0 0
0 0 0 0
0 0 0 0
0 0 0 0
0 0 0 0
0 0 0 0
0 0 0 0
0 0 0 0
0 0 0 0
0 0 0 0
0 0 0 0
0 0 0 0
0 0 0 0
0 0 0 0
0 0 0 0
0 0 0 0
0 0 0 0
0 0 0 0
0 0 0 0
0 0 0 0
0 0 0 0
0 0 0 0
0 0 0 0
-12164.5 6378.8652 13300.709 0
-10309.465 5441.4766 11346.14 0
-11180.384 5940.0127 12385.648 0
-11113.269 5943.4873 12392.894 0
-10969.44 5905.708 12314.118 0
-10829.188 5869.3594 12238.327 0
-10753.828 5867.9277 12235.342 0
-10680.047 5867.3442 12234.125 0
-10611.882 5869.8594 12239.369 0
-10543.438 5872.2539 12244.362 0
-10474.939 5874.6504 12249.359 0
-10406.671 5877.2109 12254.698 0
-10338.186 5879.6841 12259.854 0
-10269.739 5882.2144 12265.131 0
-10201.273 5884.7705 12270.461 0
-10133.059 5887.5078 12276.169 0
-10065.591 5890.7236 12282.874 0
-10000.614 5895.4536 12292.737 0
-9938.2266 5901.7915 12305.952 0
-9875.4404 5907.9849 12318.866 0
-9811.5264 5913.5908 12330.556 0
-9750.0146 5920.7407 12345.463 0
-9691.2061 5929.6523 12364.045 0
-9628.3887 5936.228 12377.757 0
-9565.6484 5942.9536 12391.78 0
-9501.8555 5949.1245 12404.646 0
-9436.4541 5954.3765 12415.598 0
-9373.166 5961.0552 12429.524 0
-9309.6523 5967.6963 12443.371 0
-9252.3125 5978.4321 12465.757 0
-9193.2441 5988.2153 12486.156 0
-9130.3359 5995.6367 12501.631 0
-9069.5498 6004.585 12520.289 0
-9010.4248 6014.79 12541.567 0
-8954.6777 6027.439 12567.942 0
-8895.8252 6038.1919 12590.363 0
-8839.1992 6050.6533 12616.347 0
-8782.6719 6063.394 12642.913 0
-8728.915 6078.2852 12673.963 0
-8682.8662 6098.8496 12716.842 0
-8630.5303 6115.3193 12751.184 0
-8578.4941 6132.2959 12786.582 0
-8527.7256 6150.4907 12824.521 0
-8476.75 6168.8618 12862.826 0
-8425.708 6187.52 12901.73 0
-8370.7588 6203.6235 12935.309 0
-8315.7227 6219.9619 12969.376 0
-8260.5264 6236.4849 13003.828 0
-8207.2207 6254.7607 13041.935 0
-8156.7134 6275.5376 13085.258 0
-8104.9199 6295.7163 13127.332 0
-8054.1528 6317.0913 13171.902 0
-8002.2197 6337.9629 13215.422 0
-7951.7344 6360.4058 13262.218 0
-7907.2578 6388.1528 13320.075 0
-7852.7812 6408.3008 13362.085 0
-7801.2266 6431.269 13409.977 0
-7750.9976 6455.8159 13461.159 0
-7697.9829 6478.5298 13508.521 0
-7646.9927 6503.4443 13560.471 0
-7592.0942 6525.5303 13606.523 0
-7540.2563 6550.752 13659.112 0
-7485.1948 6573.6899 13706.942 0
-7432.0835 6598.8647 13759.435 0
-7376.0664 6621.9917 13807.656 0
-7323.4639 6648.7383 13863.427 0
-7277.8638 6682.5229 13933.872 0
-7232.8433 6717.6245 14007.062 0
-7187.0967 6752.8613 14080.535 0
-7140.6416 6788.2539 14154.333 65536
-7096.7573 6826.9644 14235.049 65536
-7062.1968 6875.6855 14336.64 65536
-7014.3105 6912.4653 14413.329 65536
-6963.105 6946.8413 14485.009 65536
-6911.1973 6981.3711 14557.006 0
-6855.9263 7013.335 14623.654 0
-6801.9541 7047.4648 14694.819 0
-6748.1851 7082.6968 14768.282 0
-6688.7266 7112.8066 14831.064 0
-6641.5825 7156.9902 14923.193 0
-6568.7588 7174.3223 14959.334 0
-6519.1182 7217.7993 15049.988 0
-6450.6807 7241.3848 15099.166 0
-6405.3613 7291.9531 15204.607 0
-6326.606 7305.3604 15232.563 0
-6251.2393 7323.126 15269.606 0
-6192.5605 7361.2529 15349.106 0
-6125.6016 7390.5303 15410.153 0
-6066.5889 7430.4292 15493.347 0
-6000.709 7463.0156 15561.295 0
-5934.395 7496.0757 15630.229 0
-5863.4619 7524.2598 15688.995 0
-5792.3013 7553.0566 15749.041 0
-5722.4253 7584.5039 15814.611 0
-5648.627 7611.7153 15871.351 0
-5572.2534 7636.3208 15922.656 0
-5496.1851 7662.2031 15976.624 0
-5423.7231 7694.1108 16043.156 0
-5346.6035 7720.4355 16098.046 0
-5267.6699 7745.0527 16149.375 0
-5185.23 7765.332 16191.66 0
-5100.9434 7783.5605 16229.669 0
-5018.728 7805.7129 16275.859 0
-4935.2324 7826.7061 16319.633 0
-4850.5254 7846.5806 16361.074 0
-4764.4893 7865.0757 16399.639 0
-4680.2222 7887.3237 16446.027 0
-4592.3979 7904.3975 16481.629 0
-4507.9194 7928.1006 16531.053 0
-4425.4893 7956.5425 16590.357 0
-4338.6509 7978.1748 16635.463 0
-4253.5005 8003.9917 16689.295 0
-4169.7744 8033.7871 16751.422 0
-4085.125 8063.2163 16812.785 0
-3998.1238 8089.3633 16867.305 0
-3912.3757 8119.4556 16930.051 0
-3823.229 8143.8965 16981.014 0
-3726.8713 8153.8872 17001.846 0
-3634.1426 8172.5962 17040.855 0
-3539.9902 8189.084 17075.234 0
-3446.0754 8207.1104 17112.822 0
-3354.3911 8231.707 17164.109 0
-3261.6333 8255.1299 17212.949 0
-3168.658 8279.501 17263.766 0
-3070.905 8292.6016 17291.082 0
-2972.6743 8305.2754 17317.508 0
-2876.2983 8324.2256 17357.021 0
-2779.2122 8342.4551 17395.031 0
-2680.0129 8355.5029 17422.238 0
-2575.7334 8353.125 17417.281 0
-2477.8508 8372.1631 17456.977 0
-2369.248 8355.0596 17421.314 0
-2270.7527 8373.666 17460.109 0
-2170.7119 8388.082 17490.17 0
-2067.7983 8392.2891 17498.941 0
-1966.943 8405.7373 17526.982 0
-1869.645 8436.7412 17591.631 65536
-1773.4613 8476.7451 17675.043 65536
-1675.2603 8511.5381 17747.59 65536
-1573.3917 8531.1191 17788.42 65536
-1470.125 8545.3955 17818.188 65536
-1366.0947 8557.1055 17842.604 65536
-1262.3348 8572.6211 17874.957 65536
-1155.3427 8567.0225 17863.283 65536
-1051.7078 8587.7031 17906.404 65536
-948.27844 8614.9092 17963.131 65536
-840.00519 8599.4277 17930.852 65536
-734.49707 8611.8701 17956.795 65536
-631.5611 8663.8271 18065.131 65536
-525.05017 8677.9814 18094.645 65536
-418.42389 8697.0293 18134.361 65536
-311.87015 8731.3252 18205.875 65536
-204.28835 8757.9912 18261.475 196608
-96.122543 8791.6895 18331.74 196608
12.808744 8777.5977 18302.357 196608
121.52035 8772.8604 18292.48 196608
230.89261 8797.7705 18344.42 131072
339.69403 8791.9258 18332.234 65536
447.01382 8759.8867 18265.428 65536
555.2879 8755.4131 18256.1 65536
662.04956 8732.4551 18208.229 0
770.23926 8732.1357 18207.564 65536
878.89313 8736.5107 18216.686 65536
984.32916 8711.4463 18164.424 65536
1088.9581 8684.9004 18109.072 65536
1196.806 8686.4932 18112.395 65536
1300.5492 8660.4893 18058.172 65536
1405.6437 8646.7627 18029.551 65536
1513.389 8650.1318 18036.576 131072
1607.6228 8580.9355 17892.293 131072
1704.1593 8531.8535 17789.951 131072
1801.2576 8491.1553 17705.09 131072
1897.95 8453.1426 17625.828 65536
1995.1168 8421.1074 17559.031 65536
2089.4158 8380.7549 17474.891 65536
2189.6104 8366.752 17445.693 65536
2288.0833 8347.7334 17406.037 65536
2371.147 8276.5732 17257.66 65536
2453.2524 8208.1094 17114.904 65536
2552.9163 8201.5049 17101.133 65536
2649.8291 8186.9048 17070.691 196608
2742.8589 8161.8291 17018.404 196608
2847.061 8170.5991 17036.691 196608
2943.3948 8156.9609 17008.254 196608
3033.1819 8126.6885 16945.133 196608
3108.5337 8060.9292 16808.016 196608
3188.7673 8011.5288 16705.01 196608
3278.8821 7989.1885 16658.428 196608
3354.4478 7933.7461 16542.824 262144
3425.7175 7871.5918 16413.225 196608
3502.782 7825.8242 16317.794 196608
3579.519 7781.8125 16226.023 196608
3660.7461 7749.6138 16158.886 196608
3740.1404 7715.2803 16087.296 196608
3817.3591 7678.2837 16010.154 196608
3896.1367 7646.145 15943.142 196608
3971.9136 7609.7847 15867.324 262144
4046.9944 7573.8066 15792.307 262144
4123.5845 7542.2207 15726.445 262144
4197.0625 7506.4692 15651.899 262144
4268.6733 7469.0015 15573.774 262144
4348.751 7447.6235 15529.198 393216
4417.5698 7408.2524 15447.106 393216
4495.292 7385.1128 15398.857 393216
4563.4336 7347.4712 15320.369 393216
4638.9756 7322.9834 15269.31 458752
4720.1851 7308.2104 15238.506 393216
4802.2373 7295.2744 15211.533 524288
4877.9897 7273.4233 15165.971 655360
4961.6362 7263.9214 15146.158 655360
5029.9756 7232.7476 15081.157 589824
5090.6265 7191.8037 14995.784 524288
5160.5615 7165.1592 14940.228 458752
5234.4097 7144.7578 14897.688 458752
5280.6123 7087.9277 14779.189 458752
5371.7139 7092.2363 14788.175 262144
5470.3799 7106.2329 14817.359 196608
5556.5166 7103.769 14812.221 65536
5646.6821 7106.4507 14817.813 0
5736.4795 7108.5947 14822.284 0
5835.8154 7122.3149 14850.892 0
5931.1265 7130.7871 14868.558 0
6016.3931 7127.1123 14860.895 0
6104.6475 7127.0317 14860.728 0
6241.1963 7182.5317 14976.451 0
6329.7886 7182.0576 14975.462 0
6402.7661 7164.125 14938.071 0
6477.4585 7148.5757 14905.648 0
6556.4434 7138.1191 14883.846 0
6638.4126 7131.147 14869.307 0
6666.2554 7066.978 14735.507 0
6773.4302 7087.4824 14778.262 0
6860.8623 7087.0693 14777.4 0
6972.5718 7111.4277 14828.189 0
7074.2632 7125.0869 14856.672 0
7156.479 7119.0356 14844.055 0
7242.6426 7117.0122 14839.835 0
7335.4834 7121.5195 14849.233 0
7420.5439 7118.4556 14842.845 0
7486.7944 7097.6318 14799.424 0
7550.8115 7075.1992 14752.649 0
7605.7588 7044.8799 14689.431 0
7673.8149 7027.2544 14652.678 0
7785.0605 7049.1294 14698.291 0
7859.5967 7037.6494 14674.354 0
7943.9067 7035.0771 14668.99 0
8058.3896 7058.9917 14718.854 0
8145.1387 7058.3579 14717.534 0
8231.5527 7057.4526 14715.645 0
8322.0527 7060.0312 14721.021 0
8407.1309 7058.0044 14716.797 0
8487.8027 7052.3589 14705.024 0
8570.0576 7048.1289 14696.205 0
8654.5352 7045.7954 14691.339 0
8762.7705 7062.6558 14726.495 0
8876.9326 7083.9131 14770.818 0
8953.7363 7075.2324 14752.72 0
9016.5391 7055.7651 14712.127 0
9082.8486 7039.3896 14677.982 65536
9160.2959 7031.875 14662.314 65536
9274.9756 7052.8145 14705.974 65536
9367.1865 7056.436 14713.526 65536
9473.9277 7070.8354 14743.551 65536
9564.1094 7072.7261 14747.493 65536
9653.4189 7073.9429 14750.029 0
9821.2197 7132.1382 14871.373 0
9944.9727 7157.5913 14924.447 0
10034.185 7157.9565 14925.208 0
10137.341 7168.1738 14946.514 0
10243.032 7179.9922 14971.155 0
10348.97 7191.7773 14995.729 0
10496.271 7231.8599 15079.307 0
10619.155 7254.5835 15126.688 0
10760.063 7289.1357 15198.733 65536
10905.995 7326.4883 15276.617 65536
11037.601 7353.6777 15333.311 65536
11267.79 7445.5649 15524.907 0
11568.097 7581.9155 15809.215 0
11839.574 7697.3262 16049.859 65536
12032.394 7760.1621 16180.881 65536
12235.146 7828.3579 16323.077 65536
12465.105 7912.7505 16499.045 65536
12779.385 8048.9336 16783.004 65536
13037.834 8148.1157 16989.811 65536
13455.877 8344.7471 17399.811 0
13771.206 8475.165 17671.748 65536
14135.361 8633.4316 18001.754 65536
14396.348 8726.7803 18196.396 65536
14633.611 8804.4648 18358.379 65536
14969.828 8940.0957 18641.184 65536
15250.859 9041.0166 18851.617 0
15894.569 9353.9023 19504.021 0
15795.736 9228.4355 19242.408 0
16030.718 9298.3984 19388.289 0
15378.133 8856.2158 18466.285 0
0 0 0 0
0 0 0 0
0 0 0 0
0 0 0 0
0 0 0 0
0 0 0 0
0 0 0 0
0 0 0 0
0 0 0 0
0 0 0 0
0 0 0 0
0 0 0 0
0 0 0 0
0 0 0 0
0 0 0 0
0 0 0 0
0 0 0 0
0 0 0 0
0 0 0 0
0 0 0 0
0 0 0 0
0 0 0 0
0 0 0 0
0 0 0 0
0 0 0 0
-12232.233 6493.8745 13374.769 0
-10297.96 5502.7632 11333.479 0
-11202.167 6025.3418 12409.78 0
-11136.114 6029.5127 12418.37 0
-10989.326 5989.7334 12336.441 0
-10847.227 5951.9937 12258.712 0
-10772.175 5950.7817 12256.217 0
-10697.114 5949.5483 12253.676 0
-10628.055 5951.6587 12258.022 0
-10559.591 5954.1338 12263.12 0
-10490.268 5956.1553 12267.284 0
-10421.81 5958.7002 12272.525 0
-10353.116 5961.1455 12277.562 0
-10284.525 5963.6841 12282.79 0
-10216.051 5966.3276 12288.234 0
-10147.622 5969.0366 12293.813 0
-10080.029 5972.2798 12300.493 0
-10014.857 5977.0142 12310.245 0
-9950.9668 5982.5898 12321.729 0
-9887.1885 5988.3159 12333.521 0
-9825.1367 5995.1807 12347.66 0
-9763.043 6002.123 12361.959 0
-9701.5898 6009.5679 12377.292 0
-9641.3525 6017.8857 12394.423 0
-9577.3848 6023.9839 12406.983 0
-9512.3945 6029.5293 12418.404 0
-9447.8564 6035.4502 12430.6 0
-9384.335 6042.1191 12444.335 0
-9321.9727 6049.6465 12459.838 0
-9263.1416 6059.604 12480.347 0
-9202.5967 6068.5928 12498.859 0
-9139.7607 6076.2041 12514.535 0
-9079.0273 6085.3496 12533.372 0
-9019.6035 6095.5322 12554.344 0
-8962.29 6107.3213 12578.625 0
-8902.627 6117.6953 12599.991 0
-8843.5889 6128.6782 12622.611 0
-8789.6045 6143.3813 12652.894 0
-8733.999 6157.1948 12681.345 0
-8679.9814 6172.3779 12712.615 0
-8632.8799 6192.7896 12754.655 0
-8581.2061 6210.2539 12790.624 0
-8529.1836 6227.7754 12826.712 0
-8477.9326 6246.1812 12864.621 0
-8426.3789 6264.6978 12902.758 0
-8370.7432 6280.4907 12935.284 0
-8314.7412 6296.3003 12967.845 0
-8259.2852 6312.8228 13001.874 0
-8204.8994 6330.4819 13038.245 0
-8152.7041 6350.1846 13078.825 0
-8099.8311 6369.7344 13119.09 0
-8047.9277 6390.4331 13161.722 0
-7995.1523 6410.8394 13203.75 0
-7944.1646 6433.0972 13249.593 0
-7893.7568 6456.2764 13297.332 0
-7845.0474 6481.3267 13348.926 0
-7790.0913 6501.6753 13390.836 0
-7741.4141 6527.7393 13444.516 0
-7687.8452 6550.1777 13490.73 0
-7636.2241 6574.7676 13541.375 0
-7582.9229 6598.418 13590.086 0
-7530.6919 6623.52 13641.786 0
-7474.4146 6645.5703 13687.201 0
-7421.9785 6671.5586 13740.727 0
-7365.6934 6694.627 13788.238 0
-7312.1045 6720.6929 13841.924 0
-7267.4272 6755.6353 13913.891 0
-7221.5 6790.2075 13985.096 0
-7174.7861 6824.8359 14056.416 0
-7127.269 6859.5078 14127.826 65536
-7081.3135 6896.5273 14204.071 65536
-7036.2925 6935.3604 14284.052 65536
-6998.3345 6982.1895 14380.501 65536
-6947.2925 7016.9604 14452.115 65536
-6894.1069 7050.4102 14521.009 0
-6838.3672 7082.063 14586.201 0
-6783.6196 7115.5703 14655.211 0
-6728.5107 7149.564 14725.225 0
-6667.4893 7178.0889 14783.976 0
-6623.9023 7226.3955 14883.468 0
-6547.6611 7239.9033 14911.288 0
-6493.5576 7278.5952 14990.979 0
-6430.335 7308.0015 15051.543 0
-6383.2949 7356.8877 15152.229 0
-6313.8687 7381.002 15201.896 0
-6241.4302 7402.2461 15245.648 0
-6178.9424 7436.0894 15315.353 65536
-6117.9868 7472.8174 15390.996 0
-6049.4053 7501.2041 15449.462 0
-5984.061 7534.541 15518.123 0
-5917.3599 7567.187 15585.36 0
-5846.6572 7595.6729 15644.029 0
-5775.9478 7625.0698 15704.576 0
-5705.1494 7655.3145 15766.867 0
-5634.0415 7686.146 15830.368 0
-5557.5791 7710.5962 15880.726 0
-5481.4458 7736.3555 15933.78 0
-5407.5366 7766.2148 15995.277 0
-5330.5327 7792.6182 16049.658 0
-5251.3198 7816.6968 16099.251 0
-5168.312 7835.9146 16138.831 0
-5084.0361 7853.9009 16175.875 0
-5001.1709 7874.8013 16218.922 0
-4916.4658 7893.5679 16257.575 0
-4829.4941 7909.3774 16290.136 0
-4743.4116 7927.3188 16327.088 0
-4656.4761 7944.5547 16362.586 0
-4571.6382 7966.1792 16407.125 0
-4486.1572 7987.603 16451.248 0
-4403.6636 8015.4185 16508.537 0
-4317.9473 8038.502 16556.08 0
-4232.7114 8063.5781 16607.727 0
-4149.1289 8093.0757 16668.48 0
-4064.1016 8121.1299 16726.26 0
-3977.5205 8147.4082 16780.383 0
-3891.0537 8175.2783 16837.783 0
-3801.2268 8197.373 16883.291 0
-3705.082 8206.6729 16902.443 0
-3613.571 8227.041 16944.395 0
-3521.0129 8246.123 16983.695 0
-3427.572 8264.2041 17020.936 0
-3336.0623 8288.1836 17070.322 0
-3243.2825 8310.4111 17116.104 0
-3150.3494 8333.6738 17164.016 0
-3053.9871 8349.1182 17195.824 0
-2956.165 8361.5029 17221.332 0
-2859.6331 8378.5566 17256.455 0
-2764.9175 8402.3984 17305.561 0
-2664.0105 8408.541 17318.211 0
-2561.1091 8408.6279 17318.391 0
-2462.6562 8423.9404 17349.928 0
-2358.5359 8420.3564 17342.547 0
-2259.3328 8434.8037 17372.301 0
-2157.3704 8439.8389 17382.672 0
-2058.1604 8456.6895 17417.379 0
-1957.3691 8468.4854 17441.672 0
-1859.5045 8494.9688 17496.219 65536
-1762.975 8531.0518 17570.533 65536
-1665.6998 8567.8418 17646.307 65536
-1563.9642 8585.0918 17681.836 65536
-1461.0708 8598.0137 17708.449 65536
-1357.9165 8611.2871 17735.787 65536
-1254.1882 8622.8496 17759.6 65536
-1148.1118 8618.9092 17751.484 0
-1045.0105 8638.7637 17792.377 0
-941.92041 8663.1934 17842.693 65536
-834.40198 8647.9248 17811.246 65536
-729.76215 8662.3896 17841.037 65536
-627.27173 8711.623 17942.438 65536
-521.3078 8722.9043 17965.672 65536
-415.87219 8751.1123 18023.771 65536
-309.87949 8783.1064 18089.666 65536
-202.66779 8796.1895 18116.611 196608
-95.270493 8821.7432 18169.242 196608
12.70684 8815.6758 18156.746 196608
120.61629 8815.5039 18156.391 196608
229.20776 8841.8037 18210.559 131072
337.12564 8833.583 18193.627 65536
444.01578 8808.9648 18142.924 65536
550.68658 8790.4668 18104.824 65536
657.80322 8783.9688 18091.441 65536
764.87323 8778.7627 18080.719 65536
872.68353 8782.2881 18087.98 65536
977.83301 8761.2002 18044.547 65536
1081.7438 8734.2783 17989.1 65536
1187.4927 8725.707 17971.445 65536
1290.9841 8703.332 17925.361 65536
1395.1399 8688.5039 17894.822 65536
1500.0631 8680.2188 17877.758 65536
1594.1426 8614.4316 17742.262 65536
1689.4552 8563.0586 17636.455 65536
1789.3812 8539.7051 17588.355 65536
1884.688 8498.0996 17502.666 65536
1980.459 8462.832 17430.029 65536
2076.2246 8431.0479 17364.566 65536
2173.7527 8409.0928 17319.348 65536
2271.0579 8388.2979 17276.52 65536
2355.4038 8323.5088 17143.08 65536
2438.6597 8260.3994 17013.1 65536
2536.6257 8250.1592 16992.008 65536
2631.7166 8231.709 16954.008 65536
2721.7927 8199.5127 16887.697 65536
2828.2896 8217.3154 16924.363 65536
2923.5037 8202.2402 16893.314 65536
3012.2756 8170.6924 16828.338 196608
3084.9878 8099.0093 16680.701 196608
3163.6023 8046.8047 16573.18 196608
3253.1575 8024.7383 16527.732 196608
3328.8303 7970.7271 16416.49 262144
3401.4502 7912.6895 16296.956 262144
3475.7112 7861.5767 16191.685 262144
3552.1462 7818.0039 16101.942 262144
3628.1692 7775.8335 16015.088 262144
3707.2126 7742.1274 15945.667 262144
3785.5266 7708.6157 15876.646 262144
3864.1533 7677.356 15812.264 262144
3941.3796 7644.8643 15745.345 262144
4021.3032 7618.9893 15692.053 262144
4094.7571 7582.3086 15616.505 262144
4168.2783 7547.375 15544.556 262144
4244.0493 7517.9419 15483.936 327680
4317.4395 7485.6309 15417.388 393216
4383.8027 7442.7314 15329.032 393216
4451.3271 7403.5112 15248.254 393216
4520.2573 7368.1465 15175.418 393216
4594.9976 7343.4512 15124.555 393216
4669.5352 7319.3862 15074.99 458752
4751.4956 7307.6426 15050.804 458752
4830.6714 7292.1304 15018.855 524288
4912.6685 7281.3618 14996.677 524288
4987.7026 7260.8413 14954.412 458752
5054.7104 7229.5596 14889.984 524288
5123.6655 7202.0918 14833.411 458752
5188.1484 7169.3721 14766.022 458752
5258.5034 7145.7217 14717.312 393216
5334.8716 7130.8823 14686.749 262144
5429.6821 7140.7749 14707.123 196608
5506.7393 7127.376 14679.527 196608
5595.5601 7129.3823 14683.66 65536
5682.8003 7129.3452 14683.583 65536
5767.9336 7126.7065 14678.147 65536
5866.9663 7141.0635 14707.717 0
5947.2729 7132.5405 14690.164 0
6037.127 7135.5488 14696.359 0
6171.7373 7190.6162 14809.776 0
6261.1592 7192.2275 14813.095 0
6346.8198 7189.5327 14807.545 0
6427.8672 7181.7573 14791.531 0
6502.8662 7167.5254 14762.219 0
6588.8555 7165.625 14758.305 0
6629.6719 7115.293 14654.641 0
6731.6841 7131.0918 14687.181 65536
6820.293 7132.4707 14690.02 0
6918.6997 7143.9312 14713.623 0
7026.3867 7164.5669 14756.126 0
7113.7671 7164.2446 14755.461 0
7194.188 7157.0063 14740.554 0
7288.9834 7164.0708 14755.104 0
7371.9751 7159.5024 14745.695 0
7439.897 7140.5796 14706.721 0
7517.3813 7131.166 14687.333 0
7576.8042 7105.0327 14633.509 0
7643.9565 7086.6582 14595.664 0
7753.2905 7107.3623 14638.308 0
7834.9326 7102.5054 14628.304 0
7915.3667 7096.6719 14616.289 0
8030.8662 7122.0615 14668.582 0
8118.0317 7122.0483 14668.555 0
8202.2588 7119.4854 14663.275 0
8301.6035 7129.96 14684.848 0
8393.9502 7134.2686 14693.723 0
8484.3291 7136.834 14699.006 0
8572.5107 7137.5166 14700.412 0
8656.624 7134.8325 14694.884 0
8754.0898 7143.0981 14711.908 0
8861.0254 7158.8501 14744.352 0
8958.4062 7166.6494 14760.415 0
9020.6016 7146.4233 14718.757 0
9107.8516 7146.2437 14718.387 65536
9234.9805 7177.0601 14781.856 65536
9358.8555 7204.791 14838.971 65536
9455.5273 7211.2573 14852.288 65536
9561.3867 7224.5459 14879.657 65536
9651.9014 7226.103 14882.864 65536
9829.2178 7292.0278 15018.644 0
9926.9414 7298.2485 15031.456 0
10124.434 7377.0552 15193.766 0
10208.577 7372.6079 15184.606 0
10315.215 7384.3408 15208.771 0
10411.109 7388.2466 15216.815 0
10503.755 7389.7988 15220.013 0
10819.554 7546.9819 15543.746 0
10445.8 7224.5903 14879.749 0
10380.02 7118.8257 14661.916 0
10529.697 7161.3579 14749.516 0
11007.386 7424.4287 15291.336 0
11048.908 7391.4092 15223.329 0
11650.528 7730.5718 15921.868 0
11973.082 7880.5898 16230.845 0
12245.646 7995.5708 16467.658 0
12502.06 8098.2651 16679.168 0
12787.447 8217.9658 16925.703 65536
13073.737 8336.3721 17169.574 65536
13357.253 8451.1895 17406.051 65536
13701.604 8602.4365 17717.559 0
13983.995 8712.7734 17944.809 0
14259.081 8816.9229 18159.314 0
14565.843 8938.9463 18410.633 0
14851.2 9046.1123 18631.352 65536
15133.502 9149.8438 18844.998 65536
15471.696 9285.5967 19124.594 0
16005.507 9535.916 19640.15 0
16323.523 9654.9727 19885.359 0
0 0 0 0
0 0 0 0
0 0 0 0
0 0 0 0
0 0 0 0
0 0 0 0
0 0 0 0
0 0 0 0
0 0 0 0
0 0 0 0
0 0 0 0
0 0 0 0
0 0 0 0
0 0 0 0
0 0 0 0
0 0 0 0
0 0 0 0
0 0 0 0
0 0 0 0
0 0 0 0
0 0 0 0
0 0 0 0
0 0 0 0
0 0 0 0
0 0 0 0
0 0 0 0
0 0 0 0
-12313.312 6616.9355 13463.421 0
-10286.141 5563.7285 11320.47 0
-11226.434 6112.3096 12436.663 0
-11162.486 6117.7729 12447.779 0
-11012.445 6075.8091 12362.396 0
-10868.323 6036.5693 12282.555 0
-10792.984 6035.2607 12279.893 0
-10716.968 6033.5532 12276.418 0
-10647.109 6035.3135 12279.999 0
-10577.729 6037.3711 12284.186 0
-10508.148 6039.3408 12288.193 0
-10439.069 6041.6289 12292.85 0
-10370.54 6044.2705 12298.224 0
-10301.771 6046.8076 12303.387 0
-10233.121 6049.4521 12308.768 0
-10164.472 6052.1353 12314.227 0
-10096.691 6055.3784 12320.825 0
-10031.218 6060.062 12330.355 0
-9966.8789 6065.5054 12341.431 0
-9902.248 6070.8506 12352.307 0
-9837.4277 6076.1587 12363.106 0
-9777.0693 6084.3237 12379.72 0
-9715.9385 6092.1274 12395.598 0
-9654.6797 6099.9702 12411.556 0
-9590.7314 6106.2207 12424.273 0
-9525.4922 6111.7397 12435.504 0
-9460.6572 6117.6074 12447.442 0
-9397.0518 6124.3682 12461.198 0
-9335.6621 6132.6924 12478.136 0
-9274.8125 6141.5073 12496.071 0
-9212.9902 6149.8154 12512.976 0
-9150.3066 6157.6787 12528.975 0
-9087.9053 6165.8633 12545.628 0
-9028.8564 6176.4766 12567.223 0
-8971.9561 6188.748 12592.191 0
-8911.0918 6198.4697 12611.972 0
-8853.1455 6210.4028 12636.252 0
-8796.0059 6223.1113 12662.109 0
-8739.6045 6236.5649 12689.483 0
-8684.9404 6251.5034 12719.879 0
-8631.8828 6267.8711 12753.182 0
-8582.8252 6287.4595 12793.038 0
-8530.4512 6304.9463 12828.618 0
-8479.0146 6323.4478 12866.264 0
-8426.9053 6341.7793 12903.562 0
-8370.4258 6357.1294 12934.795 0
-8313.8047 6372.6548 12966.385 0
-8257.6084 6388.7993 12999.234 0
-8202.6484 6406.2158 13034.67 0
-8149.5664 6425.4429 13073.792 0
-8095.3164 6444.1118 13111.777 0
-8042.4111 6464.2231 13152.699 0
-7988.9937 6484.3149 13193.579 0
-7937.271 6506.1938 13238.096 0
-7886.0439 6528.9209 13284.339 0
-7832.1162 6549.8501 13326.922 0
-7783.0708 6575.3306 13378.768 0
-7733.8779 6601.2114 13431.427 0
-7679.2749 6622.9673 13475.692 0
-7626.9658 6647.1787 13524.957 0
-7573.9136 6671.2529 13573.94 0
-7520.688 6695.6914 13623.664 0
-7463.2983 6716.9131 13666.844 0
-7410.8813 6743.1274 13720.182 0
-7354.0786 6765.8896 13766.496 0
-7302.356 6793.8901 13823.469 0
-7255.9453 6827.5269 13891.908 0
-7209.4028 6861.8115 13961.668 0
-7160.3813 6894.5083 14028.195 0
-7113.2524 6929.8188 14100.042 65536
-7065.458 6965.3164 14172.268 65536
-7020.3564 7004.3555 14251.7 65536
-6972.9019 7041.9731 14328.24 65536
-6929.9326 7085.106 14416.003 65536
-6877.1025 7119.1118 14485.193 0
-6820.2578 7149.7695 14547.574 0
-6765.2285 7183.1431 14615.479 0
-6709.0156 7216.1123 14682.561 0
-6648.6646 7245.4404 14742.234 0
-6605.0723 7294.0586 14841.157 0
-6540.3584 7320.3525 14894.657 0
-6479.1206 7351.312 14957.65 0
-6406.7544 7370.3311 14996.348 0
-6354.8438 7413.75 15084.691 0
-6293.0928 7446.7676 15151.873 0
-6229.606 7478.6611 15216.766 0
-6165.4609 7510.6909 15281.938 65536
-6105.6533 7549.0415 15359.969 0
-6031.918 7571.0757 15404.801 0
-5966.5059 7604.396 15472.598 0
-5897.4438 7634.0361 15532.906 0
-5829.5063 7666.0972 15598.14 0
-5758.4058 7694.9668 15656.881 0
-5687.5361 7725.0986 15718.19 0
-5618.1021 7758.2202 15785.582 0
-5542.7603 7784.1689 15838.38 0
-5466.7188 7810.0151 15890.97 0
-5392.8047 7839.8633 15951.701 0
-5316.5259 7867.2808 16007.486 0
-5236.2808 7889.7197 16053.144 0
-5152.5874 7907.7007 16089.729 0
-5068.2104 7925.292 16125.522 0
-4983.8296 7943.5552 16162.683 0
-4899.769 7963.0576 16202.364 0
-4813.771 7980.1299 16237.101 0
-4727.2988 7997.0981 16271.625 0
-4639.9053 8013.1846 16304.356 0
-4553.5542 8031.7954 16342.224 0
-4466.9194 8050.7065 16380.702 0
-4382.479 8074.5034 16429.121 0
-4295.1602 8093.96 16468.709 0
-4207.9194 8114.4746 16510.451 0
-4123.6367 8141.8105 16566.07 0
-4039.6555 8171.0928 16625.65 0
-3953.5439 8197.4258 16679.23 0
-3866.8364 8223.8467 16732.988 0
-3780.5547 8252.5918 16791.475 0
-3684.2217 8260.3584 16807.279 0
-3591.9861 8278.0029 16843.18 0
-3500.4358 8298.2832 16884.443 0
-3408.6067 8319.0781 16926.756 0
-3317.3652 8342.6172 16974.65 0
-3224.8225 8364.2588 17018.684 0
-3132.5234 8387.9531 17066.895 0
-3036.9788 8404.252 17100.057 0
-2940.1646 8418.0449 17128.121 0
-2843.863 8434.3467 17161.291 0
-2749.6807 8458.3809 17210.193 0
-2649.8455 8466.2109 17226.125 0
-2548.0618 8468.1963 17230.164 0
-2450.9509 8486.5264 17267.461 0
-2346.113 8478.5352 17251.201 0
-2247.5293 8493.4463 17281.541 0
-2145.9973 8498.1123 17291.035 0
-2047.5148 8515.9307 17327.289 0
-1947.0483 8526.9473 17349.705 0
-1848.5833 8548.4512 17393.459 65536
-1752.5709 8584.5166 17466.842 65536
-1655.5219 8619.7266 17538.482 65536
-1553.5815 8632.4902 17564.451 65536
-1452.1683 8650.2305 17600.549 65536
-1349.4281 8662.209 17624.92 65536
-1245.6954 8669.2959 17639.34 65536
-1141.1298 8671.3555 17643.529 65536
-1038.5287 8690.2705 17682.018 65536
-936.15863 8715.5957 17733.547 65536
-829.39191 8701.2227 17704.301 65536
-725.85925 8721.5293 17745.619 65536
-623.64264 8767.2432 17838.633 65536
-518.39691 8780.377 17865.355 65536
-413.06308 8798.3994 17902.025 65536
-307.89142 8833.582 17973.611 65536
-201.4966 8852.4082 18011.918 196608
-94.661667 8872.6641 18053.133 196608
12.628988 8868.916 18045.506 196608
119.79897 8862.9473 18033.361 196608
227.45129 8881.4502 18071.008 131072
334.53705 8873.0547 18053.928 65536
440.45428 8845.2715 17997.396 65536
546.15057 8824.7764 17955.695 65536
653.06873 8827.4971 17961.23 65536
758.44397 8811.5283 17928.738 65536
865.33856 8814.9697 17935.742 65536
970.59253 8802.7773 17910.934 65536
1073.3315 8772.4404 17849.207 65536
1177.1267 8755.416 17814.568 65536
1279.5579 8731.8936 17766.707 65536
1381.6412 8709.7646 17721.682 65536
1486.0686 8704.5 17710.971 65536
1583.3285 8660.7266 17621.904 65536
1679.8309 8618.499 17535.984 65536
1775.6125 8577.7227 17453.018 65536
1871.2427 8540.7568 17377.803 65536
1967.7408 8511.4121 17318.096 65536
2064.5159 8486.123 17266.641 65536
2161.4197 8463.7334 17221.084 65536
2258.7061 8444.7988 17182.557 65536
2341.5271 8375.7588 17042.082 65536
2425.1975 8315.3564 16919.182 65536
2521.7866 8302.2939 16892.605 65536
2613.4202 8274.542 16836.139 65536
2702.6355 8241.4639 16768.834 65536
2804.2446 8247.1865 16780.479 65536
2900.6855 8237.8398 16761.461 131072
2990.5874 8211.1592 16707.174 196608
3063.4058 8140.7954 16564.006 196608
3138.9731 8081.8921 16444.154 196608
3228.283 8060.8594 16401.359 196608
3304.6726 8009.7427 16297.353 262144
3378.3884 7955.2432 16186.463 262144
3452.4663 7904.5884 16083.397 262144
3523.3511 7849.5508 15971.412 262144
3594.5647 7798.1143 15866.755 262144
3673.9883 7766.6621 15802.76 262144
3754.0339 7738.061 15744.565 262144
3834.9775 7712.6572 15692.875 262144
3915.3093 7687.2573 15641.195 262144
3999.9915 7671.3804 15608.891 262144
4069.3433 7627.4873 15519.582 262144
4141.8081 7591.2456 15445.842 393216
4210.5688 7549.9351 15361.786 393216
4283.7979 7518.2192 15297.254 393216
4344.3394 7466.0171 15191.04 393216
4413.5791 7430.5854 15118.946 393216
4484.4531 7399.2632 15055.216 393216
4562.2451 7380.3579 15016.75 393216
4643.2461 7367.27 14990.119 393216
4718.1592 7345.1973 14945.209 458752
4799.1123 7333.1685 14920.734 458752
4876.5366 7316.2842 14886.379 393216
4948.8809 7292.5142 14838.014 327680
5017.2583 7263.8345 14779.659 393216
5086.7061 7237.6636 14726.41 393216
5159.0874 7216.4824 14683.312 196608
5230.5459 7194.7354 14639.065 262144
5312.7866 7188.2891 14625.949 196608
5397.4424 7185.2656 14619.797 131072
5464.8779 7159.7769 14567.936 65536
5541.6089 7147.0713 14542.084 65536
5622.3931 7139.9038 14527.5 0
5699.7441 7128.6587 14504.62 0
5798.6851 7144.3491 14536.545 0
5877.1875 7134.7671 14517.048 0
5969.5459 7142.0396 14531.846 0
6106.6782 7201.9092 14653.661 0
6205.855 7215.9604 14682.252 0
6286.6729 7208.5718 14667.217 0
6371.2407 7205.6265 14661.225 0
6452.7959 7199.3989 14648.554 0
6534.9478 7193.9941 14637.557 0
6587.8481 7156.9531 14562.189 0
6691.7065 7175.5146 14599.957 65536
6797.0698 7195.1948 14639.999 65536
6882.6289 7193.6777 14636.912 65536
6986.8081 7211.4175 14673.008 65536
7075.8618 7213.2993 14676.838 65536
7152.9849 7203.123 14656.131 0
7247.4609 7210.4551 14671.05 0
7327.4004 7203.3223 14656.536 0
7394.626 7184.0049 14617.231 0
7463.7163 7166.9272 14582.484 0
7535.5078 7152.8052 14553.75 0
7615.8633 7147.041 14542.021 0
7721.0381 7164.4365 14577.415 0
7812.1382 7168.5308 14585.746 0
7896.6846 7166.5864 14581.791 0
8004.5713 7185.6372 14620.553 0
8094.1577 7188.0269 14625.416 0
8188.2676 7194.3408 14638.263 0
8285.3369 7203.0957 14656.075 0
8384.6797 7213.6235 14677.496 0
8472.5029 7214.125 14678.517 0
8564.9697 7218.5312 14687.481 0
8654.5684 7220.4546 14691.396 0
8756.1816 7232.2632 14715.422 0
8865.0566 7249.7773 14751.059 0
8959.6748 7255.4028 14762.505 0
9164.8955 7349.6162 14954.199 0
8846.3477 7026.0264 14295.794 0
8945.6162 7037.2783 14318.688 65536
9046.3125 7049.4312 14343.416 65536
9147.4648 7061.7095 14368.398 65536
9254.8223 7078.5059 14402.574 65536
9377.3271 7106.4746 14459.481 65536
9509.7598 7141.3901 14530.524 0
9622.5918 7161.0908 14570.608 0
9748.71 7190.2393 14629.917 0
9840.499 7193.7764 14637.113 0
9940.4785 7203.186 14656.26 0
10030.536 7205.3052 14660.571 0
10124.814 7210.394 14670.926 0
10225.612 7219.999 14690.469 0
10346.68 7243.6313 14738.554 0
10418.504 7232.6831 14716.276 0
10562.312 7271.4731 14795.202 0
10692.201 7300.1187 14853.486 0
11080.813 7503.4922 15267.289 0
11208.028 7527.9917 15317.138 0
12014.401 8004.5845 16286.857 0
12464.426 8238.04 16761.867 0
12630.315 8281.4912 16850.277 0
12912.51 8399.917 17091.238 0
13298.813 8583.6934 17465.164 0
13553.648 8680.4209 17661.977 0
13923.738 8848.9121 18004.803 0
14176.005 8940.5225 18191.203 0
14489.627 9069.1494 18452.92 0
14816.802 9204.2637 18727.834 0
15091.714 9305.1387 18933.084 0
15409.487 9430.752 19188.668 0
0 0 0 0
0 0 0 0
0 0 0 0
0 0 0 0
0 0 0 0
0 0 0 0
0 0 0 0
0 0 0 0
0 0 0 0
0 0 0 0
0 0 0 0
0 0 0 0
0 0 0 0
0 0 0 0
0 0 0 0
0 0 0 0
0 0 0 0
0 0 0 0
0 0 0 0
0 0 0 0
0 0 0 0
0 0 0 0
0 0 0 0
0 0 0 0
0 0 0 0
0 0 0 0
0 0 0 0
0 0 0 0
0 0 0 0
0 0 0 0
-12410.336 6749.7231 13569.508 0
-10274.826 5624.8164 11308.019 0
-11256.036 6202.5376 12469.457 0
-11195.352 6209.9844 12484.429 0
-11038.487 6163.8247 12391.63 0
-10891.794 6122.7627 12309.079 0
-10815.656 6121.0762 12305.688 0
-10738.59 6118.8364 12301.187 0
-10668.383 6120.5024 12304.535 0
-10598.608 6122.4409 12308.433 0
-10528.62 6124.2817 12312.133 0
-10459.224 6126.4951 12316.583 0
-10389.949 6128.812 12321.24 0
-10320.931 6131.313 12326.27 0
-10252.524 6134.2168 12332.106 0
-10183.492 6136.7852 12337.27 0
-10115.304 6139.9033 12343.538 0
-10049.223 6144.354 12352.486 0
-9984.2363 6149.5459 12362.924 0
-9919.0234 6154.6738 12373.233 0
-9853.7363 6159.8325 12383.604 0
-9791.001 6166.6748 12397.359 0
-9729.335 6174.3003 12412.689 0
-9668.5303 6182.5928 12429.36 0
-9605.1289 6189.3398 12442.925 0
-9539.707 6194.8789 12454.061 0
-9474.5244 6200.6626 12465.688 0
-9410.6553 6207.4028 12479.238 0
-9349.1924 6215.8501 12496.22 0
-9287.6494 6224.3794 12513.367 0
-9224.5869 6232.0186 12528.726 0
-9162.1836 6240.2319 12545.237 0
-9101.1611 6249.5283 12563.927 0
-9039.6982 6258.6733 12582.312 0
-8979.1553 6268.6147 12602.297 0
-8919.2588 6279.1768 12623.53 0
-8860.4707 6290.7051 12646.707 0
-8802.6172 6303.1001 12671.626 0
-8745.1152 6315.9629 12697.485 0
-8689.499 6330.4229 12726.556 0
-8635.6543 6346.439 12758.754 0
-8586.0234 6365.8638 12797.805 0
-8531.4756 6381.957 12830.159 0
-8478.5088 6399.5337 12865.495 0
-8427.0098 6418.5488 12903.722 0
-8370.5889 6434.1309 12935.047 0
-8312.9619 6449.0649 12965.07 0
-8255.8936 6464.7158 12996.535 0
-8200.5117 6481.9956 13031.274 0
-8146.1396 6500.4102 13068.295 0
-8090.0869 6517.8262 13103.308 0
-8037.7383 6538.5933 13145.057 0
-7983.9575 6558.5918 13185.262 0
-7931.0288 6579.6943 13227.686 0
-7878.623 6601.6567 13271.838 0
-7824.1973 6622.3535 13313.447 0
-7771.353 6644.8262 13358.625 0
-7723.5659 6672.1313 13413.519 0
-7671.2671 6696.0674 13461.64 0
-7618.5801 6720.1655 13510.086 0
-7564.8276 6743.8281 13557.656 0
-7510.7632 6767.7188 13605.686 0
-7452.8481 6788.6216 13647.708 0
-7399.0654 6813.79 13698.307 0
-7341.7466 6836.2256 13743.41 0
-7290.7935 6865.1606 13801.581 0
-7244.8013 6899.4785 13870.573 0
-7197.2764 6933.1094 13938.184 0
-7146.2217 6964.084 14000.455 0
-7098.2515 6998.8296 14070.307 65536
-7049.3428 7033.4673 14139.941 65536
-7002.166 7070.6899 14214.773 65536
-6954.6104 7108.4346 14290.654 65536
-6913.1895 7153.4604 14381.173 0
-6859.2227 7186.4692 14447.533 0
-6802.292 7217.1694 14509.253 0
-6746.2349 7249.5977 14574.445 0
-6689.8716 7282.5352 14640.663 0
-6628.3354 7310.6372 14697.158 0
-6582.1489 7356.644 14789.649 0
-6520.9224 7386.8594 14850.395 0
-6459.5303 7417.7144 14912.424 0
-6383.7793 7432.7095 14942.569 0
-6329.6016 7473.5996 15024.774 0
-6265.3457 7503.5894 15085.066 0
-6211.252 7546.7983 15171.933 0
-6152.6943 7585.7764 15250.293 65536
-6100.0063 7633.2651 15345.763 0
-6019.418 7646.752 15372.877 0
-5950.5542 7675.7788 15431.231 0
-5879.5688 7702.9346 15485.825 0
-5811.5317 7734.8784 15550.045 0
-5739.9526 7763.0635 15606.707 0
-5668.3584 7792.1538 15665.19 0
-5599.7061 7826.3281 15733.894 0
-5526.6494 7855.4023 15792.344 0
-5450.8911 7881.5757 15844.962 0
-5376.6685 7910.9277 15903.971 0
-5298.6689 7935.6743 15953.721 0
-5217.2969 7956.1797 15994.944 0
-5134.0347 7974.5098 16031.794 0
-5049.3208 7991.2368 16065.422 0
-4966.498 8011.6577 16106.477 0
-4881.9321 8030.0156 16143.382 0
-4796.4463 8047.5645 16178.663 0
-4709.5952 8063.4951 16210.689 0
-4621.5747 8078.0464 16239.943 0
-4534.3462 8094.6328 16273.288 0
-4446.6299 8111.0522 16306.297 0
-4360.5776 8131.3062 16347.016 0
-4272.3784 8148.3892 16381.358 0
-4184.6514 8167.1895 16419.154 0
-4100.1108 8193.2568 16471.559 0
-4016.2952 8222.0811 16529.508 0
-3930.9124 8249.0635 16583.752 0
-3845.5117 8277.3955 16640.709 0
-3757.0513 8300.4629 16687.084 0
-3660.345 8306.0693 16698.355 0
-3568.2031 8322.6348 16731.658 0
-3477.3115 8343.1494 16772.9 0
-3385.8694 8363.5166 16813.846 0
-3296.1721 8389.5615 16866.207 0
-3205.1248 8413.6982 16914.73 0
-3112.8762 8436.1416 16959.85 0
-3019.4539 8456.7998 17001.381 0
-2923.7876 8472.3857 17032.715 0
-2828.0496 8488.876 17065.865 0
-2732.7366 8507.915 17104.141 0
-2636.8169 8526.4629 17141.43 0
-2538.0962 8537.0811 17162.775 0
-2438.0625 8543.9863 17176.658 0
-2333.8901 8536.3584 17161.324 0
-2238.5581 8561.8447 17212.561 65536
-2135.9067 8560.4375 17209.732 65536
-2039.4044 8584.7725 17258.654 0
-1936.0779 8581.4375 17251.949 0
-1838.0466 8602.5137 17294.32 65536
-1744.0615 8646.1445 17382.035 65536
-1645.2549 8669.8613 17429.715 65536
-1544.5232 8685.9404 17462.039 65536
-1442.9795 8699.4395 17489.18 65536
-1341.3743 8714.6357 17519.729 65536
-1238.2268 8721.5264 17533.582 65536
-1134.8136 8727.6396 17545.873 65536
-1032.9125 8747.7979 17586.396 65536
-930.58148 8768.4414 17627.9 65536
-824.79419 8757.626 17606.156 65536
-722.25555 8783.1748 17657.518 65536
-620.48364 8828.3174 17748.271 65536
-515.95752 8844.7393 17781.287 65536
-411.13901 8863.3174 17818.637 65536
-306.2988 8894.1592 17880.639 65536
-200.2901 8905.8135 17904.068 196608
-94.021324 8919.2158 17931.012 196608
12.552481 8921.7891 17936.186 196608
119.06708 8915.3242 17923.189 196608
225.66962 8918.4404 17929.453 131072
332.08057 8914.4141 17921.359 65536
437.18362 8885.7617 17863.756 65536
542.59027 8873.2695 17838.643 65536
648.77295 8875.4785 17843.084 65536
753.56122 8860.6709 17813.314 65536
859.12738 8857.5322 17807.004 65536
964.29156 8851.3906 17794.658 65536
1065.7457 8815.7744 17723.057 65536
1167.3071 8787.373 17665.959 65536
1268.7268 8762.6797 17616.316 65536
1371.0442 8747.4795 17585.758 65536
1472.3552 8728.4668 17547.535 65536
1569.3826 8688.2549 17466.693 65536
1666.2136 8652.0127 17393.832 65536
1763.2748 8621.1289 17331.746 65536
1859.7815 8591.0957 17271.365 65536
1955.9231 8562.6045 17214.088 65536
2051.1267 8533.0439 17154.66 65536
2146.5061 8506.9785 17102.26 65536
2242.6455 8486.1475 17060.381 65536
2326.1692 8421.4453 16930.305 65536
2408.927 8359.4502 16805.672 65536
2503.2878 8341.0537 16768.688 65536
2595.3774 8316.7881 16719.904 65536
2685.6973 8288.8506 16663.738 65536
2780.5562 8276.4102 16638.729 65536
2877.427 8270.6074 16627.062 65536
2966.897 8244.624 16574.826 196608
3043.3572 8185.3193 16455.602 196608
3116.4561 8120.9492 16326.193 196608
3204.8062 8099.0078 16282.084 196608
3280.5674 8047.4717 16178.476 262144
3353.5449 7992.2363 16067.433 262144
3425.2986 7937.2241 15956.837 262144
3496.9355 7884.9126 15851.67 262144
3568.4661 7835.1118 15751.552 262144
3648.9185 7806.9463 15694.928 262144
3729.3777 7780.1987 15641.156 262144
3810.2688 7755.6313 15591.766 262144
3888.6292 7727.2021 15534.611 262144
3966.8967 7699.9111 15479.747 262144
4042.3054 7668.4341 15416.466 262144
4117.3184 7637.6172 15354.513 393216
4183.2075 7591.5801 15261.961 393216
4247.4004 7544.4844 15167.279 458752
4313.2188 7502.1729 15082.218 458752
4380.8516 7464.6763 15006.836 393216
4451.3955 7433.5376 14944.234 393216
4529.9312 7416.7017 14910.388 393216
4608.1826 7400.0542 14876.921 393216
4685.2925 7382.2368 14841.101 458752
4763.4673 7366.7231 14809.913 458752
4838.8491 7347.5322 14771.332 393216
4914.5889 7329.5596 14735.199 393216
4984.2847 7303.3589 14682.526 393216
5056.876 7282.2305 14640.05 393216
5131.3008 7264.4121 14604.229 327680
5203.1665 7243.624 14562.437 262144
5288.7773 7242.3389 14559.853 196608
5357.0977 7217.7979 14510.517 131072
5424.2305 7192.4614 14459.58 0
5502.3555 7182.2627 14439.076 65536
5580.333 7172.187 14418.821 65536
5661.4082 7166.3389 14407.063 65536
5749.0654 7168.8716 14412.155 65536
5834.0771 7168.0786 14410.562 65536
5932.4438 7183.481 14441.526 65536
6062.9438 7236.7988 14548.715 65536
6163.3208 7253.1665 14581.621 65536
6245.2466 7247.6689 14570.568 65536
6321.3096 7235.6099 14546.325 65536
6391.626 7217.3877 14509.691 0
6469.2114 7207.75 14490.315 0
6531.147 7181.1562 14436.854 131072
6635.1265 7200.8833 14476.511 65536
6728.3989 7208.6333 14492.092 65536
6833.4219 7228.6162 14532.266 0
6937.9673 7247.603 14570.437 0
7037.7837 7261.2422 14597.855 65536
7119.8345 7256.4429 14588.207 65536
7209.3911 7259.3159 14593.983 65536
7291.8232 7255.0327 14585.372 65536
7366.187 7242.9165 14561.015 65536
7439.9834 7230.5308 14536.114 65536
7511.1709 7215.9229 14506.747 65536
7591.8364 7210.6489 14496.144 0
7703.6606 7234.7549 14544.606 0
7795.603 7239.8628 14554.874 0
7879.3418 7237.3218 14549.767 0
7981.5088 7251.5791 14578.43 0
8064.7192 7248.4922 14572.224 0
8171.9634 7266.8433 14609.115 0
8268.9062 7275.7432 14627.009 0
8379.7705 7296.5815 14668.901 0
8470.918 7299.999 14675.771 0
8560.4922 7302.0039 14679.803 0
8649.6943 7303.6548 14683.121 0
8757.2803 7320.6401 14717.269 0
8864.5537 7337.0317 14750.222 0
8956.1719 7340.271 14756.733 0
9181.4268 7451.9106 14981.172 0
8980.7188 7219.0029 14512.939 0
8971.6475 7143.105 14360.355 0
9084.9453 7165.1479 14404.67 0
9198.9893 7187.3628 14449.33 0
9215.873 7133.9561 14341.962 65536
9259.1025 7101.7349 14277.185 65536
9523.7939 7238.417 14551.968 0
9631.1582 7254.1406 14583.579 0
9765.9258 7290.04 14655.751 0
9875.5088 7306.6724 14689.188 0
9980.6631 7319.7642 14715.508 0
10067.021 7318.9634 14713.896 0
10160.117 7323.0332 14722.079 0
10276.218 7343.4727 14763.171 0
10542.165 7469.7417 15017.019 0
10505.372 7381.1812 14838.979 0
10608.619 7391.6704 14860.065 0
10908.009 7537.5225 15153.283 0
11197.206 7673.9995 15427.655 0
11413.982 7759.0303 15598.599 0
12165.574 8203.3193 16491.789 0
12547.693 8393.3604 16873.844 0
12811.056 8501.5791 17091.404 0
12965.026 8536.0723 17160.75 0
13310.926 8695.4062 17481.07 0
13590.48 8809.2676 17709.975 0
13959.691 8979.0459 18051.293 0
14230.344 9083.3252 18260.934 0
14527.966 9203.1094 18501.746 0
14855.333 9339.7939 18776.535 0
15139.63 9447.5645 18993.195 0
15465.026 9579.1982 19257.828 0
0 0 0 0
0 0 0 0
0 0 0 0
0 0 0 0
0 0 0 0
0 0 0 0
0 0 0 0
0 0 0 0
0 0 0 0
0 0 0 0
0 0 0 0
0 0 0 0
0 0 0 0
0 0 0 0
0 0 0 0
0 0 0 0
0 0 0 0
0 0 0 0
0 0 0 0
0 0 0 0
0 0 0 0
0 0 0 0
0 0 0 0
0 0 0 0
0 0 0 0
0 0 0 0
0 0 0 0
0 0 0 0
0 0 0 0
0 0 0 0
-12509.57 6884.9868 13678.01 0
-10263.228 5685.5981 11295.253 0
-11285.44 6293.0439 12502.03 0
-11223.518 6299.9937 12515.837 0
-11062.614 6251.106 12418.715 0
-10913.539 6208.29 12333.654 0
-10836.639 6206.229 12329.561 0
-10760.087 6204.3423 12325.812 0
-10689.546 6205.9185 12328.943 0
-10619.456 6207.7808 12332.643 0
-10549.158 6209.5464 12336.15 0
-10479.475 6211.7002 12340.43 0
-10410.121 6214.082 12345.161 0
-10340.811 6216.5239 12350.013 0
-10271.627 6219.0767 12355.084 0
-10202.884 6221.9351 12360.763 0
-10134.282 6224.9224 12366.697 0
-10067.635 6229.1616 12375.119 0
-10001.983 6234.0845 12384.899 0
-9936.083 6238.9238 12394.513 0
-9870.3486 6243.9409 12404.479 0
-9807.2891 6250.7383 12417.984 0
-9744.5107 6257.8193 12432.051 0
-9680.6367 6264.2988 12444.924 0
-9618.918 6272.2847 12460.788 0
-9553.8418 6278.186 12472.514 0
-9488.2109 6283.8145 12483.694 0
-9424.1318 6290.5664 12497.108 0
-9361.7285 6298.5542 12512.977 0
-9299.7373 6306.9482 12529.653 0
-9237.8125 6315.5229 12546.688 0
-9174.4004 6323.2129 12561.966 0
-9111.8604 6331.6348 12578.697 0
-9050.6465 6341.1255 12597.552 0
-8990.5684 6351.5771 12618.314 0
-8930.6709 6362.333 12639.683 0
-8871 6373.4336 12661.735 0
-8812.9287 6385.8833 12686.469 0
-8755.1826 6398.7866 12712.103 0
-8698.8906 6412.9849 12740.311 0
-8643.7129 6428.2617 12770.66 0
-8587.8701 6443.311 12800.558 0
-8532.8623 6459.2612 12832.245 0
-8482.3662 6478.9443 12871.349 0
-8429.666 6497.2876 12907.79 0
-8374.6475 6514.1646 12941.318 0
-8316.2285 6528.6851 12970.164 0
-8259.8291 6545.0771 13002.73 0
-8202.2637 6560.8467 13034.059 0
-8147.3037 6579.02 13070.162 0
-8091.2202 6596.6279 13105.143 0
-8037.5674 6616.5781 13144.777 0
-7982.2036 6635.4985 13182.365 0
-7928.8428 6656.4751 13224.038 0
-7875.8555 6678.189 13267.176 0
-7816.6187 6694.9893 13300.553 0
-7763.3301 6717.2793 13344.834 0
-7710.8096 6740.7002 13391.364 0
-7656.6763 6763.186 13436.035 0
-7610.2256 6793.0034 13495.271 0
-7555.5107 6816.0005 13540.958 0
-7500.6187 6839.3315 13587.309 0
-7442.0127 6859.7471 13627.866 0
-7387.7261 6884.6362 13677.313 0
-7327.8232 6904.7881 13717.348 0
-7278.5513 6935.5225 13778.406 0
-7232.1602 6969.7329 13846.37 0
-7186.4712 7005.416 13917.259 0
-7134.2441 7035.4819 13976.989 0
-7084.9829 7069.2148 14044.005 65536
-7035.4106 7103.4399 14111.997 65536
-6989.2271 7141.9517 14188.507 65536
-6940.8916 7179.1797 14262.465 65536
-6890.3027 7214.9673 14333.562 0
-6844.7715 7257.0137 14417.094 0
-6785.9121 7285.8164 14474.314 0
-6726.7036 7314.979 14532.251 0
-6667.0454 7344.4043 14590.709 0
-6607.5005 7374.7324 14650.959 0
-6553.6567 7412.3184 14725.629 0
-6491.6387 7441.5513 14783.705 0
-6429.6704 7471.6455 14843.49 0
-6358.5552 7491.7988 14883.527 0
-6300.272 7527.8516 14955.152 0
-6242.9194 7566.0669 15031.071 256
-6189.5825 7610.3276 15119.002 256
-6126.606 7643.8652 15185.629 0
-6086.1035 7706.8647 15310.787 256
-6009.0225 7724.7549 15346.328 0
-5940.3706 7754.1987 15404.823 0
-5865.3955 7776.1812 15448.494 0
-5795.3701 7805.5303 15506.8 0
-5721.7441 7830.8994 15557.2 0
-5653.0811 7864.0054 15622.97 0
-5580.8701 7893.1997 15680.968 0
-5515.4302 7933.125 15760.285 0
-5438.498 7957.6143 15808.937 0
-5364.1616 7986.8286 15866.977 0
-5285.7944 8010.9805 15914.957 0
-5204.418 8031.3691 15955.461 0
-5121.311 8049.7935 15992.064 0
-5036.709 8066.521 16025.295 0
-4953.8491 8086.7358 16065.455 0
-4869.3467 8105.0122 16101.765 0
-4783.8774 8122.3804 16136.268 0
-4695.73 8135.8179 16162.964 0
-4607.6719 8149.9751 16191.09 0
-4520.3701 8166.1025 16223.129 0
-4431.7466 8180.4937 16251.718 0
-4345.0215 8199.1084 16288.699 0
-4256.8013 8215.6846 16321.631 0
-4168.3315 8232.542 16355.121 0
-4084.0249 8258.624 16406.936 0
-3999.6611 8285.8623 16461.049 0
-3913.8643 8311.4238 16511.83 0
-3848.6606 8383.1553 16654.336 0
-3760.115 8406.4893 16700.691 0
-3672.1238 8432.3613 16752.09 0
-3579.7148 8449.249 16785.639 0
-3488.687 8470.457 16827.771 0
-3398.1702 8494.1943 16874.93 0
-3309.1033 8523.1104 16932.375 0
-3219.1841 8551.5762 16988.928 0
-3126.6182 8574.627 17034.721 0
-3032.8489 8595.8096 17076.803 0
-2937.4341 8613.6348 17112.215 0
-2841.8547 8632.2373 17149.172 0
-2748.2681 8658.5029 17201.352 0
-2650.9944 8674.7314 17233.594 0
-2552.821 8689.2041 17262.346 0
-2457.6377 8715.4922 17314.57 0
-2352.9268 8708.8135 17301.303 0
-2252.8657 8719.5215 17322.574 0
-2129.3967 8636.3184 17157.279 0
-2030.3932 8648.9609 17182.396 0
-1928.9692 8652.0879 17188.607 0
-1829.6899 8665.7207 17215.691 65536
-1735.8083 8708.0469 17299.779 65536
-1639.4091 8742.2783 17367.785 65536
-1539.0161 8758.3828 17399.777 65536
-1438.6349 8776.8789 17436.521 65536
-1336.1307 8784.2891 17451.244 65536
-1233.7704 8793.9707 17470.479 65536
-1131.3615 8805.0547 17492.498 65536
-1030.0187 8827.5186 17537.127 65536
-927.72278 8845.9531 17573.748 65536
-822.36279 8836.1406 17554.256 65536
-718.89294 8846.7383 17575.309 65536
-617.80994 8895.3047 17671.793 65536
-513.93707 8915.3721 17711.658 65536
-409.14807 8925.7871 17732.352 65536
-304.66962 8952.5566 17785.533 65536
-199.36453 8970.5771 17821.332 196608
-93.543724 8979.9375 17839.928 196608
