# .PCD v0.7 - Point Cloud Data file format
VERSION 0.7
FIELDS x y z rgb
SIZE 4 4 4 4
TYPE F F F U
COUNT 1 1 1 1
WIDTH 1637
HEIGHT 1
VIEWPOINT 0 0 0 1 0 0 0
POINTS 1637
DATA ascii
9804.2227 2424.5071 13290.715 2
9869.7715 2421.2092 13272.637 1
9901.3721 2409.7021 13209.556 260
9950.5342 2402.6162 13170.712 264458
10069.354 2412.3289 13223.955 67338
9227.2246 2193.458 12024.145 3754832
0 0 0 0
0 0 0 0
0 0 0 0
0 0 0 0
0 0 0 0
0 0 0 0
0 0 0 0
0 0 0 0
0 0 0 0
0 0 0 0
0 0 0 0
0 0 0 0
0 0 0 0
16503.875 3539.4568 19402.67 4018521
15902.472 3386.814 18565.908 2374211
0 0 0 0
0 0 0 0
0 0 0 0
0 0 0 0
0 0 0 0
0 0 0 0
0 0 0 0
0 0 0 0
12244.768 2454.5349 13455.321 2634037
12387.147 2466.9644 13523.457 1912114
13577.841 2686.6643 14727.813 3161668
14288.307 2809.1353 15399.178 1385002
15723.356 3071.5969 16837.945 4148564
14220.952 2760.5286 15132.724 1844782
13324.009 2570.1619 14089.168 528407
12532.048 2402.2971 13168.964 1712425
13336.861 2540.7063 13927.697 1777961
13583.369 2571.7051 14097.627 2239025
13280.342 2498.9192 13698.629 1383974
0 0 0 0
0 0 0 0
0 0 0 0
-10105.892 2095.0078 11122.096 0
-9853.0908 2056.0496 10915.271 0
-9791.4375 2056.7256 10918.861 0
-9725.8516 2056.5796 10918.086 0
-9713.5615 2067.7769 10977.53 0
-9682.5029 2075.103 11016.425 0
-10351.673 2233.6199 11857.968 0
-9628.3359 2091.7842 11104.982 65536
-9531.0068 2084.9309 11068.6 65536
-8755.3574 1928.5671 10238.486 65536
-8687.4316 1926.9977 10230.154 65536
-8623.627 1926.3269 10226.593 65536
-8565.2803 1926.8743 10229.499 65536
-8509.7842 1928.0752 10235.875 65536
-9152.9521 2088.731 11088.773 65536
-9098.9561 2091.4683 11103.306 65536
-8340.9961 1931.2517 10252.738 65536
-8936.3799 2084.3323 11065.422 65536
-8875.3623 2085.4478 11071.344 65536
-8806.7871 2084.791 11067.857 65536
-8743.876 2085.4756 11071.49 65536
-8693.917 2089.2827 11091.702 65536
-8644.1309 2093.1899 11112.445 65536
-8581.4727 2094.0166 11116.833 65536
-8518.1338 2094.6882 11120.399 65536
-8436.0645 2090.7288 11099.379 65536
-8372.1133 2091.2324 11102.053 65536
-8306.5908 2091.3484 11102.669 65536
-8241.2627 2091.5156 11103.557 65536
-8174.7881 2091.3921 11102.901 0
-8106.373 2090.7664 11099.579 0
-8035.187 2089.4097 11092.376 0
-7964.8442 2088.2517 11086.229 0
-7899.8481 2088.4878 11087.481 0
-7832.0278 2087.9749 11084.76 0
-7764.3389 2087.4888 11082.179 0
-7697.04 2087.1001 11080.115 0
-7629.3945 2086.6099 11077.512 0
-7562.9292 2086.4368 11076.593 0
-7510.5249 2090.1733 11096.431 65536
-7436.4565 2087.894 11084.33 65536
-7391.666 2093.8674 11116.043 65536
-7337.439 2097.2517 11134.009 65536
-7274.3267 2098.1345 11138.695 65536
-7215.5215 2100.2874 11150.125 0
-7154.7954 2101.9158 11158.77 0
-7093.8091 2103.4976 11167.167 0
-7044.5444 2108.6177 11194.349 0
-6983.5542 2110.2922 11203.239 0
-6916.8491 2110.2556 11203.044 0
-6850.9331 2110.4612 11204.136 0
-6790.5391 2112.3884 11214.367 0
-6721.7832 2111.7273 11210.857 0
-6652.8271 2110.9893 11206.939 0
-6586.7959 2111.1736 11207.918 0
-6516.2505 2109.9001 11201.158 0
-6448.3145 2109.4539 11198.789 0
-6376.3457 2107.6658 11189.295 65536
-6319.2778 2110.8169 11206.024 0
-6248.2095 2109.3088 11198.019 0
-6174.4116 2106.8369 11184.896 0
-6086.7749 2099.5378 11146.146 256
-5350.6455 1865.9293 9905.9512 5131854
-5910.5151 2084.1045 11064.212 856594
-6360.5483 2268.0237 12040.612 512
-6256.7554 2256.3999 11978.904 256
-5721.8018 2087.2278 11080.793 0
-6431.2192 2373.3293 12599.665 0
-6398.0776 2388.915 12682.407 0
-6364.2505 2404.6135 12765.748 0
-6347.7515 2427.3169 12886.277 0
-5429.1841 2101.4199 11156.138 65536
-5403.4517 2117.3184 11240.539 65536
-5395.9697 2140.8552 11365.493 65536
-5358.5298 2152.9524 11429.716 65536
-5361.2827 2181.7166 11582.42 0
-5354.1406 2207.1497 11717.44 0
-5328.4644 2225.512 11814.924 0
-5278.7852 2234.2058 11861.079 0
-5246.6353 2250.6545 11948.402 0
-5176.9399 2251.2278 11951.445 0
-5316.9502 2344.2773 12445.433 0
-5924.8062 2649.1389 14063.898 0
-5889.5356 2671.0515 14180.229 0
-5837.165 2685.7324 14258.168 0
-5783.8384 2700.3994 14336.033 0
-5728.231 2714.4241 14410.488 0
-5705.7661 2744.8186 14571.848 0
-5665.2773 2767.3452 14691.439 256
-5625.9946 2791.1758 14817.952 256
-5573.1572 2808.9326 14912.221 256
-5518.8833 2826.5273 15005.628 256
-5469.9561 2847.4834 15116.882 256
-5429.7871 2873.7751 15256.46 256
-5380.332 2895.9614 15374.244 256
-5362.2441 2936.0894 15587.277 256
-5326.9819 2968.0591 15757 0
-5250.4521 2977.7683 15808.545 0
-5200.8389 3003.375 15944.487 0
-5140.7939 3023.7966 16052.902 0
-5087.5957 3049.0935 16187.2 0
-5035.4619 3076.0161 16330.128 0
-5243.1689 3265.8455 17337.904 0
-4920.6699 3126.4126 16597.676 0
-4838.2031 3136.9023 16653.365 0
-4765.5542 3154.3286 16745.879 0
-4684.6943 3166.9478 16812.871 0
-4601.1152 3178.2385 16872.812 0
-4517.6025 3190.0793 16935.674 0
-4439.8696 3206.634 17023.561 0
-4372.6357 3231.7209 17156.742 0
-4274.2236 3234.4119 17171.029 0
-4200.6758 3256.5105 17288.348 0
-4119.2681 3273.4709 17378.389 0
-4025.8213 3281.491 17420.965 0
-3934.0972 3291.3755 17473.439 0
-3845.8652 3304.7966 17544.691 0
-3759.3149 3320.4514 17627.801 0
-3666.2451 3331.0803 17684.229 0
-3582.5227 3351.0801 17790.404 0
-3509.7195 3382.8208 17958.91 0
-3412.6975 3392.4773 18010.176 0
-3312.1147 3399.1047 18045.359 0
-3215.0513 3409.9084 18102.715 0
-3124.439 3428.5393 18201.623 0
-3034.0054 3448.7095 18308.705 0
-2950.4424 3478.4807 18466.756 0
-2907.5322 3560.333 18901.297 0
-2817.3347 3588.5325 19051.006 0
-2744.5459 3642.1965 19335.898 0
-2481.9534 3437.6604 18250.047 0
-2422.5703 3508.751 18627.455 0
-2376.4836 3606.8298 19148.143 0
-2320.7722 3699.4324 19639.756 0
-2222.2952 3730.0625 19802.367 0
-2113.8679 3746.4829 19889.541 0
0 0 0 0
-1847.4867 3686.6965 19572.145 0
0 0 0 0
0 0 0 0
0 0 0 0
0 0 0 0
0 0 0 0
0 0 0 0
-1053.083 3757.5759 19948.432 0
0 0 0 0
0 0 0 0
0 0 0 0
0 0 0 0
0 0 0 0
0 0 0 0
0 0 0 0
0 0 0 0
0 0 0 0
125.07661 3546.4893 18827.805 1711903
243.90317 3650.1472 19378.109 2831157
0 0 0 0
0 0 0 0
0 0 0 0
254.41699 1318.021 6997.1846 6517618
293.31372 1306.0432 6933.5967 3819592
339.88031 1326.9614 7044.6479 5464159
385.89624 1341.377 7121.1782 5332831
405.57715 1270.4498 6744.6362 1910311
0 0 0 0
0 0 0 0
0 0 0 0
1658.2274 3722.6018 19762.76 0
1756.2648 3681.8904 19546.627 0
1874.7461 3686.4302 19570.73 0
1996.0217 3695.6138 19619.484 0
2108.2253 3687.9143 19578.607 0
2228.1418 3693.8059 19609.887 0
2351.0095 3703.7615 19662.738 0
2464.4409 3698.6118 19635.4 0
2585.0405 3704.1997 19665.066 0
2715.8147 3723.2534 19766.219 0
2830.1748 3719.157 19744.471 0
2916.1208 3679.5337 19534.117 0
2951.8311 3581.9854 19016.246 0
3017.9849 3527.2109 18725.457 256
3246.3535 3659.1755 19426.039 256
3328.4893 3622.9089 19233.504 3685178
3428.8445 3608.2222 19155.535 1
3572.822 3638.9094 19318.449 2106147
3659.5745 3611.2161 19171.43 1185044
3797.3743 3634.0479 19292.639 66049
3927.7197 3648.6157 19369.979 256
4058.0229 3662.3162 19442.713 0
4135.208 3628.6467 19263.967 0
4258.8403 3636.4509 19305.396 0
4411.8203 3668.2473 19474.199 0
4540.1392 3678.4375 19528.297 512
4672.5303 3691.3364 19596.775 514
4851.5884 3739.5786 19852.887 6386291
4707.7749 3542.5713 18807.002 7571850
0 0 0 0
0 0 0 0
0 0 0 0
0 0 0 0
0 0 0 0
0 0 0 0
0 0 0 0
0 0 0 0
0 0 0 0
0 0 0 0
0 0 0 0
0 0 0 0
0 0 0 0
6669.8223 3766.8823 19997.838 5993850
6783.0518 3763.7612 19981.27 8164763
6453.3164 3519.186 18682.854 1120538
6510.6875 3490.4146 18530.111 857367
6642.6372 3501.9172 18591.176 260
6758.4092 3504.6541 18605.707 259
6923.459 3532.4453 18753.246 258
6978.3467 3504.04 18602.447 258
7073.0635 3496.2083 18560.869 256
7191.5649 3500.1934 18582.025 256
7314.5815 3506.2224 18614.033 256
7426.5215 3506.8413 18617.318 256
7523.5913 3500.5232 18583.775 256
7646.6416 3506.3008 18614.449 256
7647.4956 3456.6814 18351.025 0
7636.2637 3403.0706 18066.414 0
7702.7822 3385.1157 17971.094 0
7891.3184 3420.541 18159.162 0
8282.2002 3541.5352 18801.502 0
8279.0801 3493.0725 18544.221 0
8356.1104 3479.2554 18470.867 0
8445.2998 3470.7935 18425.945 0
8529.25 3460.4231 18370.891 256
8703.5811 3486.52 18509.434 256
8964.5391 3546.2332 18826.443 515
8898.8818 3476.863 18458.168 659731
9264.2412 3575.5334 18981.994 1319718
9461.3145 3607.6611 19152.557 3952468
9884.1582 3724.0891 19770.656 2899010
9531.7969 3549.1367 18841.857 858657
9094.6934 3347.0596 17769.061 857111
9250.1797 3365.2056 17865.393 593938
8834.7812 3177.6089 16869.471 6259848
10190.929 3624.2454 19240.6 6389893
10234.405 3599.3191 19108.27 6982032
9849.3623 3425.8882 18187.549 6982803
9100.083 3130.9065 16621.533 7310741
9201.2051 3131.7012 16625.752 7376275
8599.4053 2895.7759 15373.26 7310483
8416.8242 2804.4954 14888.664 7441298
8370.75 2760.1255 14653.11 8229530
8602.75 2807.416 14904.169 592655
8313.7109 2685.4399 14256.615 1452591
8666.4248 2771.1279 14711.521 3490113
8756.7422 2772.0403 14716.365 2107175
8858.5391 2776.5325 14740.213 1580317
8695.2744 2698.6724 14326.864 131844
8780.1641 2698.592 14326.438 2
8854.916 2695.428 14309.641 256
8932.3232 2693.1245 14297.412 256
8969.5801 2678.8733 14221.754 256
8996.9609 2661.9656 14131.994 256
9062.5781 2656.5796 14103.399 256
9138.4053 2654.2576 14091.073 256
9198.7207 2647.5134 14055.27 256
9244.8877 2636.855 13998.686 256
9300.7754 2629.1345 13957.699 256
11483.08 3217.3306 17080.348 256
11660.233 3238.3374 17191.869 256
9492.4531 2613.3899 13874.113 0
9544.5742 2605.1099 13830.154 256
9597.6982 2597.2422 13788.386 256
9664.8848 2593.281 13767.357 256
8923.6738 2374.2981 12604.809 256
8992.1475 2372.5989 12595.787 256
9089.0996 2378.3794 12626.475 256
9063.082 2352.1509 12487.231 256
9121.3379 2348.0425 12465.421 256
9843.1465 2513.4377 13343.48 256
9896.3545 2506.8271 13308.386 258
9991.0469 2510.7463 13329.192 772
9886.291 2464.8772 13085.68 1317659
9697.9688 2399.0513 12736.219 3952724
9502.0977 2332.3921 12382.336 4611681
0 0 0 0
0 0 0 0
0 0 0 0
0 0 0 0
0 0 0 0
0 0 0 0
0 0 0 0
0 0 0 0
0 0 0 0
0 0 0 0
0 0 0 0
0 0 0 0
0 0 0 0
0 0 0 0
16327.908 3590.7163 19062.6 133132
0 0 0 0
0 0 0 0
0 0 0 0
0 0 0 0
0 0 0 0
0 0 0 0
0 0 0 0
0 0 0 0
12807.965 2651.0789 14074.197 1121059
13571.842 2790.9639 14816.826 462612
13554.368 2769.4011 14702.354 4809060
14175.748 2877.8076 15277.869 1382174
15458.288 3118.2014 16554.086 1054752
15443.807 3095.5786 16433.982 593173
14137.327 2815.897 14949.193 133132
13878.196 2747.0186 14583.528 2371379
13112.277 2579.3057 13693.164 263686
12916.312 2525.0852 13405.315 2766910
12810.925 2489.1284 13214.426 3227720
0 0 0 0
0 0 0 0
0 0 0 0
-10174.327 2175.7449 11197.413 0
-9924.5303 2136.3003 10994.412 0
-9862.8711 2137.0984 10998.521 0
-9797.3594 2137.0674 10998.359 0
-9776.7539 2146.8965 11048.945 0
-9732.5391 2151.6394 11073.354 0
-9714.5801 2162.2908 11128.171 0
-9699.1172 2173.6477 11186.619 65536
-9656.1543 2178.9556 11213.937 65536
-8835.1143 2007.5404 10331.753 65536
-8762.1377 2004.8927 10318.127 65536
-8694.9902 2003.551 10311.222 65536
-8635.7988 2004.0365 10313.72 65536
-8578.9609 2005.079 10319.085 65536
-9220.4395 2170.5222 11170.534 65536
-9167.4619 2173.7024 11186.901 65536
-8404.3711 2007.3239 10330.639 65536
-9003.2109 2166.1777 11148.176 65536
-8941.8652 2167.3682 11154.302 65536
-8885.0566 2169.6843 11166.223 65536
-8818.6045 2169.6628 11166.111 65536
-8771.5645 2174.4531 11190.765 0
-8720.7646 2178.3777 11210.962 0
-8657.0713 2179.1169 11214.767 0
-8593.6357 2179.9333 11218.969 0
-8528.4961 2180.3264 11220.992 0
-8463.2031 2180.6865 11222.846 0
-8397.7148 2181.0015 11224.466 0
-8329.7656 2180.6772 11222.798 0
-8247.1484 2176.4773 11201.182 0
-8177.5156 2175.6628 11196.99 0
-8107.1504 2174.6387 11191.72 0
-8037.8159 2173.8767 11187.798 0
-7984.1514 2177.3748 11205.802 0
-7915.5015 2176.8113 11202.9 0
-7847.4297 2176.3982 11200.775 0
-7779.0532 2175.8928 11198.175 0
-7711.3022 2175.5552 11196.438 0
-7639.9849 2174.197 11189.447 0
-7570.9961 2173.4834 11185.774 65536
-7507.2817 2174.2847 11189.898 65536
-7449.0073 2176.6899 11202.276 65536
-7394.4365 2180.2302 11220.497 65536
-7336.1343 2182.7253 11233.338 65536
-7283.3828 2186.9326 11254.99 0
-7222.7539 2188.8306 11264.759 0
-7161.5703 2190.5947 11273.837 0
-7098.5508 2191.825 11280.169 0
-7050.0581 2197.6069 11309.926 0
-6998.7373 2202.6106 11335.676 0
-6929.9824 2202.1711 11333.414 0
-6854.6782 2199.6211 11320.292 0
-6782.8633 2198.1516 11312.729 0
-6714.6133 2197.8198 11311.021 0
-6645.0996 2197.0627 11307.125 0
-6578.4937 2197.2622 11308.151 0
-6505.8281 2195.4207 11298.673 0
-6428.3774 2191.9092 11280.602 65536
-6374.2642 2196.3645 11303.531 0
-6321.5586 2201.4053 11329.474 0
-6262.0078 2204.1453 11343.575 0
-6103.6768 2171.7971 11177.096 0
-5622.3623 2022.5494 10408.996 6843499
-5693.939 2071.0864 10658.791 0
-6504.7598 2392.6301 12313.607 256
-5665.0264 2107.4636 10846.006 256
-5746.0757 2162.2188 11127.801 0
-6002.9146 2285.168 11760.556 0
-6096.8872 2348.2839 12085.381 0
-5874.3804 2289.5564 11783.141 0
-5856.5801 2310.1592 11889.173 0
-5884.6895 2349.5957 12092.132 65536
-5896.0566 2383.24 12265.281 65536
-5855.5225 2396.4851 12333.446 65536
-5793.1177 2401.0015 12356.689 65536
-5718.9038 2400.6765 12355.018 0
-5601.4805 2381.969 12258.739 0
-5584.9971 2406.2573 12383.739 0
-5390.375 2353.4202 12111.813 0
-5304.6577 2347.3435 12080.54 0
-5309.5342 2381.7378 12257.551 0
-5626.604 2559.0811 13170.242 0
-5935.6611 2737.7324 14089.666 0
-5906.6577 2763.3398 14221.454 0
-5850.7935 2776.9419 14291.457 0
-5801.4717 2794.0959 14379.74 0
-5749.9521 2810.6885 14465.133 0
-5724.0161 2840.4805 14618.456 0
-5670.1357 2857.1096 14704.038 0
-5635.7368 2884.2297 14843.611 256
-5586.1743 2904.3289 14947.051 256
-5534.5625 2923.9946 15048.26 256
-5479.0581 2942.2163 15142.037 256
-5437.5034 2968.6624 15278.142 256
-5387.8745 2991.5237 15395.797 256
-5341.334 3016.9194 15526.494 256
-5312.5103 3053.3909 15714.194 0
-5243.0762 3067.4087 15786.337 0
-5192.1992 3092.9919 15918 0
-5146.4521 3122.6375 16070.57 0
-5086.0146 3144.3223 16182.17 0
-5018.2856 3162.248 16274.425 0
-4977.0884 3197.926 16458.041 0
-4902.1636 3212.9292 16535.254 0
-4825.0356 3227.072 16608.041 0
-4746.998 3241.1853 16680.674 0
-4670.7998 3257.1833 16763.006 0
-4611.5073 3285.9243 16910.922 0
-4609.8184 3357.9062 17281.375 0
-4445.1489 3311.7444 17043.803 0
-4357.9067 3322.4597 17098.951 0
-4267.9692 3331.5833 17145.904 0
-4189.4712 3350.3008 17242.232 0
-4110.3101 3369.4133 17340.596 0
-4019.8667 3380.0229 17395.197 0
-3934.3291 3395.4258 17474.469 0
-3845.031 3408.3315 17540.887 0
-3758.3596 3424.3489 17623.32 0
-3664.4021 3434.4563 17675.338 0
-3576.7908 3451.2837 17761.939 0
-3495.7759 3475.6934 17887.562 0
-3400.1353 3486.6362 17943.879 0
-3308.8489 3502.8972 18027.566 0
-3218.9089 3521.7197 18124.436 0
-3151.1692 3566.9749 18357.342 0
-3054.1865 3581.188 18430.488 0
-2962.6602 3603.0938 18543.227 0
-2888.925 3649.1663 18780.336 0
-2809.9998 3692.1218 19001.406 0
-2738.5825 3748.9531 19293.887 0
-2633.3186 3762.3921 19363.051 0
-2447.2173 3656.2842 18816.969 0
0 0 0 0
0 0 0 0
-2226.5762 3855.167 19840.514 0
-2120.8867 3877.5259 19955.584 0
-2004.9797 3882.7468 19982.453 0
-1856.5533 3821.6841 19668.195 0
0 0 0 0
0 0 0 0
0 0 0 0
0 0 0 0
0 0 0 0
0 0 0 0
0 0 0 0
0 0 0 0
0 0 0 0
0 0 0 0
0 0 0 0
0 0 0 0
0 0 0 0
0 0 0 0
0 0 0 0
0 0 0 0
126.29562 3694.0447 19011.303 3028277
0 0 0 0
339.33673 3558.3496 18312.951 5727076
0 0 0 0
0 0 0 0
0 0 0 0
0 0 0 0
0 0 0 0
384.78009 1379.6984 7100.5811 3029562
0 0 0 0
0 0 0 0
1284.2749 3464.9368 17832.203 6515563
1449.5065 3612.6016 18592.158 1119251
1677.2596 3884.1331 19989.586 256
1759.6909 3805.4722 19584.76 0
1877.4181 3808.166 19598.625 0
1994.4404 3809.199 19603.941 0
2114.2117 3815.0784 19634.199 0
2236.0198 3823.8267 19679.221 0
2348.1267 3815.9387 19638.627 0
2457.9648 3805.2859 19583.803 0
2568.1338 3796.0857 19536.453 0
2701.9712 3821.1533 19665.463 0
2817.7681 3819.6868 19657.916 0
2909.2656 3786.709 19488.197 65536
3014.5627 3773.5308 19420.375 0
3101.1394 3738.7546 19241.4 0
3253.2146 3782.6089 19467.096 0
3322.708 3730.7285 19200.096 256
3394.7947 3685.1089 18965.314 258
3572.5852 3753.4763 19317.166 263173
3686.0532 3752.1121 19310.145 2
3831.6411 3782.5378 19466.73 1
3960.6736 3795.3164 19532.494 2303268
4058.9146 3778.7012 19446.984 256
4164.8271 3769.9502 19401.947 0
4254.8633 3747.6868 19287.369 0
4375.5669 3752.895 19314.174 256
4541.2188 3795.4031 19532.939 513
4643.2515 3783.9465 19473.979 660756
4542.2661 3611.624 18587.127 5794408
4834.501 3752.717 19313.258 6322296
0 0 0 0
0 0 0 0
0 0 0 0
0 0 0 0
0 0 0 0
0 0 0 0
0 0 0 0
0 0 0 0
0 0 0 0
0 0 0 0
0 0 0 0
0 0 0 0
0 0 0 0
5506.6021 3208.062 16510.205 264
5856.1733 3351.9856 17250.904 518
6361.0884 3578.343 18415.848 1977135
6518.5454 3604.8909 18552.475 6911864
6773.3271 3683.4827 18956.945 2
6814.9883 3645.5 18761.469 3
6989.2539 3678.5312 18931.463 2
7008.6377 3630.291 18683.195 1
7107.0049 3623.8286 18649.938 256
7229.8413 3629.8503 18680.928 256
7351.373 3635.0449 18707.66 256
7462.2261 3634.8821 18706.824 256
7575.0874 3635.6885 18710.975 256
7690.4556 3637.6577 18721.107 256
7838.6812 3654.8909 18809.797 0
7998.9688 3677.1836 18924.527 0
8296.2246 3760.9509 19355.633 0
8406.5801 3758.8574 19344.859 0
8483.6631 3742.1443 19258.846 0
8339.2109 3629.4578 18678.906 0
8417.3027 3615.3162 18606.129 0
8515.4736 3610.0549 18579.051 0
8611.8721 3604.1858 18548.846 0
8930.6719 3690.3669 18992.375 256
8723.2217 3559.6516 18319.652 258
8947.1797 3606.032 18558.348 5
8852.1318 3524.2781 18137.602 516
8894.4141 3498.5081 18004.979 133130
9038.2324 3512.8145 18078.605 2568246
9287.6914 3567.3601 18359.324 66315
8992.3145 3413.8005 17569.033 264206
9225.6465 3462.1785 17818.01 2242621
8868.3877 3290.3386 16933.641 1253154
9392.0957 3445.5425 17732.393 6718602
9750.7031 3537.406 18205.166 6588044
9553.748 3427.9155 17641.676 7048340
9277.5039 3292.6621 16945.598 7310741
9347.9287 3282.0281 16890.869 7376274
8336.3975 2895.7844 14903.077 7507348
8409.1582 2890.3491 14875.104 7310225
8382.3613 2851.1636 14673.437 7637905
8489.1348 2857.7495 14707.331 8229013
8311.2109 2769.3389 14252.328 1185820
8652.5381 2853.9832 14687.947 262
8729.4893 2850.6052 14670.563 1184276
8110.6279 2622.3245 13495.723 131845
8822.9072 2824.6836 14537.159 592394
8775.3262 2782.2053 14318.545 257
9205.5518 2890.5762 14876.272 257
8971.9268 2790.416 14360.802 256
8968.0635 2762.9307 14219.349 256
9002.7539 2747.7251 14141.093 256
9065.7822 2741.3696 14108.386 256
9145.2793 2740.0654 14101.673 256
9211.4492 2734.8276 14074.718 256
9256.3818 2723.4358 14016.09 256
9327.6777 2719.9348 13998.072 256
11424.823 3302.0076 16993.693 256
11597.144 3322.4402 17098.85 256
9484.1094 2693.479 13861.917 0
9542.4277 2686.7029 13827.044 256
9608.5752 2682.2275 13804.013 256
9657.0762 2672.9438 13756.233 256
9698.9248 2661.9902 13699.861 256
8949.3242 2435.8042 12535.802 256
9039.4443 2440.0193 12557.494 256
8988.7549 2406.468 12384.823 256
8979.4307 2384.446 12271.487 256
9853.6768 2595.5164 13357.755 256
9912.4814 2590.1375 13330.073 258
9975.7695 2586.0061 13308.812 514
9974.4307 2565.3184 13202.342 66308
9748.7891 2487.7153 12802.961 1252383
9515.1348 2409.2859 12399.325 725522
0 0 0 0
0 0 0 0
0 0 0 0
0 0 0 0
0 0 0 0
0 0 0 0
0 0 0 0
0 0 0 0
0 0 0 0
0 0 0 0
0 0 0 0
0 0 0 0
0 0 0 0
0 0 0 0
16264.942 3689.7285 18989.088 2043444
0 0 0 0
0 0 0 0
0 0 0 0
0 0 0 0
0 0 0 0
0 0 0 0
15984.021 3458.0393 17796.707 2503484
13626.304 2928.583 15071.874 989728
13660.539 2916.7666 15011.061 1648172
14039.554 2978.2419 15327.442 773
15097.291 3181.9758 16375.953 6651260
16084.094 3368.2446 17334.582 2435118
14701.945 3059.207 15744.128 1289
14620.545 3023.0288 15557.937 517
14701.143 3020.5903 15545.387 6
14773.317 3016.4622 15524.142 260
14430.164 2928.1089 15069.434 2057
14313.99 2886.6191 14855.908 1252642
13537.974 2713.3872 13964.375 3490887
0 0 0 0
0 0 0 0
0 0 0 0
-10243.169 2257.467 11273.178 0
-9993.7832 2217.0068 11071.131 0
-9929.2441 2217.2883 11072.536 0
-9865.5293 2217.7588 11074.886 0
-9854.8447 2230.2366 11137.197 0
-9802.3145 2233.3496 11152.742 0
-9782.9492 2244.1123 11206.488 0
-10421.122 2406.8896 12019.354 65536
-9706.3057 2257.2671 11272.179 0
-8945.7812 2094.8608 10461.167 0
-8843.7041 2085.4512 10414.178 0
-8777.2598 2084.3711 10408.783 0
-8713.9014 2084.0132 10406.997 0
-8694.0098 2094.1204 10457.469 0
-9280.9697 2251.5977 11243.867 65536
-9239.7002 2257.8423 11275.053 65536
-8467.2646 2084.2034 10407.946 65536
-9070.1406 2249.0308 11231.05 65536
-9000.4648 2248.3 11227.4 65536
-8954.2949 2253.4736 11253.236 65536
-8893.9473 2255.1306 11261.511 65536
-8845.7266 2259.9109 11285.382 65536
-8785.1299 2261.5779 11293.707 65536
-8722.5312 2262.7515 11299.566 0
-8674.4854 2267.7478 11324.517 0
-8608.5635 2268.1123 11326.338 0
-8545.0742 2269.1284 11331.412 0
-8479.2568 2269.5378 11333.456 0
-8411.7998 2269.5112 11333.323 0
-8343.8613 2269.3533 11332.535 0
-8276.2812 2269.291 11332.225 0
-8206.5479 2268.6326 11328.936 0
-8141.7852 2269.3486 11332.512 0
-8055.9795 2264.1626 11306.613 0
-7988.8013 2264.1682 11306.643 0
-7918.6504 2263.325 11302.431 0
-7848.2002 2262.3804 11297.715 0
-7774.4229 2260.4524 11288.086 0
-7705.7842 2259.998 11285.816 0
-7637.4702 2259.6313 11283.986 65536
-7572.083 2260.1323 11286.487 65536
-7510.2905 2261.7246 11294.438 65536
-7449.9658 2263.791 11304.759 65536
-7398.127 2268.4978 11328.263 65536
-7338.8228 2270.981 11340.662 0
-7285.459 2275.3647 11362.555 0
-7226.0718 2277.9324 11375.376 0
-7165.2046 2280.0771 11386.087 0
-7117.001 2286.3313 11417.318 0
-7069.4565 2292.9194 11450.218 0
-7017.5444 2298.2053 11476.614 0
-6960.7964 2301.9958 11495.543 0
-6863.2363 2292.2307 11446.778 0
-6797.2095 2292.9072 11450.156 0
-6734.0146 2294.5625 11458.422 0
-6672.9438 2296.9822 11470.507 0
-6609.2061 2298.5249 11478.21 0
-6536.9575 2297.1089 11471.139 65536
-6474.6865 2299.2061 11481.611 0
-6483.6416 2326.9104 11619.959 65536
-6437.0972 2335.0784 11660.748 0
-6137.604 2250.6677 11239.224 0
-5569.6265 2064.8623 10311.362 855565
-6113.9932 2291.8972 11445.113 0
-6254.2407 2370.8479 11839.371 0
-6115.0996 2344.4797 11707.696 0
-6088.9531 2361.3245 11791.814 0
-6055.4492 2375.6753 11863.479 0
-6080.6533 2413.6677 12053.202 0
-6094.7588 2448.1079 12225.188 0
-6083.3442 2473.0051 12349.517 0
-6033.3369 2482.6296 12397.579 65536
-6023.3423 2509.1606 12530.067 65536
-5983.8799 2523.9268 12603.805 65536
-5960.0835 2545.7585 12712.827 65536
-5918.2891 2560.3645 12785.766 0
-5948.3774 2606.853 13017.917 0
-5940.6152 2637.7603 13172.26 0
-5809.1143 2613.8169 13052.692 0
-5922.7676 2701.0256 13488.189 0
-5864.3159 2711.0637 13538.316 0
-5994.5635 2809.8301 14031.528 0
-5964.7842 2835.3154 14158.796 0
-5929.8281 2859.0342 14277.241 0
-5868.0605 2870.3271 14333.635 0
-5819.4746 2888.4954 14424.362 0
-5793.3271 2918.5107 14574.251 0
-5744.4902 2937.8337 14670.744 0
-5696.7759 2958.335 14773.123 256
-5651.7788 2980.9114 14885.863 256
-5605.9634 3003.7673 15000 256
-5546.1533 3019.7427 15079.775 256
-5491.3047 3038.988 15175.882 256
-5432.0825 3056.4153 15262.909 256
-5386.4453 3082.2085 15391.713 256
-5333.8242 3104.8271 15504.665 256
-5289.1528 3132.95 15645.103 0
-5249.7842 3165.2769 15806.534 0
-5190.1938 3186.3669 15911.853 0
-5132.1021 3209.1775 16025.761 0
-5094.3374 3245.801 16208.65 0
-5014.5815 3256.5671 16262.413 0
-4945.9077 3275.0942 16354.934 0
-4891.8267 3304.2214 16500.387 0
-4829.6123 3328.9343 16623.795 0
-4752.3887 3344.1174 16699.615 0
-4674.4424 3359.4292 16776.078 0
-4593.147 3372.949 16843.592 0
-4565.9683 3427.6968 17116.988 0
-4450.1338 3416.8687 17062.916 0
-4402.144 3458.8425 17272.521 0
-4279.751 3442.9653 17193.234 0
-4186.9385 3450.6897 17231.809 0
-4103.3193 3466.5684 17311.104 0
-4023.3079 3486.3904 17410.088 0
-3934.8914 3499.783 17476.967 0
-3846.5088 3513.9329 17547.627 0
-3761.6589 3532.1885 17638.791 0
-3675.2585 3549.9937 17727.705 0
-3583.478 3563.4993 17795.148 0
-3495.4231 3581.6436 17885.756 0
-3400.7607 3593.9436 17947.18 0
-3308.3242 3609.4688 18024.707 0
-3227.5415 3639.1729 18173.043 0
-3151.9597 3677.0015 18361.947 0
-3083.6611 3726.3447 18608.354 0
-2979.8494 3734.8474 18650.814 0
-2900.6665 3776.0688 18856.664 0
-2792.2532 3781.0227 18881.402 0
-2726.5959 3846.7122 19209.438 0
-2657.926 3913.707 19543.992 0
-2544.8354 3918.428 19567.566 0
-2406.0474 3882.1387 19386.348 0
-2350.6636 3983.5391 19892.715 0
-2233.2197 3984.9412 19899.715 0
-2122.9443 4000.0056 19974.943 0
-1977.7294 3947.1233 19710.863 0
0 0 0 0
0 0 0 0
0 0 0 0
0 0 0 0
0 0 0 0
0 0 0 0
0 0 0 0
0 0 0 0
0 0 0 0
0 0 0 0
0 0 0 0
0 0 0 0
0 0 0 0
0 0 0 0
0 0 0 0
0 0 0 0
13.869697 3968.6475 19818.348 256
132.71507 4000.5427 19977.625 257
248.99449 3961.4912 19782.613 1316631
343.06622 3707.4941 18514.221 1119510
452.35202 3701.3525 18483.551 2435371
561.14752 3694.3828 18448.746 1
0 0 0 0
0 0 0 0
0 0 0 0
0 0 0 0
0 0 0 0
0 0 0 0
1348.434 3749.3135 18723.055 7175801
1483.8269 3811.2546 19032.371 6582893
0 0 0 0
1785.9285 3980.3477 19876.775 256
1869.9299 3908.9941 19520.455 256
1987.3536 3911.7629 19534.283 256
2123.5991 3949.229 19721.379 329221
2207.7349 3890.9368 19430.283 0
2304.7319 3859.9805 19275.695 0
2448.1245 3905.9792 19505.4 0
2562.8481 3904.1458 19496.244 0
2623.2463 3823.293 19092.488 65793
2795.4609 3905.3567 19502.293 0
2908.2339 3901.1504 19481.287 0
3009.939 3882.9875 19390.586 0
3095.5986 3846.2285 19207.021 256
3217.5137 3855.5288 19253.465 394758
3340.2192 3865.1042 19301.283 0
3433.334 3840.9409 19180.617 197379
3588.2888 3885.2886 19402.078 657930
3671.5322 3851.6453 19234.072 257
3831.241 3897.8286 19464.699 256
0 0 0 0
4079.9885 3914.5005 19547.953 256
4142.6431 3864.5679 19298.604 256
4246.5254 3854.7495 19249.574 0
4370.1392 3862.8882 19290.215 256
4501.8618 3877.5942 19363.654 768
4706.3184 3952.6543 19738.482 2173994
4676.0229 3831.6995 19134.467 592909
4964.7441 3971.6946 19833.564 1846058
5083.9985 3972.7698 19838.936 4281683
0 0 0 0
0 0 0 0
0 0 0 0
0 0 0 0
0 0 0 0
0 0 0 0
0 0 0 0
0 0 0 0
0 0 0 0
0 0 0 0
0 0 0 0
0 0 0 0
5818.0781 3493.2 17444.092 132101
6066.1904 3578.4014 17869.566 260
6206.0542 3597.9146 17967.01 263
6105.8525 3479.9458 17377.906 1185561
6795.1846 3808.4006 19018.119 3489344
6994.2358 3855.8228 19254.932 259
6994.812 3794.062 18946.516 2
7039.1802 3757.6355 18764.613 1
7148.5859 3756.5227 18759.055 256
7278.6943 3766.155 18807.156 256
7414.1689 3778.2312 18867.461 256
7524.1855 3777.1672 18862.148 256
7632.4155 3775.2505 18852.578 256
7750.2769 3778.0852 18866.732 256
7885.5869 3789.2229 18922.352 0
8243.3164 3905.4224 19502.621 0
8402.7598 3925.7612 19604.188 0
8519.3896 3925.8145 19604.453 0
8350.6816 3796.1541 18956.963 0
8405.3291 3770.1289 18827.002 0
8481.0342 3754.1096 18747.006 0
8560.8867 3740.3179 18678.133 0
8772.8516 3783.8611 18895.576 0
8979.0273 3823.8379 19095.209 1381910
8832.3271 3714.4155 18548.783 1
9218.7393 3829.127 19121.621 257
9122.6904 3743.0879 18691.965 257
8743.2773 3544.252 17699.033 3
8973.6035 3594.3745 17949.332 4
8823.1504 3492.5903 17441.049 4
8856.7412 3465.1765 17304.152 517
9162.3252 3543.5876 17695.715 520
9267.8115 3543.7075 17696.314 1846576
9011.0225 3406.8574 17012.922 6981258
9720.4834 3634.3071 18148.744 7376532
10002.706 3698.781 18470.709 7179667
9122.0371 3336.5115 16661.633 7179666
8463.8398 3062.5212 15293.399 7245459
8285.833 2966.2566 14812.681 5862779
7902.7812 2799.3843 13979.365 6454146
8165.938 2862.5073 14294.585 5663604
8640.5254 2997.6826 14969.613 5203820
8111.0591 2785.3135 13909.1 5792359
8705.0713 2959.1365 14777.125 259
8652.3623 2911.8413 14540.946 260
8681.6689 2892.8103 14445.909 4
8754.0088 2888.3506 14423.639 4
8768.6191 2865.114 14307.603 4
8980.7988 2906.259 14513.069 2
8897.3818 2851.8735 14241.483 2
9000.2988 2857.676 14270.459 256
9010.1348 2834.092 14152.687 256
9071.5195 2827.0088 14117.315 256
9152.9238 2826.2368 14113.46 256
9217.0625 2820.1963 14083.295 256
9257.0029 2806.9268 14017.031 256
9315.9521 2799.6064 13980.476 256
11391.433 3393.0613 16944.027 256
11475.862 3388.2563 16920.033 256
9481.1738 2775.0059 13857.627 0
9526.75 2764.3323 13804.326 256
9591.6807 2759.4089 13779.74 256
9646.6758 2751.7351 13741.419 256
9681.541 2738.4961 13675.307 256
8937.2832 2506.9314 12518.936 256
9020.2197 2509.3049 12530.788 256
9051.9131 2497.501 12471.843 256
8938.8066 2446.2622 12215.97 256
9862.1533 2677.207 13369.246 256
9916.293 2670.3892 13335.199 256
9945.8877 2657.1216 13268.945 258
10005.242 2651.9512 13243.125 513
9860.4658 2593.1775 12949.625 1187102
9244.1494 2412.2656 12046.2 594452
0 0 0 0
0 0 0 0
0 0 0 0
0 0 0 0
0 0 0 0
0 0 0 0
0 0 0 0
0 0 0 0
0 0 0 0
0 0 0 0
0 0 0 0
0 0 0 0
0 0 0 0
16725.16 3937.5027 19662.82 1450537
16913.359 3954.1807 19746.105 4016464
0 0 0 0
0 0 0 0
0 0 0 0
0 0 0 0
0 0 0 0
0 0 0 0
17465.229 3894.0625 19445.893 132360
16543.273 3664.2549 18298.295 4805722
15615.153 3436.0925 17158.914 923163
14679.046 3209.1443 16025.597 262
14291.577 3104.2935 15501.999 1580580
13933.222 3007.0691 15016.486 2304045
13902.138 2981.2642 14887.624 922136
14076.189 2999.498 14978.68 1120028
14709.729 3114.7998 15554.465 6
15206.475 3199.876 15979.313 5
15088.476 3155.3394 15756.909 198670
14991.517 3115.7251 15559.086 922907
14862.866 3070.05 15330.997 857627
0 0 0 0
0 0 0 0
0 0 0 0
-10318.139 2341.48 11355.686 0
-10066.751 2299.4741 11151.965 0
-10001.554 2299.7229 11153.172 0
-9937.8994 2300.3323 11156.128 0
-9926.5879 2313.147 11218.276 0
-9872.5557 2316.1128 11232.66 0
-9851.9463 2327.0134 11285.525 0
-9831.3545 2338.0674 11339.136 65536
-9766.6768 2338.7178 11342.289 65536
-9045.9707 2181.1931 10578.328 65536
-8934.9717 2169.5071 10521.653 65536
-8866.2158 2167.9856 10514.274 65536
-8840.7471 2177.1023 10558.488 65536
-8779.9561 2177.5891 10560.849 65536
-8721.8389 2178.7505 10566.481 65536
-9310.1943 2342.5916 11361.076 65536
-8545.0762 2165.7832 10503.593 65536
-9143.7676 2334.5793 11322.219 65536
-9080.6611 2335.6558 11327.439 0
-9035.3906 2341.3704 11355.153 0
-8969.0361 2341.6663 11356.589 0
-8933.1582 2349.9836 11396.926 0
-8872.5576 2351.8752 11406.1 0
-8807.7617 2352.675 11409.979 0
-8743.0322 2353.5051 11414.005 0
-8677.2568 2354.0645 11416.718 0
-8618.5459 2356.5645 11428.842 0
-8552.8691 2357.1843 11431.848 0
-8484.875 2357.1702 11431.779 0
-8417.6787 2357.3792 11432.793 0
-8350.3701 2357.5601 11433.67 0
-8282.3936 2357.5535 11433.639 0
-8213.6074 2357.3149 11432.481 0
-8145.9561 2357.4004 11432.896 0
-8080.9121 2358.2483 11437.008 0
-8005.9731 2356.1985 11427.067 0
-7936.9175 2355.8599 11425.425 0
-7854.0532 2351.3813 11403.705 0
-7786.0278 2351.3062 11403.34 0
-7718.8589 2351.4905 11404.234 65536
-7652.2305 2351.8442 11405.95 65536
-7587.5317 2352.8025 11410.598 65536
-7524.314 2354.2417 11417.577 65536
-7466.7871 2357.5037 11433.397 65536
-7408.0957 2360.4548 11447.709 0
-7362.751 2367.7522 11483.101 0
-7322.0596 2376.6973 11526.481 0
-7266.7036 2381.0059 11547.377 0
-7218.021 2387.604 11579.377 0
-7171.6167 2395.0903 11615.685 0
-7116.042 2399.6299 11637.699 0
-7059.231 2403.8372 11658.104 0
-7002.4727 2408.146 11679.002 0
-6935.4043 2408.9602 11682.95 0
-6838.5732 2399.3486 11636.336 0
-6779.1284 2402.7917 11653.034 0
-6723.7104 2407.7476 11677.069 0
-6669.2881 2413.1675 11703.354 65536
-6636.9741 2426.7852 11769.397 0
-6616.3433 2445.0103 11857.786 0
-6562.7314 2451.3091 11888.333 0
-6447.7061 2434.5559 11807.085 0
-6421.8223 2451.4631 11889.081 0
-6554.647 2530.0059 12269.997 0
-6523.0122 2546.1226 12348.159 0
-6496.4028 2564.5901 12437.723 0
-6468.4668 2582.9529 12526.778 0
-6444.6333 2603.4004 12625.944 0
-6412.0239 2620.7429 12710.052 0
-6378.1621 2637.9812 12793.653 0
-6340.5503 2654.0652 12871.658 0
-6310.3853 2673.6978 12966.871 65536
-6283.1558 2695.0745 13070.544 65536
-6250.7207 2714.7256 13165.849 65536
-6228.5557 2739.3923 13285.477 65536
-6194.9912 2759.6143 13383.549 0
-6169.7271 2784.1079 13502.338 0
-6141.2993 2807.8005 13617.242 0
-6104.7954 2828.3843 13717.068 0
-6073.9272 2852.1716 13832.433 0
-6047.3955 2878.676 13960.973 0
-6021.3672 2906.1609 14094.269 0
-5980.9937 2927.3999 14197.273 0
-5943.3208 2950.5874 14309.728 0
-5888.7529 2965.9387 14384.18 0
-5841.8691 2985.6699 14479.871 0
-5836.1499 3027.3438 14681.98 0
-5731.75 3018.3179 14638.207 0
-5705.3472 3050.72 14795.351 256
-5650.5664 3068.7249 14882.67 256
-5612.2573 3096.3901 15016.841 256
-5556.6333 3115.2422 15108.27 256
-5501.3047 3134.8818 15203.519 256
-5445.4058 3154.8472 15300.345 256
-5385.7061 3173.251 15389.6 256
-5337.3569 3199.0942 15514.934 256
-5284.2534 3222.946 15630.61 0
-5222.8154 3242.4775 15725.334 0
-5169.6387 3267.9431 15848.836 0
-5111.5459 3291.1885 15961.571 0
-5248.2773 3443.1267 16698.441 0
-5118.6392 3422.8027 16599.873 0
-4945.813 3372.2327 16354.62 0
-4875.4155 3390.8752 16445.031 0
-4813.9614 3416.6272 16569.924 0
-4740.2222 3434.554 16656.863 0
-4659.5093 3448.0842 16722.484 0
-4578.998 3462.3579 16791.707 0
-4499.8823 3478.3455 16869.244 0
-4458.1333 3524.6045 17093.59 0
-4392.2158 3553.4673 17233.568 0
-4279.4658 3544.9141 17192.088 0
-4182.7197 3549.5242 17214.445 0
-4096.3335 3563.3774 17281.631 0
-4013.8989 3581.4692 17369.373 0
-3939.667 3608.0283 17498.178 0
-3843.1255 3615.0422 17532.193 0
-3762.9353 3638.2561 17644.777 0
-3669.2588 3649.3879 17698.764 0
-3584.1497 3669.9495 17798.482 0
-3494.2192 3686.6743 17879.596 0
-3402.6912 3702.7104 17957.367 0
-3308.072 3716.3127 18023.334 0
-3223.2683 3742.2205 18148.982 0
-3129.2896 3758.9011 18229.881 0
-3036.8154 3778.6509 18325.662 0
-2934.2249 3786.8137 18365.25 0
-2698.2207 3616.7761 17540.604 0
-2816.3074 3926.7803 19044.059 0
-2729.8313 3965.5803 19232.23 0
-2620.5256 3973.1584 19268.982 0
-2506.4097 3973.8025 19272.105 0
-2393.9846 3977.3176 19289.154 0
-2298.4006 4010.5728 19450.436 0
-2208.1367 4057.1255 19676.205 0
0 0 0 0
-1980.3549 4069.6672 19737.029 0
-1864.2124 4072.2046 19749.336 0
0 0 0 0
0 0 0 0
0 0 0 0
0 0 0 0
0 0 0 0
0 0 0 0
0 0 0 0
0 0 0 0
0 0 0 0
0 0 0 0
0 0 0 0
0 0 0 0
0 0 0 0
0 0 0 0
0 0 0 0
0 0 0 0
0 0 0 0
242.45226 3971.8906 19262.834 4607566
365.37314 4065.7549 19718.057 4476492
0 0 0 0
581.84009 3944.3057 19129.053 131845
660.9491 3748.196 18177.963 2
0 0 0 0
782.26807 3343.228 16213.952 132101
0 0 0 0
1183.3234 4057.5657 19678.34 2
1305.6608 4074.3613 19759.795 258
0 0 0 0
0 0 0 0
0 0 0 0
1775.4882 4074.5225 19760.576 256
1865.8732 4016.2786 19478.105 256
1983.7654 4020.5896 19499.014 0
2111.3062 4042.9009 19607.219 0
2225.6987 4039.0173 19588.385 0
2352.9021 4057.6123 19678.566 0
2443.8201 4014.835 19471.105 0
2556.2827 4009.72 19446.299 0
2679.4695 4021.1416 19501.691 1842202
2717.0315 3908.4451 18955.137 0
2902.8186 4009.4548 19445.012 0
3003.3943 3989.5391 19348.426 770
3040.8145 3890.2937 18867.105 257
3235.3992 3992.0264 19360.488 7174005
3351.1479 3992.8401 19364.436 855566
3420.2312 3939.8445 19107.416 256
3569.2432 3979.3677 19299.096 0
3670.4175 3964.7561 19228.232 0
3754.3289 3932.9426 19073.945 0
3933.4338 3999.7939 19398.158 0
4014.5015 3965.9851 19234.193 0
4133.0391 3970.0403 19253.861 0
4248.5342 3971.0339 19258.68 0
4395.6011 4000.7107 19402.605 256
4507.6162 3997.7827 19388.406 256
4753.769 4111.002 19937.494 514
4559.4917 3847.0979 18657.615 258
4951.0449 4078.2874 19778.836 4476752
4952.0625 3984.5217 19324.092 258
4806.9102 3780.061 18332.5 7245452
0 0 0 0
0 0 0 0
0 0 0 0
0 0 0 0
0 0 0 0
0 0 0 0
0 0 0 0
0 0 0 0
0 0 0 0
0 0 0 0
0 0 0 0
5940.6431 3672.6484 17811.572 6
6238.749 3789.4185 18377.883 4
6410.7153 3826.8716 18559.521 4
6528.4316 3831.2202 18580.611 2
6649.1387 3837.1504 18609.373 1
6794.0918 3856.6494 18703.939 1
6949.1704 3881.1765 18822.891 256
7081.2764 3892.2988 18876.83 256
7200.4707 3896.0881 18895.207 256
7345.0576 3913.2896 18978.631 256
7498.75 3934.7488 19082.703 256
7612.4043 3934.8718 19083.301 256
7664.4009 3903.5886 18931.584 256
7777.29 3903.7759 18932.492 256
7937.6641 3927.4521 19047.316 0
8202.8174 4001.5769 19406.807 0
8449.4658 4064.7446 19713.156 0
8276.2891 3926.9827 19045.039 0
8366.5771 3916.262 18993.047 0
8446.1211 3900.8647 18918.373 0
8535.0137 3890.1326 18866.324 0
8832.8652 3973.6848 19271.535 0
8932.7285 3967.168 19239.93 0
8452.0342 3706.2395 17974.482 0
8659.9932 3750.0322 18186.867 2
8810.9121 3768.3491 18275.701 259
8984.3174 3795.7202 18408.445 2
8985.9043 3750.7161 18190.184 4
9085.7334 3747.3 18173.617 4
9056.2871 3691.2734 17901.898 516
8955.9375 3607.9834 17497.961 517
8976.8213 3574.8853 17337.441 1779755
8044.9312 3167.4158 15361.301 5336175
9502.7207 3699.3882 17941.254 7376273
10093.596 3885.8113 18845.367 7244688
9297.499 3540.0493 17168.494 5599863
8823.1768 3322.9802 16115.756 2898752
8273.1152 3082.3555 14948.776 3755094
8037.6987 2962.8274 14369.09 5794160
8110.356 2958.1794 14346.548 1845037
7370.084 2660.2043 12901.432 330766
7511.9243 2683.4824 13014.325 461325
8063.8774 2851.2974 13828.192 197895
8741.3584 3059.6636 14838.725 921876
8871.5078 3074.2029 14909.236 2106921
8922.1074 3061.1611 14845.988 3
8703.3359 2956.8594 14340.146 4
8759.2471 2946.9956 14292.309 516
8972.1553 2989.635 14499.101 3488315
9003.8369 2971.6506 14411.88 2304041
9299.833 3040.4177 14745.386 256
9046.9316 2930.1243 14210.486 256
9061.7988 2907.7935 14102.188 256
9132.7256 2903.6963 14082.315 256
9207.8232 2900.9871 14069.178 256
9264.6455 2892.6208 14028.604 256
9296.2842 2876.6113 13950.96 256
9334.001 2862.7488 13883.729 256
11373.804 3457.7905 16769.557 256
9447.0732 2847.0896 13807.785 0
9492.6641 2836.1924 13754.937 0
9541.6816 2826.4958 13707.91 0
9594.0781 2817.9563 13666.495 0
9623.7529 2802.9424 13593.681 0
9706.3496 2803.4636 13596.208 0
9740.8623 2790.2029 13531.896 256
9760.0918 2772.8174 13447.581 256
8974.2031 2528.8398 12264.342 256
9075.3223 2536.7305 12302.609 256
9916.6406 2749.741 13335.666 256
9956.1152 2738.7971 13282.59 257
10000.771 2729.4392 13237.206 2
10069.784 2726.8232 13224.52 259
9953.4307 2674.4409 12970.476 259
9851.085 2626.5984 12738.449 4
0 0 0 0
0 0 0 0
10486.846 2733.0972 13254.946 263
10717.928 2772.4946 13446.016 68625
11102.224 2850.6492 13825.048 1290
0 0 0 0
0 0 0 0
0 0 0 0
0 0 0 0
0 0 0 0
0 0 0 0
0 0 0 0
0 0 0 0
0 0 0 0
0 0 0 0
0 0 0 0
0 0 0 0
0 0 0 0
0 0 0 0
17486.105 4041.1707 19598.828 67082
0 0 0 0
17648.578 4025.0935 19520.857 724754
16979.943 3847.3074 18658.631 1382683
14150.108 3185.3213 15448.139 259
12829.773 2869.4832 13916.39 197637
13576.853 3017.1228 14632.41 1711906
13016.795 2874.2529 13939.521 592909
13025.439 2857.9717 13860.562 2698544
14151.601 3085.5537 14964.286 258
15134.351 3279.2195 15903.524 132103
15664.25 3372.9692 16358.191 461839
16324.578 3493.4744 16942.615 199438
16326.399 3472.4451 16840.627 1054747
0 0 0 0
0 0 0 0
0 0 0 0
-10394.103 2426.7061 11439.288 0
-10146.723 2384.5479 11240.558 0
-10081.048 2384.8154 11241.819 0
-10017.22 2385.5264 11245.171 0
-10003.254 2398.2009 11304.918 0
-9949.0732 2401.3408 11319.719 0
-9902.9844 2406.4897 11343.99 0
-9877.9697 2416.8655 11392.9 65536
-9834.8975 2422.9358 11421.516 65536
-9112.4004 2260.5432 10656.011 65536
-9035.9648 2257.27 10640.581 65536
-9006.2637 2265.7073 10680.354 65536
-8938.3779 2264.5906 10675.089 65536
-8874.8125 2264.5601 10674.945 65536
-9411.0693 2418.686 11401.482 65536
-9382.5635 2428.8484 11449.387 65536
-9163.5889 2389.4927 11263.867 65536
-9201.9395 2417.1516 11394.25 65536
-9156.3691 2423.0129 11421.879 0
-9111.5098 2429.1514 11450.815 0
-9059.751 2433.5291 11471.451 0
-8997.2422 2435.0635 11478.685 0
-8933.5312 2436.2937 11484.483 0
-8874.4238 2438.8081 11496.336 0
-8808.2285 2439.3979 11499.117 0
-8741.6836 2439.9001 11501.484 0
-8676.2617 2440.7258 11505.376 0
-8611.4971 2441.7512 11510.21 0
-8547.1895 2442.9236 11515.736 0
-8483.8896 2444.405 11522.72 0
-8416.8291 2444.8184 11524.668 0
-8349.002 2445.0142 11525.591 0
-8281.168 2445.2107 11526.518 0
-8214.3154 2445.7031 11528.839 0
-8141.7476 2444.4878 11523.109 0
-8073.5176 2444.5652 11523.475 0
-8004.5801 2444.428 11522.827 0
-7936.0474 2444.4128 11522.757 0
-7867.2363 2444.3113 11522.277 65536
-7799.3267 2444.4902 11523.122 65536
-7732.624 2445.054 11525.779 65536
-7652.665 2441.3992 11508.55 65536
-7591.5132 2443.7319 11519.547 65536
-7533.0205 2446.9712 11534.816 65536
-7483.1675 2453.1021 11563.717 0
-7436.4238 2460.3755 11598.003 0
-7399.5229 2471.072 11648.425 0
-7340.332 2474.4563 11664.379 0
-7287.3179 2480.0073 11690.546 0
-7239.2905 2487.3787 11725.294 0
-7184.7432 2492.6313 11750.054 0
-7125.6426 2496.3918 11767.781 0
-7066.2388 2500.1196 11785.354 0
-7007.5566 2504.1799 11804.493 0
-6947.7666 2507.9226 11822.136 0
-6874.4121 2506.7954 11816.822 0
-6830.1655 2516.3687 11861.95 0
-6780.708 2524.2017 11898.875 65536
-6722.6177 2528.9524 11921.27 0
-6713.2534 2552.3298 12031.468 0
-6676.6245 2565.7329 12094.649 0
-6659.897 2587.1589 12195.65 0
-6630.769 2604.1868 12275.917 0
-6563.8125 2606.5703 12287.153 0
-6553.0015 2631.5549 12404.929 0
-6509.4404 2643.8066 12462.683 0
-6472.1309 2658.9092 12533.874 0
-6453.4688 2682.1128 12643.254 0
-6425.8838 2702.1111 12737.524 0
-6383.3076 2716.2075 12803.974 0
-6350.5137 2734.8567 12891.885 0
-6328.5181 2758.6685 13004.131 65536
-6289.521 2775.5659 13083.785 65536
-6267.1289 2800.3064 13200.409 65536
-6238.9165 2823.0408 13307.576 65536
-6212.3057 2847.0928 13420.955 0
-6178.8428 2868.5891 13522.287 0
-6146.3291 2891.0984 13628.395 0
-6136.8848 2925.2051 13789.171 0
-6098.894 2946.4443 13889.29 0
-6074.46 2974.9053 14023.453 0
-6029.8447 2994.1375 14114.111 0
-5994.5391 3018.5999 14229.426 0
-5951.958 3040.0466 14330.523 0
-5894.2007 3054.252 14397.486 0
-5849.312 3075.6421 14498.318 0
-5847.6963 3120.7656 14711.027 0
-5756.6411 3118.8032 14701.776 0
-5707.2104 3139.679 14800.182 256
-5662.4478 3163.8159 14913.963 256
-5611.9019 3185.439 15015.891 256
-5576.0742 3216.2493 15161.128 0
-5511.6279 3231.2942 15232.048 256
-5451.6367 3249.4963 15317.853 256
-5390.9805 3267.9141 15404.672 256
-5328.543 3285.8696 15489.312 256
-5289.585 3319.1895 15646.381 0
-5223.7881 3336.5601 15728.263 0
-5156.4409 3353.5547 15808.375 0
-5094.1694 3374.5427 15907.311 0
-5248.3867 3542.4453 16698.789 0
-5129.8979 3529.2073 16636.387 0
-5029.0142 3527.7986 16629.746 0
-4967.4004 3554.4333 16755.301 0
-4885.9463 3567.6707 16817.699 0
-4728.9849 3525.1746 16617.377 0
-4665.3315 3551.9048 16743.381 0
-4589.9834 3570.7026 16831.992 0
-4521.311 3595.6467 16949.576 0
-4449.4258 3619.1145 17060.201 0
-4363.2476 3631.78 17119.906 0
-4295.5288 3660.7822 17256.619 0
-4193.0669 3660.8694 17257.031 0
-4102.3735 3671.4939 17307.113 0
-4018.083 3688.5425 17387.479 0
-3940.9058 3713.1931 17503.68 0
-3856.8701 3732.5435 17594.896 0
-3768.1802 3748.3425 17669.371 0
-3672.6277 3758.0249 17715.014 0
-3587.2827 3779.0325 17814.041 0
-3499.4478 3798.615 17906.352 0
-3406.7275 3813.9563 17978.668 0
-3320.2644 3837.5232 18089.762 0
-3233.4326 3862.2271 18206.213 0
-3139.2258 3879.5269 18287.764 0
-3045.1519 3898.2385 18375.969 0
-2949.7266 3916.5476 18462.275 0
-2803.6941 3866.481 18226.266 0
-2745.7976 3938.8201 18567.266 0
-2672.9656 3994.895 18831.6 0
-2579.2295 4023.2642 18965.328 0
-2462.321 4016.4277 18933.104 0
-2334.6106 3990.4736 18810.756 0
-2236.0642 4014.2649 18922.906 0
-2164.0801 4090.7871 19283.627 0
-2021.7081 4035.3723 19022.404 0
-1873.8833 3961.8635 18675.891 1645079
-1813.5487 4075.7212 19212.607 0
-1689.4491 4051.9475 19100.539 657929
0 0 0 0
0 0 0 0
-1344.3939 4038.4541 19036.934 395014
-1250.3699 4101.1641 19332.541 256
0 0 0 0
0 0 0 0
0 0 0 0
0 0 0 0
0 0 0 0
0 0 0 0
0 0 0 0
0 0 0 0
0 0 0 0
0 0 0 0
0 0 0 0
0 0 0 0
249.98196 4213.2842 19861.068 4541515
347.67822 3980.3672 18763.117 5923682
399.99829 3467.2505 16344.326 1250838
579.01196 4038.2717 19036.074 1
701.37622 4092.1013 19289.822 3
801.98407 4021.7043 18957.977 2
911.94946 4009.7954 18901.838 3
1054.6011 4128.4556 19461.193 2
1170.0585 4127.7251 19457.748 2
1290.554 4143.3003 19531.17 2
1414.5247 4166.541 19640.725 131844
1550.2393 4218.1938 19884.211 2
1673.5375 4231.1372 19945.225 256
1757.0659 4148.4717 19555.545 256
1869.6942 4140.5054 19517.994 256
1977.4441 4123.2979 19436.879 0
2090.7827 4119.0005 19416.621 0
2236.2183 4175.0781 19680.967 0
2325.3367 4125.6621 19448.023 0
2430.0425 4107.2715 19361.332 0
2544.533 4106.3345 19356.916 0
2719.489 4198.8359 19792.961 0
2769.1755 4098.2729 19318.914 0
2886.0901 4101.251 19332.953 0
2939.7168 4017.5098 18938.203 1316116
3066.0518 4035.6455 19023.693 256
3232.0737 4102.8716 19340.592 1645595
3246.6606 3979.8462 18760.66 723465
3429.374 4064.2419 19158.494 256
3548.9673 4070.812 19189.465 658443
3618.5061 4021.3455 18956.285 0
3762.7317 4055.3618 19116.635 0
3848.7849 4026.5256 18980.703 0
3983.3799 4048.6689 19085.084 0
4148.0688 4099.3262 19323.879 0
4216.3145 4054.5117 19112.627 0
4342.6704 4066.4629 19168.965 256
4497.4556 4103.7432 19344.701 256
4572.9331 4068.6047 19179.061 256
4753.7861 4126.6489 19452.676 2
0 0 0 0
5067.7769 4195.1611 19775.635 516
4821.1152 3900.51 18386.676 7311758
0 0 0 0
0 0 0 0
0 0 0 0
0 0 0 0
0 0 0 0
0 0 0 0
0 0 0 0
0 0 0 0
0 0 0 0
0 0 0 0
0 0 0 0
5914.3994 3761.8164 17732.887 1646884
6224.2632 3889.5923 18335.211 1776929
6425.3228 3946.1482 18601.811 4
6501.4702 3925.3728 18503.877 2
6647.0088 3946.4875 18603.41 2
6895.7339 4027.1738 18983.758 2
6979.5396 4010.4976 18905.148 256
7123.4883 4028.3616 18989.357 256
7253.957 4038.1638 19035.564 256
7421.8364 4068.1714 19177.018 256
7573.5879 4088.5645 19273.148 256
7704.6772 4097.3613 19314.617 256
7758.9312 4065.6394 19165.082 256
7853.8442 4055.8318 19118.85 256
8035.9624 4090.6958 19283.195 0
8171.4575 4101.1792 19332.613 0
8282.5381 4099.2886 19323.703 0
8371.0723 4086.4434 19263.15 0
8442.916 4065.907 19166.344 0
8505.8838 4041.7004 19052.236 0
8570.1797 4018.752 18944.059 0
8999.7363 4165.457 19635.615 0
8930.7334 4080.6055 19235.631 0
7629.5127 3441.9939 16225.27 256
8915.498 3971.9526 18723.451 256
8966.3496 3945.3635 18598.111 256
9008.2852 3915.5459 18457.553 257
8923.4863 3832.0222 18063.83 514
9147.498 3881.5205 18297.162 771
8665.9395 3633.9814 17130.283 464662
8777.0859 3637.8508 17148.523 6323064
9417.1562 3858.3389 18187.885 7704978
8770.5869 3552.6504 16746.895 7243659
9677.0771 3875.8521 18270.441 6059129
9692.4326 3838.9253 18096.371 5993593
9368.5283 3669.9119 17299.656 6387838
8883.3633 3442.083 16225.689 7307142
8389.835 3215.9421 15159.68 66053
8369.3877 3174.0181 14962.054 263
8270.9248 3103.7002 14630.581 7
8063.7515 2994.4753 14115.705 8
8177.041 3005.2791 14166.633 5
8232.1895 2994.7117 14116.818 5
8398.6172 3024.4304 14256.91 4
8728.4873 3111.825 14668.881 258
8714.6953 3076.1821 14500.863 3
8714.834 3046.1069 14359.092 3
8802.4609 3046.8979 14362.82 260
9118.2725 3125.8997 14735.228 922644
8687.3066 2949.8257 13905.229 6844528
8568.8408 2882.1812 13586.359 257
8990.9443 2995.926 14122.544 256
9053.5234 2988.8757 14089.309 256
9125.415 2985.001 14071.043 256
9203.0029 2983.0427 14061.812 256
9263.3672 2975.5872 14026.667 256
9297.2461 2959.8328 13952.402 256
9336.8281 2946.1565 13887.934 256
9392.4502 2937.7371 13848.245 256
9590.2256 2973.54 14017.018 0
9491.8154 2917.6816 13753.706 0
9530.3242 2904.5056 13691.595 0
9577.1631 2894.0696 13642.4 0
9626.1748 2884.46 13597.102 0
9684.4531 2877.7637 13565.536 0
9723.9414 2865.6409 13508.391 256
9800.915 2864.6731 13503.828 256
8908.0967 2582.5664 12174 256
9897.0723 2846.1653 13416.583 256
9924.6768 2831.2922 13346.473 256
9961.0498 2819.1367 13289.173 256
10014.462 2811.957 13255.328 256
10063.053 2803.5461 13215.681 256
10124.269 2798.7554 13193.097 2
10169.363 2789.6162 13150.016 4
10260.119 2793.0464 13166.186 4
10319.024 2787.8198 13141.548 4
10485.812 2811.5989 13253.641 260
10963.101 2917.658 13753.594 517
11850.912 3130.593 14757.353 266001
0 0 0 0
0 0 0 0
0 0 0 0
0 0 0 0
0 0 0 0
0 0 0 0
0 0 0 0
0 0 0 0
0 0 0 0
0 0 0 0
0 0 0 0
0 0 0 0
17525.115 4223.1943 19907.781 1053723
16500.051 3949.5098 18617.656 921623
17483.846 4157.1162 19596.295 987671
0 0 0 0
0 0 0 0
17563.471 4094.228 19299.846 790291
16113.742 3731.9084 17591.902 1316892
13642.856 3139.2874 14798.336 395531
13205.907 3019.2786 14232.625 1382684
12934.396 2938.3813 13851.282 461582
12662.959 2858.5237 13474.841 1711649
14085.163 3159.5881 14894.032 515
15219.263 3392.6682 15992.752 922647
