# .PCD v0.7 - Point Cloud Data file format
VERSION 0.7
FIELDS x y z rgb
SIZE 4 4 4 4
TYPE F F F U
COUNT 1 1 1 1
WIDTH 1452
HEIGHT 1
VIEWPOINT 0 0 0 1 0 0 0
POINTS 1452
DATA ascii
-2269.1035 7208.5889 16684.941 659473
-2261.4546 7512.6055 17388.615 527632
-2260.4949 7869.0249 18213.582 198924
-2218.6106 8111.6689 18775.203 1031
-2117.1819 8150.7788 18865.727 774
-2043.3647 8306.5068 19226.172 774
-1930.1393 8310.9951 19236.562 1
-1776.6991 8131.9849 18822.225 1
-1702.3971 8315.4727 19246.926 256
-1605.1697 8405.3506 19454.955 256
-1494.7445 8434.7061 19522.902 328965
-1339.7806 8196.5254 18971.609 789773
-1204.4281 8045.5723 18622.215 395271
-1084.5294 7977.7466 18465.227 131843
-994.67883 8140.5669 18842.09 257
0 0 0 0
0 0 0 0
0 0 0 0
-530.74902 7902.4912 18291.041 0
-419.69803 7858.6562 18189.582 0
-307.30179 7750.4761 17939.189 0
-198.60852 7670.3599 17753.752 65536
-92.55056 7625.7578 17650.518 0
12.338268 7616.936 17630.098 0
116.84362 7598.9595 17588.49 0
221.69563 7609.8604 17613.721 0
325.76981 7595.6318 17580.787 0
426.8111 7534.7729 17439.924 0
526.81262 7482.9277 17319.924 0
629.29553 7477.5171 17307.4 131072
693.16083 7079.2266 16385.52 196608
0 0 0 0
891.76044 7109.7622 16456.197 196608
0 0 0 0
0 0 0 0
1084.6245 6506.5684 15060.05 0
1375.1228 7620.3813 17638.072 131585
1477.9106 7609.8706 17613.744 256
1611.1102 7746.9844 17931.107 256
1666.6697 7516.917 17398.594 256
1737.7871 7379.7979 17081.221 256
1804.5804 7240.4673 16758.727 65793
1887.2772 7176.1831 16609.936 0
1965.1984 7101.0342 16435.996 0
2043.9124 7035.731 16284.846 65536
2122.4426 6975.729 16145.966 65536
2193.7021 6898.0562 15966.185 196608
2272.1987 6848.6367 15851.799 327680
2342.6833 6779.9648 15692.853 458752
2401.3152 6683.5625 15469.719 655360
2459.2439 6592.3848 15258.681 917504
2519.7478 6514.3501 15078.062 983040
2563.3562 6399.4961 14812.222 983040
2641.0186 6374.4624 14754.278 1048576
2691.9438 6288.5781 14555.491 851968
2750.8521 6226.1094 14410.902 786432
2800.0679 6146.1387 14225.803 655360
2858.5308 6090.5586 14097.157 524288
2867.0569 5934.7749 13736.582 524288
2861.1885 5758.6465 13328.916 458752
2889.6243 5659.1904 13098.717 393216
2925.7781 5579.6733 12914.666 327680
2999.5752 5574.1738 12901.938 262144
3130.8418 5673.084 13130.874 327680
3146.8184 5563.3574 12876.902 327680
3211.4924 5542.8911 12829.53 393216
3274.4917 5520.5513 12777.823 196608
3321.293 5472.5337 12666.683 2
3502.7849 5643.6577 13062.764 5267040
3746.8413 5905.978 13669.929 4610137
3951.5488 6096.4561 14110.807 5463647
3694.8906 5582.0142 12920.084 196609
3946.9966 5841.4805 13520.643 393216
4043.8838 5865.4556 13576.136 458752
4599.8706 6541.3672 15140.595 393216
4204.4878 5864.3799 13573.646 327680
4285.2266 5864.4697 13573.854 327680
4378.3242 5881.1582 13612.48 393216
4466.1724 5890.3164 13633.679 196608
4567.4531 5916.5493 13694.396 262144
4645.2847 5912.0195 13683.912 262144
4728.2881 5914.1152 13688.763 262144
4814.2739 5919.8066 13701.937 262144
4902.3052 5927.7827 13720.397 196608
4972.4517 5914.2246 13689.017 262144
5031.5142 5888.1328 13628.624 262144
5116.3022 5892.4966 13638.725 196608
5183.1514 5876.3848 13601.433 262144
5248.1914 5858.749 13560.613 262144
5308.0791 5835.9819 13507.916 196608
5367.6797 5813.5825 13456.07 0
5442.7959 5808.3984 13444.071 0
5506.8818 5791.7627 13405.567 0
5571.3359 5775.9839 13369.046 0
5637.8364 5762.7412 13338.394 0
5689.9629 5735.376 13275.054 0
5762.2524 5728.8062 13259.848 0
5828.3149 5716.3052 13230.913 0
5869.418 5679.9839 13146.844 0
5933.2593 5666.3315 13115.245 65536
5979.6245 5636.561 13046.338 65536
6010.0488 5592.7178 12944.859 65536
6090.1265 5595.6045 12951.541 65536
6155.21 5584.8145 12926.566 65536
6208.2036 5563.4565 12877.131 65536
6245.1963 5528.4536 12796.114 65536
6305.0073 5514.2495 12763.237 131072
6393.1553 5524.8721 12787.824 196608
6471.6538 5527.0044 12792.759 196608
6541.3413 5521.6484 12780.362 196608
6596.7153 5504.4731 12740.608 196608
6662.6309 5496.3833 12721.884 196608
6729.9873 5489.6504 12706.3 196608
6782.083 5470.7563 12662.568 65536
6841.9956 5458.5142 12634.232 65536
6911.9155 5454.4346 12624.79 131072
6955.3071 5429.7329 12567.615 131072
7026.9468 5427.374 12562.155 131072
7070.7783 5403.813 12507.621 65536
7163.0493 5417.3765 12539.015 0
7261.7847 5435.4985 12580.961 0
7350.7422 5446.0078 12605.285 0
7454.3164 5467.0239 12653.93 0
7542.5703 5476.4976 12675.857 0
7680.7549 5521.6787 12780.433 0
7773.3467 5533.5195 12807.839 0
7868.2979 5546.7939 12838.563 0
7982.5986 5573.3218 12899.966 65536
8061.6421 5574.9644 12903.768 0
8172.7075 5598.5112 12958.269 65536
8275.0635 5615.708 12998.072 65536
8387.9619 5639.6758 13053.547 0
8509.1631 5668.7344 13120.806 65536
8612.126 5685.2256 13158.977 65536
8734.2285 5713.9409 13225.44 65536
8826.5518 5722.8364 13246.03 65536
8854.5518 5690.2388 13170.58 65536
8953.0488 5703.1187 13200.392 0
9145.5732 5775.1499 13367.115 0
9254.9873 5793.9116 13410.54 0
9384.3809 5824.7534 13481.927 0
9511.7266 5853.8125 13549.187 0
9604.0869 5861.0342 13565.901 0
9733.8037 5890.7422 13634.664 0
9883.4785 5931.939 13730.018 0
10032.469 5972.0532 13822.865 0
10175.743 6008.1406 13906.394 0
10241.669 5998.3452 13883.721 0
10359.997 6019.1528 13931.882 0
10534.7 6072.1235 14054.487 0
10714.909 6127.4102 14182.454 0
10896.869 6182.8267 14310.72 0
11095.029 6246.5054 14458.11 0
11279.343 6301.4702 14585.331 0
11467.216 6357.5698 14715.18 0
11659.245 6415.1069 14848.354 0
11848.841 6470.4512 14976.453 0
12085.479 6550.4673 15161.658 0
12338.633 6638.1846 15364.687 0
12604.562 6731.4346 15580.524 0
12865.806 6820.8413 15787.464 0
13164.616 6928.7256 16037.171 0
13432.312 7018.7998 16245.657 0
14854.051 7706.3091 17836.959 0
15546.294 8008.291 18535.926 0
15977.426 8172.4663 18915.924 0
16164.463 8210.3643 19003.643 0
16382.111 8263.1768 19125.881 0
16566.617 8298.6602 19208.01 0
16689.961 8303.2285 19218.586 0
16914.631 8357.8027 19344.902 0
17343.619 8511.915 19701.609 0
17523.316 8542.4336 19772.246 0
17712.977 8577.3691 19853.109 0
17891.473 8606.4736 19920.475 0
0 0 0 0
18090.988 8588.7783 19879.516 65536
18168.436 8569.5791 19835.078 0
0 0 0 0
18471.439 8600.8838 19907.535 196608
0 0 0 0
0 0 0 0
0 0 0 0
0 0 0 0
0 0 0 0
0 0 0 0
0 0 0 0
0 0 0 0
0 0 0 0
-10488.486 5022.8774 11468.15 0
-10578.704 5099.2192 11642.452 0
-10638.201 5161.6606 11785.018 0
-10735.94 5243.6079 11972.118 0
-10370.027 5098.6826 11641.228 0
-10697.677 5295.1079 12089.703 0
-10709.363 5336.7378 12184.751 0
-10640.854 5338.6987 12189.229 0
-10571.681 5340.3521 12193.003 0
-10504.281 5342.9292 12198.888 0
-10614.627 5436.5801 12412.709 0
-10883.889 5613.5044 12816.66 0
-10981.861 5703.9556 13023.177 0
-10920.081 5712.1274 13041.834 0
-10839.345 5710.4282 13037.955 0
-10781.443 5720.8218 13061.686 0
-10703.817 5720.8247 13061.691 0
-10626.042 5720.7456 13061.512 0
-10548.513 5720.8003 13061.637 0
-10470.826 5720.769 13061.565 0
-10392.125 5720.1792 13060.218 0
-10322.36 5724.5366 13070.167 0
-10250.116 5727.5742 13077.103 0
-10175.111 5729.1035 13080.595 0
-10098.391 5729.6841 13081.919 0
-10020.72 5729.729 13082.021 0
-9944.0645 5730.3604 13083.464 0
-9867.2881 5730.9312 13084.768 0
-9788.5117 5730.3403 13083.418 0
-9708.7803 5729.1768 13080.762 0
-9629.5713 5728.3052 13078.771 0
-9549.8496 5727.1118 13076.047 0
-9471.0654 5726.4653 13074.571 0
-9390.6738 5724.8286 13070.834 0
-9311.1221 5723.6807 13068.213 0
-9231.5869 5722.5239 13065.572 0
-9151.7363 5721.1504 13062.436 0
-9073.8066 5720.9639 13062.01 0
-8997.2363 5721.6392 13063.552 0
-8920.3281 5722.1089 13064.625 0
-8842.6523 5722.0918 13064.585 0
-8779.0518 5731.2612 13085.521 65536
-8780.7598 5783.6128 13205.049 0
-8699.0098 5781.4404 13200.089 0
-8617.373 5779.3052 13195.214 0
-8536.2695 5777.4912 13191.072 0
-8456.5928 5776.6187 13189.079 0
-8378.958 5777.1372 13190.265 0
-8303.2715 5779.0225 13194.568 0
-8228.5889 5781.6475 13200.562 0
-8104.001 5748.9224 13125.844 0
-8030.8179 5752.3804 13133.739 0
-7956.1196 5754.8105 13139.288 0
-7879.686 5756.0215 13142.053 0
-7801.0146 5755.606 13141.104 0
-7720.582 5753.8691 13137.139 0
-7639.002 5751.2324 13131.119 0
-7557.5107 5748.6099 13125.131 0
-7477.3608 5746.9629 13121.37 0
-7397.7705 5745.7158 13118.523 0
-7318.7686 5744.9038 13116.67 0
-7241.3848 5745.3589 13117.708 0
-7165.0171 5746.6382 13120.63 0
-7085.7764 5745.6167 13118.297 0
-7007.7046 5745.5303 13118.1 0
-6928.1846 5744.2417 13115.157 0
-6848.2847 5742.6045 13111.42 0
-6766.8696 5739.645 13104.662 0
-6687.9307 5738.7412 13102.599 0
-6611.5142 5740.0059 13105.486 0
-6536.0918 5742.1743 13110.437 0
-6467.3813 5750.3628 13129.133 0
-6405.0142 5764.4595 13161.318 0
-6343.7793 5779.9375 13196.657 0
-6279.1084 5792.6318 13225.642 0
-6222.334 5813.0269 13272.206 0
-6163.0854 5831.6035 13314.62 0
-6107.1479 5853.8369 13365.384 0
-6045.5513 5871.1611 13404.938 0
-6003.084 5907.7734 13488.53 0
-5942.2036 5927.0103 13532.452 0
-5884.4766 5949.9639 13584.859 0
-5819.7573 5966.3882 13622.358 0
-5757.5308 5985.8667 13666.832 0
-5690.3208 6000.6479 13700.58 0
-5612.605 6004.6191 13709.646 256
-5502.1997 5973.2183 13637.953 257
-5229.478 5762.0337 13155.779 1
-5203.4131 5820.3379 13288.898 1
-5373.7031 6103.4595 13935.317 4
-5278.4761 6089.1494 13902.646 3
-5297.8037 6208.6338 14175.45 4
-5306.4678 6319.2817 14428.078 3
-5254.8926 6360.6489 14522.528 2
-5199.2129 6398.3467 14608.599 2
-5039.8633 6307.5781 14401.357 2
-5077.3062 6464.2212 14759.003 256
-5044.8184 6535.7739 14922.371 0
-5023.1572 6624.1655 15124.185 0
-4925.6143 6613.8872 15100.717 0
-4863.3374 6651.4595 15186.502 0
-4808.7002 6701.0991 15299.839 0
-4734.3501 6724.6523 15353.615 0
-4644.8662 6727.2134 15359.462 256
-4555.4058 6729.9102 15365.62 257
-4519.5278 6813.498 15556.467 256
-4404.6357 6778.9712 15477.634 256
-4277.2095 6723.2671 15350.451 256
-4207.7339 6758.2124 15430.238 0
-4112.0166 6751.6289 15415.206 0
-4013.4373 6739.9375 15388.514 0
-3924.0586 6743.5132 15396.677 0
-3831.7373 6742.0815 15393.408 0
-3744.6204 6749.9614 15411.4 0
-3662.0566 6766.6499 15449.503 0
-3581.3379 6787.6929 15497.548 0
-3512.408 6832.7808 15600.491 0
-3430.8894 6855.1602 15651.588 0
-3345.5857 6871.0132 15687.783 0
-3258.8074 6884.6602 15718.941 0
-3177.6387 6911.313 15779.795 0
-3100.2998 6948.1704 15863.947 0
-3021.0762 6982.9829 15943.432 0
-2933.3843 6999.8438 15981.927 0
-2845.1929 7016.6001 16020.185 0
-2767.1648 7060.4487 16120.299 256
-2686.3381 7100.0459 16210.708 256
-2604.6191 7140.1431 16302.256 256
-2526.553 7193.7383 16424.625 256
-2433.1206 7206.1333 16452.924 2
-2265.998 6992.1797 15964.429 1
-2347.2043 7559.2808 17259.225 1
-2187.6077 7367.2559 16820.797 260
-2170.311 7659.0161 17486.939 4
-2153.4099 7981.5913 18223.438 260
-2039.3357 7959.0874 18172.057 260
-1948.9473 8031.6768 18337.791 260
-1832.7775 8000.3262 18266.213 3
-1732.3671 8038.1528 18352.576 2
-1628.5779 8064.3291 18412.344 65538
-1513.1376 8032.4282 18339.508 65536
-1407.6324 8052.4102 18385.129 65536
-1294.8848 8030.8364 18335.873 65536
-1188.6954 8049.71 18378.965 0
-1074.5029 8012.7231 18294.518 0
-969.11169 8040.4287 18357.773 0
-843.40338 7885.2139 18003.391 0
-740.46509 7928.7104 18102.699 0
0 0 0 0
-519.52075 7841.7207 17904.086 0
-412.28506 7826.0493 17868.307 0
-301.77985 7715.9102 17616.838 65536
-195.71384 7662.5435 17494.992 65536
-91.183746 7616.4922 17389.85 0
12.182861 7624.4585 17408.037 256
115.23366 7597.3496 17346.143 256
217.64192 7573.4834 17291.652 256
319.79938 7558.9995 17258.582 256
421.04062 7535.1533 17204.137 256
524.19025 7548.1055 17233.709 256
627.43365 7557.9531 17256.193 0
713.51685 7387.3667 16866.713 0
814.31549 7392.3955 16878.195 0
914.26361 7389.4468 16871.463 65536
1014.6204 7390.0566 16872.855 65536
1103.0923 7311.7808 16694.137 65536
1227.9155 7467.4902 17049.65 131329
1238.7188 6958.9155 15888.48 197379
1520.8719 7938.8096 18125.758 256
1552.3733 7567.2349 17277.385 256
1644.9912 7521.2041 17172.289 256
1701.691 7325.9214 16726.422 512
1791.7278 7287.792 16639.365 0
1864.0579 7185.3984 16405.582 0
1943.7804 7120.2622 16256.865 0
2023.1283 7059.9888 16119.25 0
2099.9255 6996.667 15974.673 131072
2155.6836 6871.7549 15689.477 196608
2223.6013 6794.3569 15512.763 458752
2296.5188 6737.7905 15383.61 655360
2357.2773 6651.2485 15186.02 851968
2412.0266 6554.7583 14965.716 983040
2471.2957 6476.9771 14788.127 917504
2525.6318 6392.0542 14594.232 917504
2603.9453 6371.4395 14547.165 917504
2664.4172 6309.897 14406.652 655360
2695.7954 6185.4321 14122.477 589824
2755.8108 6132.207 14000.953 458752
2819.4526 6089.9351 13904.438 458752
2858.5691 5998.6045 13695.915 458752
2908.8579 5935.1274 13550.984 393216
2955.0137 5866.8652 13395.129 327680
3016.491 5831.8052 13315.081 262144
3086.8315 5815.2354 13277.249 262144
3087.7268 5671.9258 12950.047 262144
3140.5916 5628.729 12851.421 262144
3183.7651 5570.6274 12718.764 262144
3294.2712 5630.2998 12855.007 2
3332.9062 5567.2148 12710.973 329223
3464.3591 5658.5308 12919.464 3688266
3694.4719 5903.54 13478.865 4544347
3830.7722 5991.4233 13679.519 5069404
3866.4263 5921.5132 13519.9 131843
3895.7024 5844.8794 13344.932 196608
4015.8701 5904.9517 13482.088 458752
4098.0034 5907.8418 13488.686 393216
4184.9399 5917.4121 13510.537 262144
4072.0771 5649.4292 12898.684 65536
4127.2993 5620.2349 12832.027 196864
4291.1636 5737.3564 13099.437 0
4542.979 5965.8008 13621.018 65536
4401.25 5678.4941 12965.044 657415
4550.5063 5770.0449 13174.07 1381395
4658.8564 5807.5063 13259.603 460293
4721.5098 5787.7056 13214.394 196608
5026.8467 6061.1709 13838.765 196608
5093.0664 6042.1553 13795.349 262144
5164.4121 6029.7271 13766.973 262144
5230.7949 6011.9819 13726.458 196608
5287.0825 5983.3574 13661.103 196608
5345.1807 5957.6167 13602.332 0
5408.0884 5937.9243 13557.37 65536
5465.6128 5912.9854 13500.431 0
5513.9365 5878.959 13422.742 0
5568.6333 5852.6011 13362.562 0
5619.6255 5823.145 13295.309 0
5666.9243 5790.7324 13221.305 0
5735.4854 5780.6357 13198.252 0
5789.0396 5755.8911 13141.755 0
5832.7227 5722.1201 13064.65 0
5883.3105 5695.9229 13004.836 65536
5930.1738 5666.8447 12938.446 65536
5979.9556 5641.2646 12880.042 65536
6040.791 5626.6274 12846.622 65536
6095.2949 5606.5308 12800.738 65536
6158.1914 5594.5547 12773.395 65536
6195.3555 5559.7778 12693.992 65536
6254.3867 5545.2256 12660.767 65536
6344.1968 5557.9834 12689.896 0
6416.3276 5555.1353 12683.393 196608
6481.4175 5546.3281 12663.285 196608
6547.2695 5538.3687 12645.111 196608
6587.3696 5509.0518 12578.176 196608
6655.082 5503.2271 12564.877 196608
6690.8291 5471.3926 12492.192 131072
6766.626 5472.6475 12495.058 65536
6798.54 5438.769 12417.707 196608
6865.0122 5432.9673 12404.461 196608
6946.5542 5439.0884 12418.437 131072
7056.8486 5467.3574 12482.979 0
7120.3711 5459.1782 12464.305 65536
7206.9951 5468.6973 12486.039 0
7307.3159 5488.3091 12530.816 0
7406.3164 5506.5435 12572.449 0
7514.0923 5530.873 12627.998 0
7601.165 5539.6338 12647.999 0
7693.5127 5552.0288 12676.3 0
7802.1216 5575.8042 12730.584 0
7895.1133 5588.0698 12758.589 65536
8001.8291 5609.7236 12808.028 65536
8142.9927 5654.8911 12911.154 0
8267.8242 5687.98 12986.701 0
8361.875 5699.4766 13012.95 65536
8480.8379 5727.5864 13077.13 0
8581.7646 5743.1152 13112.585 65536
8708.7725 5775.6616 13186.895 65536
8731.9961 5739.4116 13104.13 65536
8837.2363 5757.2354 13144.824 65536
8972.3867 5794.0605 13228.903 65536
9126.2793 5842.2446 13338.916 65536
9252.8311 5872.2466 13407.416 0
9347.3018 5881.5503 13428.658 0
9437.124 5887.7959 13442.918 0
9560.1602 5914.4854 13503.854 0
9753.79 5984.0396 13662.66 0
9882.0684 6012.6831 13728.059 0
10007.575 6039.1846 13788.566 0
10144.88 6072.3179 13864.215 0
10184.354 6046.8315 13806.025 0
10349.968 6096.0469 13918.394 0
10435.644 6097.7734 13922.335 0
10631.732 6163.481 14072.358 0
10828.263 6228.418 14220.62 0
11031.602 6296.2339 14375.457 0
11221.037 6355.1338 14509.937 0
11440.043 6429.7549 14680.31 0
11633.181 6488.8179 14815.161 0
11813.417 6539.8511 14931.679 0
12020.504 6604.8765 15080.144 0
12268.425 6691.21 15277.26 0
12515.206 6775.6582 15470.07 0
12776.975 6866.9302 15678.461 0
13055.312 6965.7197 15904.016 0
13324.601 7058.2964 16115.386 0
13607.302 7156.606 16339.845 0
14931.706 7797.5127 17803.15 0
15929.841 8260.2148 18859.586 0
16118.408 8299.5947 18949.498 0
16333.104 8351.7891 19068.666 0
16511.221 8384.6885 19143.781 0
16662.33 8403.5156 19186.768 0
16836.932 8433.8545 19256.037 0
17067.922 8491.8398 19388.428 0
17391.318 8594.7139 19623.309 0
17535.912 8608.4414 19654.652 0
17656.816 8610.4365 19659.205 0
18050.068 8744.3428 19964.939 0
0 0 0 0
17942.846 8579.5977 19588.795 65536
17926.098 8516.3301 19444.344 262144
18493.873 8729.792 19931.715 196608
0 0 0 0
0 0 0 0
0 0 0 0
0 0 0 0
0 0 0 0
0 0 0 0
0 0 0 0
0 0 0 0
0 0 0 0
-10448.411 5071.5845 11424.332 0
-10563.246 5160.8618 11625.44 0
-10616.598 5221.0786 11761.086 0
-10654.853 5274.6201 11881.693 0
-10353.102 5159.4351 11622.227 0
-10649.36 5342.7212 12035.1 0
-10643.143 5375.7085 12109.407 0
-10577.783 5379.0708 12116.98 0
-10511.544 5382.0283 12123.643 0
-10445.76 5385.2617 12130.926 0
-10608.287 5507.0615 12405.295 0
-10756.353 5623.0073 12666.477 0
-10795.885 5683.4507 12802.632 0
-10727.843 5687.7178 12812.244 0
-10648.564 5686.0459 12808.479 0
-10574.671 5687.2461 12811.182 0
-10499.8 5687.9341 12812.731 0
-10532.486 5747.3237 12946.514 0
-10455.944 5747.5454 12947.013 0
-10380.836 5748.5649 12949.309 0
-10306.026 5749.7651 12952.014 0
-10233.359 5752.189 12957.473 0
-10160.888 5754.7598 12963.264 0
-10086.18 5756.0938 12966.269 0
-10012.414 5757.9897 12970.54 0
-9936.3467 5758.582 12971.874 0
-9858.0693 5757.8916 12970.319 0
-9782.0703 5758.5327 12971.763 0
-9706.6943 5759.5532 12974.062 0
-9689.6826 5795.498 13055.031 0
-9611.5762 5795.1865 13054.33 0
-9531.9316 5793.9355 13051.512 0
-9453.0117 5793.1084 13049.648 0
-9373.0723 5791.6372 13046.335 0
-9293.8105 5790.5635 13043.916 0
-9214.4697 5789.4229 13041.346 0
-9134.5596 5787.9009 13037.918 0
-9056.5859 5787.5918 13037.222 0
-8979.3828 5787.7729 13037.63 0
-8903.0166 5788.5024 13039.272 0
-8825.1709 5788.2725 13038.756 0
-8746.166 5787.2729 13036.504 0
-8667.5703 5786.5288 13034.827 0
-8589.6396 5786.2183 13034.128 0
-8510.0107 5784.748 13030.816 0
-8431.7314 5784.1772 13029.53 0
-8353.1367 5783.377 13027.728 0
-8278.5312 5785.3496 13032.171 0
-8203.8535 5787.3086 13036.584 0
-8132.0049 5791.3198 13045.619 0
-8060.499 5795.6543 13055.384 0
-7990.0449 5800.8374 13067.059 0
-7916.1875 5803.6265 13073.342 0
-7840.8408 5805.3682 13077.266 0
-7762.0366 5804.5601 13075.444 0
-7680.8994 5801.9727 13069.616 0
-7599.5225 5799.1489 13063.256 0
-7518.8223 5796.7896 13057.94 0
-7438.6636 5794.8027 13053.465 0
-7359.6152 5793.6475 13050.862 0
-7281.6035 5793.292 13050.062 0
-7203.4463 5792.8125 13048.982 0
-7128.9648 5795.311 13054.61 0
-7048.3525 5792.8257 13049.012 0
-6970.0303 5792.188 13047.575 0
-6890.1196 5790.2012 13043.1 0
-6809.9775 5787.9717 13038.078 0
-6729.1284 5785.0845 13031.573 0
-6650.2998 5783.8862 13028.874 0
-6577.3721 5787.8521 13037.809 0
-6524.3999 5809.6826 13086.984 0
-6470.7769 5831.4531 13136.024 0
-6405.4429 5843.0728 13162.199 0
-6340.0186 5854.8965 13188.833 0
-6265.2378 5858.2676 13196.427 0
-6210.9805 5881.1572 13247.988 0
-6147.8345 5896.1104 13281.672 0
-6086.8301 5913.5327 13320.918 0
-6032.623 5938.105 13376.271 0
-5972.5083 5957.4414 13419.828 0
-5912.0132 5976.9165 13463.697 0
-5846.9214 5992.2153 13498.16 0
-5797.6514 6024.3799 13570.614 0
-5732.5371 6040.7563 13607.504 0
-5670.4209 6060.8057 13652.667 256
-5602.6636 6075.3198 13685.362 0
-5544.749 6101.0918 13743.417 0
-5458.8813 6096.4175 13732.888 2
-5379.3032 6098.7319 13738.101 65538
-5335.7168 6142.5513 13836.81 65537
-5281.5547 6175.377 13910.753 65538
-5236.2192 6219.7319 14010.668 65538
-5178.6802 6250.7896 14080.629 65538
-5129.0166 6292.5308 14174.655 65538
-5067.2383 6320.5532 14237.78 0
-5010.2979 6355.6665 14316.876 0
-4974.4956 6419.2695 14460.148 0
-4914.1167 6452.8359 14535.761 0
-4877.2734 6519.0625 14684.944 0
-4795.6963 6526.8208 14702.421 0
-4719.207 6541.9199 14736.434 0
-4652.1426 6570.9019 14801.719 0
-4577.4785 6590.0605 14844.876 0
-4518.3335 6632.7544 14941.049 0
-4452.0527 6666.4741 15017.006 0
-4373.5112 6682.8389 15053.87 0
-4305.3232 6716.0376 15128.653 256
-4226.4766 6733.6724 15168.378 256
-4152.6104 6760.1821 15228.094 0
-4063.8152 6763.0293 15234.508 0
-3973.5818 6763.5576 15235.698 0
-3888.416 6772.938 15256.828 0
-3796.7944 6771.2529 15253.032 0
-3722.4109 6800.979 15319.995 0
-3641.6438 6820.2417 15363.385 0
-3563.3228 6845.1934 15419.592 0
-3488.011 6877.396 15492.132 0
-3408.1428 6902.1172 15547.819 0
-3324.7466 6920.8721 15590.066 0
-3248.769 6956.5879 15670.521 0
-3160.9817 6968.3774 15697.078 0
-3090.7698 7020.8081 15815.184 0
-3013.4448 7059.8623 15903.158 0
-2928.0393 7081.9019 15952.805 0
-2839.9602 7098.7334 15990.721 0
-2770.9636 7166.0811 16142.43 256
-2687.1909 7198.6768 16215.854 256
-2609.9392 7251.8145 16335.554 256
-2524.0928 7284.2563 16408.633 256
-2435.7224 7311.7285 16470.518 0
-2353.0103 7359.1982 16577.447 2
-2274.9766 7426.0889 16728.127 2
-2159.8789 7372.5781 16607.588 2
-2076.3293 7426.7861 16729.697 2
-1983.4598 7451.4336 16785.219 2
-1914.2311 7572.2085 17057.277 2
-1817.1658 7590.2197 17097.85 2
-1694.8315 7498.5645 16891.387 256
-1606.2848 7554.27 17016.869 0
-1511.15 7584.3955 17084.73 0
-1403.2808 7550.3428 17008.023 65536
-1349.2094 7822.9321 17622.062 65536
-1224.6664 7698.4116 17341.564 65536
-1128.8002 7747.835 17452.896 65536
-1026.0159 7754.9722 17468.975 196608
-923.9577 7769.8223 17502.426 196608
-829.35382 7859.0796 17703.488 196608
-719.8197 7812.2358 17597.967 196608
-614.87659 7807.7617 17587.889 196608
-507.49628 7764.168 17489.689 196608
-402.43698 7742.7729 17441.494 196608
-294.76849 7638.9146 17207.541 196608
-190.59935 7563.564 17037.805 196608
-88.578323 7499.2651 16892.965 0
11.831909 7505.3022 16906.562 0
112.93261 7546.6772 16999.766 0
214.69559 7572.3364 17057.566 0
315.08279 7548.5762 17004.043 0
415.6366 7539.3774 16983.322 0
516.20099 7533.9287 16971.049 0
618.1499 7547.1646 17000.863 0
709.38519 7444.2534 16769.045 0
799.61261 7357.4233 16573.449 0
904.06018 7406.1323 16683.172 65536
997.12573 7361.1865 16581.926 65536
1091.3656 7332.2148 16516.664 65536
1206.5546 7437.1543 16753.053 0
1290.871 7350.3047 16557.414 256
1409.4948 7457.2686 16798.363 256
1475.9321 7292.2422 16426.621 256
1592.8741 7381.7427 16628.232 256
1667.9858 7278.2598 16395.123 0
1742.1884 7182.4512 16179.305 0
1816.0867 7095.478 15983.388 0
1902.681 7064.2886 15913.13 0
1976.8728 6992.1855 15750.709 65536
2043.5372 6901.1816 15545.713 196608
2109.9033 6817.0879 15356.281 393216
2189.5967 6781.2412 15275.533 589824
2258.2949 6715.5532 15127.563 786432
2326.1167 6652.3892 14985.277 917504
2370.6311 6529.6841 14708.871 917504
2445.6484 6496.7378 14634.655 786432
2516.0388 6454.1851 14538.8 720896
2581.0737 6401.1763 14419.392 524288
2645.5796 6350.3037 14304.796 393216
2698.0532 6274.6182 14134.305 327680
2745.4102 6191.9619 13948.112 327680
2780.5618 6087.4307 13712.645 327680
2492.8672 5302.1782 11943.771 393216
2732.8633 5651.6997 12731.109 393216
2780.7432 5595.7861 12605.157 327680
2847.0105 5578.8374 12566.979 262144
2876.5315 5492.5898 12372.695 196608
3156.7754 5877.4502 13239.639 262144
3204.5698 5821.3306 13113.223 262144
3094.4846 5487.8857 12362.099 0
3163.4761 5480.1235 12344.614 2
3285.2334 5562.0483 12529.159 4806488
3477.7805 5757.5356 12969.517 4084053
3539.9097 5733.3169 12914.962 4741213
3810.0422 6039.8638 13605.493 5398112
3748.1912 5818.3296 13106.462 65794
3817.6753 5805.5371 13077.646 327680
4019.0254 5989.7827 13492.681 458752
4101.6392 5993.3223 13500.653 393216
4190.7949 6006.1016 13529.44 327680
4289.2622 6031.4927 13586.638 196608
4379.8066 6045.0107 13617.088 65536
4465.1714 6051.0195 13630.623 65536
4549.3291 6055.207 13640.056 0
4634.7832 6060.9438 13652.979 131072
4736.5244 6087.4141 13712.606 65536
4835.2749 6109.2119 13761.708 65536
4919.814 6112.6265 13769.4 65536
4992.4072 6101.3301 13743.954 196608
5037.4243 6057.2388 13644.633 196608
5116.7046 6055.0923 13639.797 262144
5165.5728 6017.583 13555.304 196608
5229.3184 5998.2915 13511.848 196608
5299.9858 5987.4033 13487.32 65536
5370.5459 5976.7207 13463.256 65536
5411.6211 5934.02 13367.068 0
5480.7642 5922.8862 13341.988 0
5537.2964 5898.6372 13287.364 0
5599.2778 5880.7935 13247.169 0
5651.8359 5853.6836 13186.102 0
5730.0513 5853.5264 13185.747 0
5769.1792 5813.9819 13096.669 0
5809.4868 5776.6636 13012.605 0
5849.1274 5739.6714 12929.275 65536
5887.6245 5702.5308 12845.612 65536
5940.7134 5680.293 12795.52 65536
5997.8271 5662.418 12755.253 65536
6047.3306 5637.8936 12700.009 65536
6099.7959 5616.7007 12652.271 65536
6143.4282 5587.9902 12587.597 65536
6192.5752 5564.9263 12535.642 65536
6275.1157 5572.0625 12551.717 65536
6341.5728 5564.9175 12535.622 196608
6415.3237 5564.2651 12534.152 196608
6483.8135 5559.1162 12522.554 196608
6499.3335 5509.1846 12410.077 131072
6576.6313 5512.1519 12416.762 131072
6601.1753 5471.3291 12324.803 131072
6672.4268 5469.6899 12321.111 131072
6746.7861 5470.6074 12323.178 65536
6803.5112 5457.3589 12293.334 131072
6886.9043 5465.5566 12311.801 196608
7012.5576 5506.7681 12404.634 196608
7100.8984 5518.126 12430.219 65536
7192.8101 5531.9961 12461.463 65536
7267.2793 5532.3057 12462.16 65536
7348.4878 5537.687 12474.282 0
7505.9634 5599.8608 12614.336 0
7572.3628 5593.5293 12600.073 0
7698.6626 5631.1353 12684.785 0
7806.2588 5654.4634 12737.335 0
7898.063 5666.0146 12763.355 65536
8011.9448 5693.0342 12824.22 65536
8098.6787 5700.4355 12840.893 65536
8194.5527 5714.0723 12871.61 65536
8289.7959 5727.0205 12900.778 65536
8399.9609 5749.9458 12952.42 65536
8507.7021 5770.8105 12999.421 65536
8602.7617 5782.7759 13026.373 65536
8727.8633 5814.5405 13097.928 65536
8862.2236 5851.8589 13181.991 65536
8971.959 5872.4048 13228.272 0
9027.085 5857.1606 13193.934 0
9169.9189 5898.5977 13287.275 0
9294.9209 5927.9541 13353.404 0
9416.998 5954.9653 13414.25 0
9544.374 5984.8442 13481.556 0
9692.3008 6027.0054 13576.528 0
9818.3594 6054.9844 13639.555 0
9961.7568 6093.1104 13725.438 0
10070.302 6109.4727 13762.296 0
10154.529 6110.937 13765.595 0
10300.05 6148.9692 13851.266 0
10407.958 6164.1221 13885.399 0
10558.877 6204.3091 13975.926 0
10750.319 6267.4941 14118.258 0
10953.612 6336.5566 14273.828 0
11152.942 6402.2817 14421.883 0
11357.347 6469.8955 14574.19 0
11572.419 6542.5171 14737.779 0
11753.431 6594.9355 14855.857 0
11952.637 6656.7051 14995.001 0
12186.355 6736.6396 15175.062 0
12430.956 6821.3711 15365.93 0
12704.916 6920.8594 15590.039 0
12981.705 7020.437 15814.349 0
13248.778 7113.3667 16023.684 0
13529.97 7212.4956 16246.983 0
14759.673 7812.2651 17598.033 0
15690.149 8246.3291 18575.812 0
16089.939 8397.3613 18916.029 0
16296.909 8446.3604 19026.408 0
16481.062 8482.9424 19108.812 0
16674.912 8523.9805 19201.256 0
16837.924 8548.8047 19257.174 0
17007.082 8576.3916 19319.316 0
17319.412 8675.3242 19542.174 0
17455.172 8685.083 19564.156 0
17588.227 8693.376 19582.838 0
17804.328 8742.3379 19693.131 0
0 0 0 0
0 0 0 0
0 0 0 0
0 0 0 0
0 0 0 0
0 0 0 0
0 0 0 0
0 0 0 0
0 0 0 0
0 0 0 0
0 0 0 0
0 0 0 0
0 0 0 0
-10432.352 5131.5835 11406.772 0
-10554.374 5225.5635 11615.676 0
-10599.605 5282.5107 11742.262 0
-10584.547 5309.9668 11803.293 0
-10338.836 5221.3062 11606.213 0
-10638.786 5408.8735 12023.148 0
-10636.352 5444.2031 12101.681 0
-10571.04 5447.6108 12109.256 0
-10504.831 5450.6001 12115.9 0
-10439.189 5453.9268 12123.295 0
-10373.729 5457.395 12131.005 0
-10622.018 5627.1235 12508.286 0
-10655.601 5684.7002 12636.271 0
-10588.985 5689.2593 12646.406 0
-10510.506 5687.4644 12642.416 0
-10437.602 5688.6816 12645.122 0
-10363.084 5689.0322 12645.9 0
-10288.583 5689.3955 12646.708 0
-10215.212 5690.394 12648.928 0
-10272.433 5764.6934 12814.084 0
-10194.442 5763.6577 12811.782 0
-10125.413 5767.7109 12820.792 0
-10054.812 5770.9233 12827.933 0
-9981.4766 5772.6035 12831.668 0
-9907.6221 5774.0073 12834.788 0
-9833.9863 5775.5615 12838.242 0
-9757.8789 5775.6763 12838.498 0
-9683.0068 5776.5303 12840.396 0
-9609.2607 5778.0752 12843.83 0
-9533.0596 5778.1567 12844.012 0
-9455.7061 5777.5347 12842.629 0
-9379.1484 5777.3936 12842.314 0
-9302.6523 5777.2881 12842.081 0
-9225.5039 5776.7725 12840.935 0
-9148.0879 5776.0791 12839.394 0
-9071.4717 5775.8833 12838.958 0
-8995.3955 5776.0312 12839.287 0
-8920.334 5776.8394 12841.083 0
-8846.2734 5778.314 12844.361 0
-8770.8467 5778.9146 12845.696 0
-8696.3945 5780.1738 12848.495 0
-8619.4961 5779.8154 12847.698 0
-8543.8193 5780.2764 12848.723 0
-8467.9395 5780.6069 12849.458 0
-8391.251 5780.3862 12848.968 0
-8314.6211 5780.2021 12848.559 0
-8239.4336 5781.0278 12850.394 0
-8167.1694 5783.9385 12856.863 0
-8097.4771 5788.7427 12867.543 0
-8028.0757 5793.8486 12878.893 0
-7958.6616 5799.0444 12890.441 0
-7889.73 5804.6948 12903.002 0
-7819.1968 5809.2666 12913.165 0
-7744.8569 5811.0728 12917.18 0
-7669.1045 5811.8447 12918.896 0
-7588.0718 5808.5913 12911.663 0
-7509.3457 5807.0542 12908.246 0
-7430.2188 5805.1719 12904.062 0
-7352.2808 5804.1895 12901.879 0
-7274.9497 5803.6704 12900.725 0
-7197.8467 5803.3237 12899.954 0
-7122.6538 5804.5269 12902.629 0
-7049.3418 5807.3057 12908.805 0
-6970.8013 5805.7905 12905.438 0
-6892.1592 5804.1558 12901.804 0
-6813.7827 5802.7114 12898.593 0
-6735.0273 5800.9072 12894.582 0
-6655.2969 5798.2119 12888.591 0
-6578.2188 5797.7915 12887.657 0
-6516.189 5810.7808 12916.53 0
-6478.0181 5845.6089 12993.948 0
-6410.2734 5854.2695 13013.2 0
-6346.5591 5866.8672 13041.203 0
-6288.8599 5885.4053 13082.41 0
-6217.0083 5890.9976 13094.841 0
-6164.8799 5915.6577 13149.657 0
-6109.8657 5938.146 13199.645 0
-6051.9121 5958.3257 13244.501 0
-5995.3311 5980.4062 13293.583 0
-5940.9663 6005.3164 13348.955 0
-5885.79 6030.0698 13403.979 0
-5824.8516 6049.5186 13447.21 0
-5765.2334 6070.8984 13494.734 0
-5702.79 6089.8638 13536.892 0
-5644.6528 6114.0371 13590.625 0
-5593.6167 6146.7148 13663.264 0
-5537.5723 6174.7715 13725.629 0
-5443.5962 6160.7378 13694.435 0
-5373.4307 6173.6348 13723.103 0
-5303.3501 6187.0278 13752.874 0
-5246.4751 6216.4878 13818.359 0
-5189.353 6246.5879 13885.267 2
-5130.3926 6275.4116 13949.338 65536
-5066.8169 6299.4443 14002.758 65536
-5007.2349 6329.3281 14069.186 0
-4949.7983 6362.9839 14143.998 0
-4880.8975 6382.8105 14188.071 0
-4833.8262 6432.3843 14298.265 0
-4817.7954 6525.7764 14505.862 0
-4750.2783 6551.5625 14563.181 0
-4675.5029 6568.1084 14599.961 0
-4602.7036 6588.1094 14644.42 0
-4531.6157 6611.3774 14696.143 0
-4456.02 6628.8555 14734.993 0
-4386.7974 6656.7046 14796.896 0
-4345.7271 6729.2856 14958.234 0
-4277.2852 6761.6289 15030.129 0
-4196.3481 6775.1782 15060.248 0
-4121.623 6799.5679 15114.461 0
-4036.0891 6806.8135 15130.567 0
-3943.4141 6802.0713 15120.027 0
-3868.1533 6827.8477 15177.324 0
-3775.8459 6824.0459 15168.874 0
-3702.7466 6855.623 15239.064 0
-3625.501 6880.9136 15295.281 0
-3544.9661 6901.1006 15340.155 0
-3468.3345 6930.1543 15404.736 0
-3385.9685 6949.0146 15446.66 0
-3301.7917 6965.106 15482.43 0
-3220.6389 6988.6821 15534.835 0
-3138.7231 7011.9448 15586.545 0
-3065.1367 7055.7964 15684.021 0
-2988.5059 7095.1709 15771.545 0
-2911.8628 7137.0659 15864.671 0
-2825.9917 7158.3896 15912.07 0
-2753.7329 7216.8643 16042.051 256
-2669.9319 7248.1987 16111.704 256
-2585.3108 7279.5552 16181.405 256
-2501.1785 7314.7651 16259.671 0
-2407.9495 7325.1318 16282.715 0
-2314.7849 7336.5713 16308.143 0
-2220.3967 7344.9624 16326.796 0
-2105.0847 7281.7422 16186.267 65538
-2024.6558 7338.9116 16313.345 65536
-1933.6643 7361.6182 16363.818 196608
-1848.9142 7411.75 16475.254 196608
-1756.4932 7435.0181 16526.977 65536
-1660.7008 7445.9282 16551.227 65536
-1579.2489 7526.5552 16730.451 0
-1480.6913 7531.0176 16740.369 0
-1376.8032 7507.0581 16687.111 65536
-1291.3818 7587.8843 16866.775 65536
-1182.1899 7530.8911 16740.088 65536
-1093.5038 7606.0527 16907.162 65536
-990.90558 7589.8682 16871.186 196608
-888.14484 7568.6528 16824.027 196608
-793.7663 7622.5493 16943.832 196608
-693.00708 7621.9321 16942.459 196608
-596.26221 7672.7603 17055.443 196608
-493.30432 7648.0864 17000.596 196608
-389.91403 7602.269 16898.752 196608
-286.06937 7512.729 16699.717 196608
-184.84395 7433.3765 16523.326 196608
-86.493172 7420.7686 16495.301 196608
11.589723 7450.1011 16560.504 131072
109.58468 7420.9941 16495.803 65536
208.4921 7451.9888 16564.699 131072
307.95905 7476.6846 16619.596 131072
407.9238 7498.5371 16668.17 131072
503.6929 7449.7949 16559.822 65536
601.69757 7444.6465 16548.379 65536
646.55432 6875.7456 15283.795 65536
785.1806 7321.355 16274.319 65536
891.23096 7398.7808 16446.426 65536
985.12939 7369.9907 16382.429 65536
1078.1672 7340.5205 16316.922 65536
1182.681 7387.5977 16421.568 0
1272.0897 7340.3369 16316.515 0
1360.2126 7292.8779 16211.02 256
1442.8264 7224.1133 16058.166 256
1452.7284 6822.4082 15165.231 723978
1654.1859 7314.6797 16259.48 256
1754.2999 7329.2109 16291.782 0
1810.4396 7168.1147 15933.688 0
1886.8707 7099.3789 15780.899 0
1954.9224 7007.1191 15575.818 65536
2026.6376 6935.7402 15417.152 196608
2101.4729 6880.7515 15294.921 327680
2171.8655 6816.3799 15151.833 524288
2251.8562 6786.0586 15084.433 655360
2310.3337 6695.709 14883.6 851968
2370.0542 6615.4941 14705.292 786432
2445.7761 6584.0596 14635.419 589824
2507.5173 6518.4414 14489.559 458752
2575.572 6473.0479 14388.654 262144
2641.625 6425.7021 14283.413 196608
2695.2185 6351.9424 14119.454 196608
2734.1182 6249.0518 13890.744 262144
2775.3015 6157.2598 13686.703 262144
2753.9104 5935.8208 13194.477 262144
2672.3416 5600.5273 12449.167 262144
2710.7383 5527.9438 12287.824 262144
2771.3699 5503.3218 12233.093 131072
2724.5376 5272.0146 11718.931 65536
2797.4082 5278.0918 11732.439 65536
3140.7197 5781.7266 12851.946 0
3218.4268 5784.1045 12857.232 2
3282.8184 5762.998 12810.315 330251
3288.5396 5642.186 12541.769 4280920
3388.6682 5685.1157 12637.194 3888217
3555.415 5835.5239 12971.531 4149592
3582.6018 5755.3496 12793.314 5003869
3728.4006 5865.0938 13037.26 2
3809.7759 5871.0889 13050.586 196609
4012.0276 6059.4053 13469.187 393216
4096.6289 6066.1421 13484.162 327680
4191.1265 6086.9932 13530.51 131072
4289.4707 6112.5396 13587.297 65536
4383.207 6130.6982 13627.661 0
4460.8164 6126.0503 13617.329 0
4534.5918 6116.3965 13595.87 0
4628.5776 6133.8643 13634.698 0
4751.0244 6187.7983 13754.586 0
4846.2168 6205.0122 13792.85 0
4909.1602 6181.0488 13739.582 0
4971.3931 6156.9897 13686.103 65536
5013.3677 6109.0195 13579.472 65536
5084.7842 6097.8774 13554.705 196608
5121.3906 6045.9888 13439.363 196608
5180.4663 6021.8115 13385.621 131072
5229.168 5986.4897 13307.105 65536
5294.96 5971.4932 13273.771 65536
5343.2007 5937.4351 13198.064 0
5421.7007 5937.4995 13198.208 0
5461.7578 5896.0635 13106.102 0
5522.3228 5877.6191 13065.103 0
5575.0186 5851.4277 13006.883 0
5661.4014 5860.8262 13027.773 0
5701.6738 5822.8794 12943.424 0
5728.6548 5772.5508 12831.55 0
5771.7578 5739.5762 12758.253 65536
5814.5557 5707.1577 12686.19 65536
5872.9683 5690.6987 12649.605 65536
5913.8696 5657.9033 12576.705 65536
5961.4863 5632.27 12519.727 65536
6006.6191 5604.9517 12459.002 65536
6035.208 5563.0493 12365.858 65536
6094.0435 5549.6992 12336.184 65536
6177.8486 5559.1357 12357.16 65536
6233.083 5542.9434 12321.166 196608
6064.0977 5330.0488 11847.933 196608
6391.8125 5553.6064 12344.868 196608
5839.1509 5015.8438 11149.499 1249285
6593.5986 5600.3604 12448.796 460034
6621.5059 5561.6553 12362.761 1709837
6730.6895 5591.3188 12428.697 1710098
6776.2437 5568.0532 12376.981 1184011
6741.7056 5480.1821 12181.656 591876
6938.8457 5580.5034 12404.656 197377
6944.0845 5526.0029 12283.51 263427
7030.0479 5536.2075 12306.193 131585
7160.6777 5581.0156 12405.795 0
7278.8125 5615.2695 12481.938 0
7372.2231 5629.9521 12514.574 0
7451.8154 5633.894 12523.337 0
7579.2715 5673.5874 12611.569 256
7642.0605 5664.5693 12591.523 256
7758.0259 5694.7603 12658.634 256
7979.0298 5800.7349 12894.199 256
8108.3672 5838.6851 12978.558 0
8243.4922 5880.0483 13070.502 0
8455.7109 5975.1167 13281.825 65536
8537.5879 5977.1738 13286.398 65536
8632.2021 5988.0283 13310.526 65536
8877.7891 6102.4629 13564.898 65536
8967.5762 6108.7075 13578.778 65536
8951.1152 6043.1094 13432.963 65536
9209.2607 6162.4258 13698.187 65536
9242.8477 6130.7031 13627.672 0
9350.9658 6148.5376 13667.315 0
9462.9443 6168.5825 13711.872 0
9758.3232 6306.8159 14019.146 0
9865.1562 6321.8833 14052.638 0
9702.4346 6165.4097 13704.819 0
9895.7178 6235.8809 13861.466 0
10023.675 6264.3618 13924.776 0
10300.378 6384.5757 14191.994 0
10295.115 6329.4834 14069.531 0
10421.547 6355.5918 14127.566 0
10594.028 6409.1421 14246.602 0
10696.158 6419.6201 14269.892 0
10577.925 6298.7153 14001.139 0
10874.227 6424.6094 14280.983 0
10922.102 6402.9185 14232.767 0
11122.229 6470.1294 14382.167 0
11325.013 6537.8486 14532.698 0
11536.645 6609.6133 14692.22 0
11722.228 6665.4863 14816.418 0
11948.464 6743.4712 14989.768 0
12190.666 6829.2451 15180.431 0
0 0 0 0
0 0 0 0
12943.498 7093.4883 15767.805 0
13217.075 7191.3516 15985.34 0
15800.038 8535.377 18972.914 0
15301 8207.2158 18243.461 0
16109.377 8580.0166 19072.143 0
16287.712 8614.3848 19148.539 0
16318.935 8571.0098 19052.123 0
16455.053 8582.9463 19078.656 0
16639.9 8619.9639 19160.939 0
16816.133 8652.0439 19232.25 0
16970.736 8672.6387 19278.029 0
17363.049 8813.6201 19591.41 0
17397.16 8772.1094 19499.137 0
17506.303 8768.7295 19491.625 0
17787.322 8850.9189 19674.32 0
18155.656 8975.1992 19950.578 65536
0 0 0 0
0 0 0 0
0 0 0 0
0 0 0 0
0 0 0 0
0 0 0 0
0 0 0 0
0 0 0 0
0 0 0 0
0 0 0 0
0 0 0 0
0 0 0 0
-10381.025 5173.7979 11350.652 0
-10537.955 5286.3633 11597.606 0
-10503.288 5303.6631 11635.561 0
-10562.659 5368.9922 11778.885 0
-10324.403 5282.9009 11590.011 0
-10579.804 5449.9482 11956.491 0
-10622.617 5509.0049 12086.055 0
-10557.212 5512.3604 12093.416 0
-10490.981 5515.3281 12099.927 0
-10423.888 5517.8794 12105.524 0
-10358.839 5521.5566 12113.592 0
-10528.308 5651.1646 12397.935 0
-10455.045 5651.3936 12398.437 0
-10387.684 5654.8369 12405.992 0
-10316.273 5656.1108 12408.786 0
-10327.384 5702.9717 12511.594 0
-10169.761 5656.6597 12409.99 0
-10177.967 5702.5825 12510.739 0
-10104.618 5703.1504 12511.985 0
-10033.896 5705.2217 12516.528 0
-9961.6953 5706.4751 12519.279 0
-9889.7324 5707.8857 12522.373 0
-9821.3496 5711.3994 12530.082 0
-9749.8555 5713.1426 12533.907 0
-9678.0391 5714.7231 12537.375 0
-9607.0645 5716.8301 12541.996 0
-9533.5439 5717.4419 12543.339 0
-9461.2969 5718.834 12546.393 0
-9389.6572 5720.6177 12550.306 0
-9316.2285 5721.3315 12551.872 0
-9242.9004 5722.1191 12553.6 0
-9169.1943 5722.6831 12554.837 0
-9095.3086 5723.144 12555.849 0
-9020.8311 5723.2368 12556.052 0
-9032.5371 5778.4663 12677.218 0
-8958.084 5779.0415 12678.48 0
-8883.6904 5779.665 12679.849 0
-8809.0752 5780.1543 12680.922 0
-8733.2725 5779.8657 12680.289 0
-8659.0703 5780.6416 12681.99 0
-8585.9385 5782.1514 12685.303 0
-8509.6943 5781.5732 12684.034 0
-8435.0684 5782.0933 12685.176 0
-8360.0186 5782.3306 12685.696 0
-8285.0166 5782.6055 12686.299 0
-8210.3135 5783.0947 12687.373 0
-8135.813 5783.7388 12688.785 0
-8064.8232 5786.9131 12695.75 0
-7995.8149 5791.5825 12705.994 0
-7927.3613 5796.7471 12717.324 0
-7859.1362 5802.1792 12729.242 0
-7791.6465 5808.2656 12742.595 0
-7721.6377 5812.5752 12752.049 0
-7648.8203 5814.835 12757.007 0
-7573.8828 5815.5122 12758.492 0
-7496.5854 5814.3726 12755.992 0
-7418.8804 5812.8901 12752.74 0
-7340.6016 5810.9229 12748.425 0
-7262.9888 5809.4478 12745.188 0
-7185.9771 5808.4272 12742.949 0
-7109.5459 5807.8589 12741.702 0
-7034.7964 5808.667 12743.476 0
-6962.0596 5811.1729 12748.973 0
-6884.2241 5809.4312 12745.151 0
-6806.3765 5807.6406 12741.223 0
-6728.7715 5806.0186 12737.665 0
-6650.5635 5803.8335 12732.871 0
-6572.4604 5801.6914 12728.172 0
-6499.0938 5803.7285 12732.641 0
-6426.4102 5806.4312 12738.569 0
-6398.0107 5849.6865 12833.466 0
-6332.7842 5859.9082 12855.892 0
-6252.6411 5856.4092 12848.215 0
-6201.0376 5879.8848 12899.718 0
-6136.1582 5891.2026 12924.547 0
-6072.5552 5904.0479 12952.729 0
-6016.4009 5924.5586 12997.726 0
-5956.6958 5942.0601 13036.122 0
-5899.9097 5962.9731 13082.003 0
-5841.0957 5982.3677 13124.553 0
-5795.6626 6016.1782 13198.728 0
-5740.8633 6041.0596 13253.314 0
-5668.21 6047.5845 13267.63 0
-5623.6685 6084.71 13349.078 0
-5569.5469 6112.3843 13409.792 0
-5509.8315 6134.6343 13458.605 0
-5466.7378 6176.3184 13550.056 0
-5374.0581 6162.3896 13519.498 65536
-5299.9258 6169.6294 13535.38 65536
-5234.667 6187.5806 13574.763 65536
-5168.4106 6204.896 13612.751 65536
-5113.1655 6236.1919 13681.41 65536
-5056.4077 6266.625 13748.176 65536
-4992 6288.4209 13795.993 65536
-4924.1875 6306.5835 13835.841 65536
-4862.3047 6333.0874 13893.986 65536
-4796.02 6354.6743 13941.345 0
-4733.9473 6382.6987 14002.826 0
-4698.8984 6448.814 14147.876 0
-4643.9609 6489.5464 14237.238 0
-4567.2329 6500.7749 14261.871 0
-4495.1143 6519.1133 14302.104 0
-4424.792 6540.814 14349.711 0
-4365.8701 6580.5503 14436.888 0
-4299.2368 6610.0239 14501.551 0
-4231.7568 6639.375 14565.943 0
-4166.2773 6673.1562 14640.055 0
-4114.3872 6730.6094 14766.1 0
-4052.1492 6773.2705 14859.692 0
-3958.5752 6764.2856 14839.981 0
-3871.9473 6767.0322 14846.006 0
-3803.8889 6803.1172 14925.173 0
-3722.2036 6815.9727 14953.375 0
-3650.6863 6848.5312 15024.804 0
-3577.5535 6879.6157 15092.999 0
-3485.7031 6875.3794 15083.707 0
-3414.9126 6913.5571 15167.463 0
-3330.5569 6925.5962 15193.875 0
-3241.5359 6928.3345 15199.884 0
-3160.3464 6948.4502 15244.014 0
-3078.3416 6967.9053 15286.697 0
-3005.9014 7010.8535 15380.92 0
-2931.7717 7052.4316 15472.137 0
-2853.5063 7086.4316 15546.728 0
-2771.5261 7113.1733 15605.396 0
-2700.8989 7171.9131 15734.264 256
-2602.9619 7159.7476 15707.573 256
-2530.0415 7218.0474 15835.477 256
-2445.7297 7247.0986 15899.21 0
-2355.072 7258.9238 15925.153 0
-2264.4941 7271.9961 15953.833 0
-2185.6523 7325.5469 16071.316 0
-2086.7993 7313.8564 16045.669 65536
-2007.5295 7372.9683 16175.353 65536
-1893.3589 7303.4014 16022.731 65536
-1810.1935 7352.3975 16130.224 65536
-1725.6611 7401.0117 16236.877 131072
-1622.9315 7372.7178 16174.804 131072
-1534.1323 7408.1289 16252.49 196608
-1432.4475 7381.895 16194.937 131072
-1336.562 7383.9204 16199.38 131072
-1246.4382 7420.561 16279.766 65536
-1141.7013 7369.0508 16166.759 65536
-1053.0265 7421.272 16281.325 196608
-953.0929 7396.6851 16227.385 196608
-856.9931 7399.6655 16233.924 196608
-767.98517 7472.4048 16393.504 196608
-671.03149 7477.7383 16405.205 196608
-572.77069 7467.8428 16383.494 196608
-473.25662 7434.2056 16309.699 196608
-373.9263 7386.8696 16205.851 262144
-273.22809 7270.2896 15950.088 262144
-177.74628 7242.3809 15888.861 196608
-83.145309 7227.7773 15856.823 196608
11.133452 7251.3516 15908.542 196608
105.4408 7234.7061 15872.023 196608
198.4353 7186.2363 15765.687 196608
289.68329 7125.8965 15633.309 196608
383.21863 7137.4663 15658.691 196608
477.24484 7151.8716 15690.294 196608
563.93329 7069.5781 15509.754 196608
649.80511 7001.6104 15360.641 196608
736.67261 6959.7944 15268.902 262144
849.16107 7142.6597 15670.085 196608
953.52545 7227.7969 15856.864 196608
1027.5149 7088.0835 15550.352 196608
1133.8712 7176.2793 15743.842 196608
1225.8444 7166.937 15723.346 65536
1313.0935 7133.2559 15649.454 0
1393.7214 7070.4399 15511.644 0
1433.3213 6820.1948 14962.638 65792
1532.271 6865.0947 15061.143 0
1960.0096 8296.8184 18202.162 0
2007.5663 8053.6128 17668.6 0
1945.6565 7417.2749 16272.557 0
1988.5601 7221.854 15843.827 131072
1980.7491 6868.251 15068.067 196608
2051.0339 6804.3232 14927.818 327680
2113.0093 6719.2729 14741.229 458752
2193.3208 6696.981 14692.323 524288
2259.749 6635.6294 14557.725 589824
2328.6199 6585.71 14448.208 589824
2402.8403 6553.9331 14378.493 589824
2475.6792 6520.7002 14305.584 393216
2530.6526 6444.1802 14137.71 327680
2573.8884 6343.6494 13917.158 262144
2629.2561 6278.3481 13773.896 262144
2509.3115 5811.0073 12748.609 262144
2661.2141 5982.147 13124.068 262144
2828.5732 6177.2959 13552.199 262144
2893.8706 6144.918 13481.167 262144
2946.9575 6089.0547 13358.609 196608
2998.3621 6032.7378 13235.058 196608
3062.2302 6003.7363 13171.433 0
3121.1216 5966.667 13090.106 0
3169.7644 5912.2842 12970.798 0
3217.9294 5859.6138 12855.246 3
3246.7898 5775.0503 12669.724 3490113
3274.3567 5692.0703 12487.677 3886675
3395.0352 5771.0454 12660.938 3887447
3500.0662 5820.5737 12769.597 4084056
3486.4983 5674.957 12450.133 5134943
3710.0439 5913.3198 12973.07 2
3896.7363 6084.4341 13348.473 131073
4019.7161 6151.2231 13494.999 262144
4104.2842 6157.7681 13509.358 65536
4074.7017 5996.0854 13154.647 2303014
4162.7847 6010.3809 13186.009 1777955
4118.4556 5836.4971 12804.531 329993
4182.0015 5819.0269 12766.203 0
4573.9087 6250.9336 13713.752 256
4649.2158 6242.6108 13695.492 132869
4571.689 6032.8916 13235.396 1186840
4863.2173 6309.042 13841.234 1026
4996.418 6374.0244 13983.796 769
5041.3628 6326.1318 13878.728 257
5065.4521 6254.0327 13720.551 0
5118.9399 6219.9395 13645.755 65536
5161.9976 6174.4346 13545.922 65536
5200.3335 6124.7656 13436.955 65536
5308.8521 6158.0078 13509.884 65536
5338.4097 6100.0327 13382.694 65536
5364.1636 6039.4775 13249.845 0
5427.3159 6022.1724 13211.878 0
5463.3149 5975.6606 13109.838 0
5529.5356 5963.0479 13082.167 0
5597.2236 5952.3462 13058.688 0
5665.2935 5942.3364 13036.729 0
5693.3091 5891.1514 12924.436 0
5731.9873 5852.2153 12839.015 0
5772.0117 5815.6587 12758.814 65536
5798.4966 5766.5854 12651.153 65536
5840.5537 5734.0562 12579.789 65536
5885.5776 5705.2261 12516.538 65536
5910.708 5658.0708 12413.087 65536
5944.0698 5619.8618 12329.261 65536
5954.0425 5560.7393 12199.554 65536
5999.2749 5535.5737 12144.344 65536
6047.7324 5513.9468 12096.896 65536
6104.8013 5500.5874 12067.587 196608
5841.1426 5201.9092 11412.326 196608
5811.6328 5116.2192 11224.333 196608
6244.2388 5434.6772 11922.989 459520
6439.5928 5541.813 12158.031 327680
5867.8701 4993.7617 10955.677 458752
6731.7666 5666.0933 12430.687 393216
6532.7456 5438.8877 11932.227 393216
6105.5122 5028.6021 11032.112 327680
6690.5469 5451.8984 11960.77 262144
6607.8682 5327.9175 11688.771 196608
7033.2261 5611.8833 12311.757 196608
7118.9287 5621.7783 12333.465 394243
7233.5239 5654.0547 12404.275 394242
7272.6445 5627.2808 12345.537 855049
7389.7661 5660.793 12419.059 1052684
7494.3433 5684.1279 12470.252 920843
7593.1416 5702.666 12510.922 986892
7686.9248 5717.1143 12542.62 1052942
6600.5059 4861.9458 10666.489 526597
7873.3423 5744.3481 12602.367 263681
7971.8188 5761.3872 12639.749 395010
8010.7183 5735.4521 12582.852 131585
8095.1738 5742.313 12597.902 0
8181.3335 5750.2456 12615.306 0
8373.4482 5831.8281 12794.287 0
8473.5684 5848.4468 12830.747 0
8606.2178 5887.022 12915.376 0
8747.3213 5930.646 13011.081 65536
8810.4951 5921.1318 12990.209 0
8960.0625 5969.3413 13095.975 0
9128.8594 6029.4204 13227.78 0
9304.7197 6093.0991 13367.482 0
9234.7422 5996.0781 13154.632 0
9411.8018 6059.7393 13294.296 0
9531.6934 6085.8403 13351.558 0
9677.9922 6128.231 13444.558 0
9806.6328 6158.8384 13511.706 0
10041.511 6255.126 13722.949 0
10098.825 6240.1445 13690.081 0
10105.868 6194.5874 13590.135 0
10244.92 6230.0283 13667.889 0
10363.034 6252.2798 13716.705 0
10476.801 6271.5811 13759.05 0
10637.731 6318.5981 13862.199 0
10783.102 6355.7217 13943.643 0
10968.204 6415.5176 14074.828 0
11144.268 6469.1616 14192.517 0
11349.284 6538.6816 14345.033 0
11542.466 6600.3965 14480.429 0
11766.864 6678.9165 14652.69 0
11996.414 6759.1855 14828.791 0
12216.062 6832.7451 14990.171 0
12487.118 6933.7856 15211.841 0
12830.191 7073.0752 15517.425 0
13175.757 7211.7407 15821.64 0
13992.845 7604.6992 16683.74 0
15094.414 8145.647 17870.512 0
15101.81 8092.6948 17754.34 0
15493.441 8244.9502 18088.371 0
15890.585 8398.0225 18424.189 0
16271.785 8540.6299 18737.053 0
16443.541 8572.1143 18806.127 0
16756.096 8676.0771 19034.207 0
