# .PCD v0.7 - Point Cloud Data file format
VERSION 0.7
FIELDS x y z rgb
SIZE 4 4 4 4
TYPE F F F U
COUNT 1 1 1 1
WIDTH 1438
HEIGHT 1
VIEWPOINT 0 0 0 1 0 0 0
POINTS 1438
DATA ascii
-4559.8447 5887.1504 15078.315 0
-4486.6821 5908.8184 15133.812 0
-4406.6626 5922.1582 15167.979 0
-4323.1597 5931.2759 15191.331 0
-4250.96 5956.6211 15256.245 256
-4174.75 5977.3291 15309.283 3
-4098.6899 5999.1792 15365.247 256
-4016.9111 6013.4644 15401.833 256
-3936.8643 6031.0684 15446.922 256
-3848.1602 6035.9346 15459.385 0
-3746.2793 6019.8652 15418.228 0
-3649.5759 6011.5181 15396.849 0
-3565.5828 6024.2158 15429.371 0
-3488.5405 6049.6387 15494.484 0
-3410.3203 6074.3408 15557.753 0
-3334.9131 6105.5703 15637.738 0
-3260.3967 6140.2686 15726.608 0
-3198.1565 6200.8169 15881.686 0
-3130.0789 6253.3853 16016.325 0
-3042.9651 6270.0269 16058.948 0
-2960.7371 6298.1401 16130.952 0
-2872.8987 6315.8008 16176.186 0
-2783.1577 6330.3569 16213.467 0
-2668.325 6286.8384 16102.006 0
-2575.7549 6294.4868 16121.595 0
-2494.7393 6332.0532 16217.812 0
-2408.6321 6359.1963 16287.331 256
-2328.9219 6406.209 16407.74 256
-2239.9785 6430.8232 16470.783 256
-2073.9048 6226.1309 15946.521 2
-2004.2399 6305.127 16148.847 2
-1975.4258 6527.0444 16717.229 1
-1819.0348 6328.6147 16209.006 516
-1816.4633 6673.0732 17091.24 260
-1750.7911 6812.7969 17449.104 257
-1675.4362 6930.0645 17749.453 257
-1579.2994 6971.3564 17855.211 1
-1479.934 7003.3188 17937.074 2
-1369.5933 6984.2749 17888.299 2
-1277.9384 7065.334 18095.908 65536
-1163.111 7021.4028 17983.391 65536
-1062.5006 7063.0913 18090.164 131072
-956.21741 7072.21 18113.52 131072
-834.00543 6950.8862 17802.781 196608
-736.2572 7027.8198 17999.826 65536
-602.97046 6734.0146 17247.326 131072
-506.08282 6809.6245 17440.979 65536
-408.86359 6918.5737 17720.021 65536
-302.67697 6898.7339 17669.209 131072
-197.72752 6900.9937 17674.996 196608
-91.377602 6804.0967 17426.82 196608
12.106901 6754.3848 17299.498 65536
114.00575 6700.4297 17161.307 0
215.71872 6691.6631 17138.854 0
317.09558 6681.4385 17112.666 65792
415.0769 6622.0088 16960.453 65792
514.82843 6608.5264 16925.922 131584
607.44806 6522.8687 16706.533 131584
707.26483 6527.7056 16718.922 65792
806.50214 6526.6621 16716.248 0
883.32788 6364.3716 16300.586 131584
973.52832 6321.002 16189.507 131329
1062.0415 6275.4644 16072.875 65536
1172.4908 6356.3643 16280.077 65536
1249.5499 6257.7124 16027.407 0
1169.2596 5440.8501 13935.24 66306
1324.2081 5754.2725 14737.985 132099
1537.5148 6266.6616 16050.328 513
1626.6782 6242.7549 15989.1 256
1734.5275 6289.2417 16108.161 512
1827.3776 6279.3228 16082.758 256
1913.4287 6248.1895 16003.018 256
2003.6744 6233.0532 15964.251 256
2084.4561 6191.1758 15856.992 0
2134.4102 6065.3188 15534.645 0
2208.9563 6016.8843 15410.594 131072
2278.4761 5959.1606 15262.75 393216
2366.2888 5951.8687 15244.074 655360
2425.1101 5874.8818 15046.894 851968
2482.0044 5798.8687 14852.207 917504
2533.946 5716.9038 14642.275 917504
2589.2617 5647.7407 14465.134 917504
2647.0093 5588.1572 14312.526 851968
2699.4092 5521.3457 14141.407 589824
2746.1042 5447.2529 13951.64 458752
2798.8284 5389.1118 13802.728 393216
2865.1013 5359.6279 13727.212 524288
2925.5986 5321.2715 13628.972 524288
2961.4114 5241.293 13424.129 458752
2948.8784 5082.1904 13016.633 458752
3065.4333 5148.0098 13185.21 393216
3137.2979 5137.3662 13157.95 262144
3207.9148 5125.2476 13126.911 262144
3180.4985 4960.7959 12705.714 196608
3252.4575 4955.3794 12691.841 196608
3352.5662 4992.1235 12785.951 2
3467.2771 5048.501 12930.347 515
3457.4587 4925.0454 12614.148 3885900
3618.2397 5044.686 12920.574 4413530
3670.3726 5011.0205 12834.35 5070431
3697.7271 4945.5859 12666.757 3421496
3986.8928 5225.939 13384.805 65536
4137.3188 5317.0239 13618.093 262144
4216.2363 5314.4785 13611.574 393216
4306.7183 5326.3311 13641.931 262144
4296.6284 5215.6616 13358.482 262144
4409.9609 5256.1123 13462.085 196608
4483.6997 5248.7715 13443.283 196608
4647.3091 5345.0508 13689.876 196608
4546.2344 5138.8315 13161.702 196608
4677.4966 5197.7681 13312.653 789000
4747.0811 5187.3467 13285.961 723719
4771.5967 5128.8228 13136.068 65536
5151.7637 5448.3071 13954.339 131072
5218.1924 5431.127 13910.337 131072
5314.0244 5444.6074 13944.864 196608
5367.3608 5414.8042 13868.531 196608
5401.5615 5366.8892 13745.81 196608
5426.9033 5311.731 13604.537 131072
5480.689 5285.6235 13537.67 65536
5465.2368 5194.4644 13304.19 0
5504.625 5157.2847 13208.966 0
5544.5117 5121.6123 13117.6 0
5587.9214 5090.1372 13036.985 0
5617.373 5046.9824 12926.456 0
5672.6621 5027.8931 12877.564 0
5711.5254 4994.9473 12793.183 0
5736.5405 4950.9155 12680.407 0
5778.3638 4922.3433 12607.228 0
5820.7827 4895.0039 12537.205 65536
5849.4736 4856.9565 12439.757 65536
5880.4111 4821.7012 12349.461 65536
5921.3848 4795.4434 12282.208 65536
5957.917 4766.2715 12207.492 65536
5981.1089 4727.2583 12107.57 65536
6036.8467 4714.5894 12075.123 65536
6116.833 4720.9331 12091.371 196608
6175.6177 4710.9565 12065.818 196608
6255.1299 4716.8384 12080.884 196608
6296.6553 4694.2676 12023.075 196608
6321.7524 4660.0938 11935.547 196608
6393.8022 4660.9048 11937.625 196608
6409.1694 4620.8311 11834.987 196608
6490.9067 4628.9595 11855.807 196608
6584.3057 4645.1406 11897.25 196608
6624.0557 4623.5312 11841.902 196608
6725.3032 4644.8496 11896.504 196608
6787.6543 4639.1401 11881.881 131072
6875.0005 4650.4556 11910.862 65536
6913.377 4628.7529 11855.277 65536
7013.6899 4648.5391 11905.954 65536
7109.5288 4664.9941 11948.099 0
7162.4194 4653.2212 11917.945 0
7291.6484 4690.7881 12014.163 0
7382.8862 4703.4238 12046.525 0
7446.0952 4698.1313 12032.971 0
7523.415 4701.7588 12042.261 65536
7645.3911 4732.9624 12122.181 65536
7753.042 4754.7983 12178.106 65536
7928.3115 4817.3149 12338.227 0
8058.1284 4851.3228 12425.327 65536
8152.5039 4863.5684 12456.692 65536
8234.5078 4868.2798 12468.76 65536
8416.21 4931.3237 12630.229 65536
8521.3906 4948.814 12675.024 0
8631.5254 4968.8477 12726.336 0
8650.7646 4936.6646 12643.907 0
8786.2578 4970.8047 12731.348 65536
8927.7617 5007.7339 12825.933 65536
9060.0029 5038.8857 12905.72 65536
9202.4609 5075.1499 12998.6 65536
9308.0488 5090.6455 13038.287 0
9451.9375 5126.6587 13130.525 0
9596.4385 5162.4121 13222.098 0
9737.6777 5195.8438 13307.724 0
9850.2607 5213.5698 13353.124 0
9997.8418 5249.3877 13444.862 0
10115.807 5269.2119 13495.636 0
10219.378 5281.2852 13526.559 0
10378.667 5321.7397 13630.172 0
10471.078 5327.541 13645.03 0
10575.752 5339.4448 13675.518 0
10707.557 5364.7593 13740.354 0
10821.481 5380.8008 13781.44 0
10952.099 5404.8389 13843.007 0
11104.58 5439.228 13931.086 0
11292.714 5490.4419 14062.256 0
11557.732 5578.0093 14286.536 0
11806.479 5656.5044 14487.579 0
12068.118 5739.9941 14701.415 0
12332.044 5823.3633 14914.942 0
12593.321 5904.3013 15122.242 0
14851.692 6913.7822 17707.75 0
15115.149 6986.9155 17895.061 0
16225.748 7447.8789 19075.691 0
16433.039 7490.6895 19185.34 0
16644.727 7534.8999 19298.572 0
16795.324 7551.0405 19339.912 0
16970.898 7578.1133 19409.252 0
17153.879 7608.1064 19486.07 0
17378.699 7656.1294 19609.068 0
17625.977 7713.3408 19755.6 65536
17746.877 7714.856 19759.48 65536
17905.768 7732.7583 19805.332 65536
0 0 0 0
0 0 0 0
0 0 0 0
0 0 0 0
0 0 0 0
0 0 0 0
0 0 0 0
0 0 0 0
0 0 0 0
0 0 0 0
0 0 0 0
0 0 0 0
0 0 0 0
0 0 0 0
-10148.28 4427.085 11168.747 0
-10122.022 4444.7036 11213.194 0
-10113.478 4470.3843 11277.982 0
-10047.502 4470.853 11279.165 0
-9983.9785 4472.4263 11283.135 0
-9919.5547 4473.6152 11286.134 0
-9854.4385 4474.5054 11288.38 0
-9766.8086 4465.1157 11264.691 0
-9796.958 4509.8135 11377.456 0
-9909.0771 4593.1274 11587.642 0
-9735.4697 4544.2383 11464.304 0
-9925.3926 4665.5425 11770.332 0
-9929.1895 4700.4565 11858.414 0
-9861.8896 4701.9717 11862.237 0
-9793.0088 4702.7505 11864.201 0
-9726.291 4704.5859 11868.831 0
-9861.791 4804.9756 12122.097 0
-9974.0547 4895.4375 12350.316 0
-9907.7705 4898.9575 12359.196 0
-9832.3135 4897.96 12356.68 0
-9760.624 4898.8379 12358.896 0
-9688.3057 4899.4121 12360.344 0
-9615.9453 4899.9736 12361.76 0
-9541.8691 4899.6626 12360.976 0
-9470.7305 4900.8667 12364.013 0
-9397.0586 4900.7681 12363.765 0
-9328.9111 4903.5723 12370.839 0
-9258.4482 4905.1943 12374.931 0
-9186.5713 4906.0869 12377.184 0
-9116.085 4907.7427 12381.36 0
-9044.668 4908.9199 12384.33 0
-8973.1553 4910.0645 12387.218 0
-8903.2051 4912.0903 12392.328 0
-8831.2812 4913.0518 12394.754 0
-8759.8154 4914.2861 12397.867 0
-8736.8887 4943.0034 12470.316 0
-8663.1377 4943.2109 12470.841 0
-8591.3672 4944.5625 12474.25 0
-8541.0938 4958.417 12509.202 0
-8468.8936 4959.6743 12512.374 0
-8396.29 4960.7148 12514.999 0
-8324.626 4962.3345 12519.086 0
-8252.9727 4963.9897 12523.262 0
-8181.6978 4965.9048 12528.093 0
-8110.5264 4967.9185 12533.173 0
-8039.0283 4969.7676 12537.838 0
-7967.9482 4971.9121 12543.248 0
-7899.8901 4976.0005 12553.562 0
-7832.1167 4980.3477 12564.529 0
-7759.2642 4981.5176 12567.481 0
-7688.8467 4984.2891 12574.474 0
-7562.293 4950.3677 12488.896 0
-7494.5229 4954.6357 12499.663 0
-7428.063 4959.8643 12512.854 0
-7363.8882 4966.7393 12530.198 0
-7300.7485 4974.46 12549.676 0
-7284.1841 5014.4028 12650.444 0
-7212.1782 5016.6143 12656.024 0
-7137.8228 5017.2212 12657.556 0
-7061.6396 5016.5435 12655.845 0
-6985.3901 5015.8022 12653.976 0
-6912.2637 5017.3125 12657.786 0
-6838.8057 5018.6128 12661.065 0
-6768.1123 5021.9937 12669.595 0
-6696.9878 5025.1265 12677.498 0
-6622.5474 5025.8145 12679.233 0
-6555.2383 5031.9917 12694.818 0
-6482.2681 5033.9175 12699.676 0
-6438.6528 5058.9531 12762.837 0
-6362.2622 5058.5259 12761.76 0
-6289.5054 5061.0132 12768.034 0
-6218.1509 5064.7036 12777.344 0
-6158.5938 5078.2124 12811.425 0
-6114.3599 5104.8525 12878.634 0
-6070.166 5132.2026 12947.632 0
-6016.9668 5152.543 12998.947 0
-5963.1777 5172.9014 13050.308 0
-5901.8892 5187.2041 13086.392 0
-5832.6431 5194.8027 13105.561 0
-5775.9165 5213.9072 13153.759 0
-5710.5083 5225.5918 13183.237 0
-5637.2485 5230.3174 13195.158 0
-5579.9141 5250.1602 13245.218 0
-5521.8867 5269.9092 13295.041 0
-5458.0273 5284.585 13332.066 0
-5385.4663 5291.144 13348.613 0
-5326.0903 5311.0469 13398.825 0
-5279.1265 5344.1196 13482.261 0
-5216.3237 5361.9302 13527.194 0
-5133.5942 5359.4946 13521.05 256
-5052.7598 5358.9917 13519.781 0
-4995.7217 5384.1191 13583.173 0
-4938.6348 5410.0181 13648.512 0
-4878.8003 5433.7222 13708.313 0
-4831.8159 5472.7861 13806.864 0
-4773.124 5499.7104 13874.789 0
-4741.2178 5558.9868 14024.333 2
-4665.4346 5568.019 14047.119 256
-4604.6069 5595.5547 14116.588 256
-4554.8784 5637.8511 14223.293 256
-4538.3315 5723.5933 14439.606 256
-4505.5396 5791.7598 14611.577 0
-4431.665 5808.7563 14654.457 0
-4363.6279 5834.2383 14718.744 0
-4287.9971 5850.4038 14759.525 0
-4219.5161 5877.2017 14827.133 0
-4159.6143 5917.3486 14928.416 256
-4084.6042 5937.2837 14978.709 256
-4022.811 5977.7471 15080.79 256
-3943.1921 5992.9624 15119.176 256
-3871.7891 6021.6655 15191.589 256
-3782.0298 6022.5093 15193.717 0
-3692.6577 6024.0249 15197.542 0
-3607.0938 6031.9854 15217.624 0
-3533.4482 6060.7988 15290.315 0
-3459.3889 6090.4043 15365.005 0
-3381.2288 6114.2002 15425.037 0
-3301.3928 6136.208 15480.559 0
-3229.2488 6174.1831 15576.364 0
-3168.1636 6236.1689 15732.743 0
-3108.3093 6304.4209 15904.931 0
-3026.7954 6331.6465 15973.615 0
-2941.8164 6353.1504 16027.867 0
-2857.0322 6376.5293 16086.848 0
-2767.7292 6391.0918 16123.587 0
-2656.1582 6353.4355 16028.586 0
-2563.6377 6360.2407 16045.754 0
-2487.5942 6410.0298 16171.363 0
-2394.1001 6417.0464 16189.064 0
-2314.0125 6462.0898 16302.7 0
-2223.3857 6480.3521 16348.773 0
-2136.1375 6510.5815 16425.037 0
-2056.2693 6567.2749 16568.064 0
-1954.3073 6555.5605 16538.512 0
-1836.2961 6485.9194 16362.818 65536
-1740.0487 6489.6572 16372.249 65537
-1645.2612 6499.6069 16397.35 2
-1573.2832 6606.5908 16667.252 2
-1475.8013 6613.6592 16685.084 2
-1377.6333 6618.4512 16697.172 65537
-1286.588 6660.8604 16804.164 0
-1191.2142 6686.1138 16867.873 65536
-1090.8444 6685.3892 16866.045 65536
-991.89117 6694.0776 16887.965 65536
-899.21167 6751.8301 17033.664 65536
-797.64758 6749.0625 17026.682 196608
-692.99225 6715.5342 16942.096 196608
-602.31476 6829.0874 17228.57 196608
-502.59674 6865.6606 17320.838 327680
-399.8533 6869.1011 17329.518 327680
-295.67288 6841.6787 17260.336 458752
-192.05161 6804.9292 17167.623 458752
-88.811386 6713.6772 16937.412 393216
11.663694 6606.1748 16666.201 262144
110.17844 6574.0601 16585.182 196608
209.29913 6591.3569 16628.818 131072
306.93463 6565.7876 16564.312 0
407.52359 6600.4731 16651.816 0
503.03571 6555.4434 16538.215 0
599.72119 6537.9268 16494.023 0
694.21045 6504.7524 16410.332 0
786.48236 6461.5347 16301.301 0
815.63281 5966.0845 15051.368 0
955.52979 6298.5811 15890.196 65536
1049.0602 6293.1182 15876.416 65536
1148.9128 6323.354 15952.695 65536
1230.5864 6256.5542 15784.171 65536
1334.2155 6302.936 15901.185 131586
1423.6183 6280.4219 15844.385 66049
1517.5355 6279.3818 15841.761 65793
1587.9375 6186.8442 15608.305 1
1683.86 6198.4648 15637.622 65792
1802.7434 6288.9712 15865.953 0
1866.484 6187.6724 15610.395 0
1951.8502 6164.2646 15551.341 0
2046.8744 6172.0967 15571.1 0
2104.7007 6071.9365 15318.414 196608
2170.7305 6002.7686 15143.915 196608
2238.0095 5942.4243 14991.678 458752
2311.4741 5902.4961 14890.946 655360
2379.7324 5852.709 14765.342 851968
2423.9033 5749.3291 14504.533 917504
2488.333 5699.4526 14378.703 917504
2551.9646 5651.1206 14256.771 851968
2606.5447 5586.4951 14093.732 589824
2673.1252 5550.8135 14003.714 327680
2723.9185 5485.4937 13838.923 262144
2777.9294 5430.293 13699.662 262144
2811.8308 5340.0454 13471.983 196608
2884.4792 5326.3438 13437.417 196608
2680.196 4815.7886 12149.376 393216
2793.2461 4887.248 12329.656 327680
2792.2834 4760.6699 12010.322 196608
2889.363 4803.3916 12118.102 196608
2909.0076 4718.4351 11903.771 65536
3001.6956 4753.1763 11991.417 65536
3283.6472 5079.0542 12813.549 1
3379.2986 5108.5269 12887.903 4
3225.574 4768.064 12028.976 3556934
3432.675 4964.1743 12523.728 4610655
3719.5337 5264.855 13282.291 4282717
3707.272 5138.4438 12963.378 4873312
3718.5986 5049.2085 12738.253 3025969
3935.459 5237.0449 13212.131 262146
4154.9717 5420.9927 13676.198 262144
4247.8438 5435.8237 13713.614 262144
4331.1196 5438.0474 13719.225 196608
4425.0239 5453.2866 13757.671 196608
4512.6772 5460.4097 13775.641 196608
4600.5977 5467.5967 13793.772 196608
4648.7012 5428.04 13693.978 196608
4745.7773 5446.0425 13739.395 196608
4884.8164 5510.7773 13902.709 196608
4986.5728 5531.9971 13956.243 196608
5025.2329 5483.6699 13834.322 196608
5081.5874 5455.897 13764.256 196608
5127.6069 5418.0835 13668.859 196608
5199.5933 5408.4595 13644.579 262144
5264.1987 5391.5718 13601.975 196608
5274.8555 5320.7764 13423.37 196608
5317.3369 5283.7134 13329.867 65536
5369.6333 5257.3491 13263.355 65536
5410.769 5220.978 13171.598 0
5487.8521 5219.8364 13168.718 0
5503.5195 5161.1323 13020.617 0
5539.1284 5122.4971 12923.147 0
5591.6499 5100.3462 12867.264 0
5649.7939 5083.8516 12825.651 0
5675.5386 5039.0303 12712.576 0
5691.7866 4987.0664 12581.479 0
5714.479 4942.0229 12467.844 0
5753.1733 4911.7944 12391.582 0
5791.9463 4882.397 12317.417 0
5822.0488 4846.5156 12226.895 65536
5848.0596 4808.1543 12130.116 65536
5867.4492 4765.3496 12022.128 65536
5924.3535 4753.6772 11992.68 65536
5982.9712 4743.6401 11967.359 65536
6070.1719 4756.2354 11999.134 65536
6108.3101 4730.5415 11934.313 131072
5546.0298 4245.7852 10711.359 196608
5184.1665 3923.7202 9898.8467 196608
5169.3774 3868.6238 9759.8486 1314828
5177.5132 3831.7166 9666.7373 986375
5178.3281 3790.2607 9562.1523 920842
5322.6079 3853.5735 9721.8789 657929
5389.6069 3860.176 9738.5361 394501
5462.2681 3870.6506 9764.9619 131586
5782.811 4054.7112 10229.313 65793
6258.1812 4342.3721 10955.03 0
6597.4023 4530.6118 11429.926 0
6627.2651 4504.7349 11364.644 65536
6710.9346 4515.585 11392.017 65536
6825.5117 4546.8081 11470.787 0
6922.6431 4565.9067 11518.969 0
6909.4766 4512.5952 11384.474 0
7050.7749 4560.2212 11504.625 0
7164.6763 4589.3828 11578.194 0
7286.8237 4623.2212 11663.563 65536
7378.0986 4637.0195 11698.374 65536
7467.7236 4649.5327 11729.942 65536
7658.3154 4724.0962 11918.053 65536
7836.3911 4789.6431 12083.416 65536
7886.269 4776.3564 12049.896 65536
7952.9258 4773.3794 12042.386 65536
8174.3496 4862.519 12267.269 65536
8269.2227 4875.4692 12299.939 0
8365.5732 4889.0562 12334.217 0
8442.6465 4891.2378 12339.722 0
8473.7842 4866.999 12278.571 0
8588.8311 4890.957 12339.013 0
8795.3604 4966.1631 12528.744 0
8812.958 4934.3247 12448.422 0
9020.209 5008.3179 12635.094 0
9176.1875 5052.8564 12747.456 0
9300.2461 5079.2329 12814 0
9395.2334 5089.4331 12839.732 0
9577.543 5146.3901 12983.425 0
9777.4863 5211.8364 13148.535 0
9687.9951 5123.1865 12924.887 0
9972.7744 5232.2959 13200.149 0
10191.841 5305.4941 13384.815 0
10281.766 5310.8525 13398.335 0
10434.353 5348.2471 13492.674 0
10543.918 5363.188 13530.367 0
10660.127 5381.2563 13575.951 0
10777.629 5399.7017 13622.484 0
10946.65 5443.4902 13732.956 0
11204.922 5530.6851 13952.933 0
11453.574 5611.8848 14157.785 0
11684.466 5683.2622 14337.857 0
11952.445 5771.5142 14560.502 0
12206.292 5851.7222 14762.852 0
12476.591 5938.6162 14982.07 0
14830.209 7008.8721 17682.135 0
15727.719 7380.7397 18620.291 0
16197.078 7547.8921 19041.986 0
16413.139 7595.5049 19162.105 0
16595.779 7627.1025 19241.82 0
16756.68 7648.3447 19295.412 0
16946.088 7682.2227 19380.879 0
17080.104 7690.7002 19402.266 0
17320.688 7746.7266 19543.611 0
17557.582 7800.3682 19678.939 65536
17648.539 7788.8931 19649.99 65536
17859.564 7830.2104 19754.227 65536
18131.932 7897.707 19924.508 0
0 0 0 0
0 0 0 0
0 0 0 0
0 0 0 0
0 0 0 0
0 0 0 0
0 0 0 0
0 0 0 0
0 0 0 0
0 0 0 0
0 0 0 0
0 0 0 0
0 0 0 0
-10098.009 4471.2061 11113.421 0
-10088.611 4496.4561 11176.182 0
-10072.304 4518.9404 11232.068 0
-10004.392 4518.4185 11230.771 0
-9941.8389 4520.3262 11235.512 0
-9877.4785 4521.4321 11238.262 0
-9815.1084 4523.4707 11243.328 0
-9721.4248 4511.0063 11212.348 0
-9784.1436 4571.4458 11362.573 0
-9862.1982 4639.9414 11532.822 0
-9534.0791 4516.9624 11227.15 0
-9881.3721 4714.4946 11718.128 0
-9891.2949 4752.7271 11813.156 0
-9823.7002 4753.9922 11816.301 0
-9755.8984 4755.1748 11819.241 0
-9688.9414 4756.7896 11823.254 0
-9754.0791 4823.7534 11989.697 0
-9696.6299 4830.6333 12006.797 0
-9631.3291 4833.6743 12014.356 0
-9624.4336 4866.292 12095.429 0
-9555.0752 4867.5796 12098.63 0
-9484.3965 4868.21 12100.196 0
-9414.0732 4869.0342 12102.244 0
-9343.8984 4869.9473 12104.515 0
-9274.6797 4871.3774 12108.068 0
-9279.124 4911.8232 12208.599 0
-9208.7852 4913.0078 12211.543 0
-9139.9561 4915.0234 12216.553 0
-9069.2734 4916.0669 12219.146 0
-8999.6436 4917.7017 12223.211 0
-8929.126 4918.875 12226.126 0
-8858.9482 4920.2559 12229.559 0
-8790.2744 4922.502 12235.142 0
-8719.0664 4923.3545 12237.26 0
-8649.25 4925.0132 12241.384 0
-8577.7012 4925.7061 12243.105 0
-8507.0234 4926.915 12246.109 0
-8436.8926 4928.4639 12249.96 0
-8367.4082 4930.4209 12254.824 0
-8297.0303 4931.8813 12258.455 0
-8226.9902 4933.5698 12262.651 0
-8157.5396 4935.6455 12267.811 0
-8087.7905 4937.5767 12272.61 0
-8018.7417 4939.9736 12278.568 0
-7950.1382 4942.6924 12285.325 0
-7882.1382 4945.8394 12293.148 0
-7814.1152 4949.0312 12301.082 0
-7747.9805 4953.4902 12312.165 0
-7680.9878 4957.481 12322.084 0
-7608.1699 4957.7524 12322.759 0
-7537.6753 4959.5581 12327.246 0
-7472.6157 4965.0098 12340.797 0
-7403.5801 4967.9019 12347.985 0
-7338.6812 4973.6553 12362.285 0
-7275.3354 4980.5884 12379.519 0
-7211.208 4987.123 12395.761 0
-7145.2246 4992.4946 12409.112 0
-7075.3433 4995.2271 12415.904 0
-7002.9429 4996.2207 12418.373 0
-6929.2998 4996.3379 12418.665 0
-6854.9531 4995.9458 12417.69 0
-6782.834 4997.1865 12420.773 0
-6708.6782 4996.937 12420.154 0
-6638.7578 4999.8716 12427.448 0
-6571.5537 5004.9414 12440.049 0
-6500.0342 5006.8022 12444.675 0
-6431.1582 5010.7661 12454.526 0
-6361.6284 5014.3066 12463.327 0
-6291.3633 5017.3438 12470.876 0
-6217.8047 5017.7954 12471.999 0
-6204.1636 5067.1958 12594.786 0
-6138.2104 5074.5552 12613.078 0
-6086.6753 5094.1636 12661.815 0
-6064.8057 5139.4019 12774.258 0
-6012.3394 5159.5303 12824.288 0
-5939.9731 5162.8794 12832.612 0
-5893.1006 5188.7622 12896.945 0
-5839.2017 5209.0591 12947.395 0
-5726.708 5176.9282 12867.531 0
-5670.2822 5195.2993 12913.193 0
-5616.6914 5216.8076 12966.653 0
-5560.2803 5236.2578 13014.998 0
-5498.9111 5251.522 13052.938 0
-5445.0366 5274.4829 13110.01 0
-5380.9385 5288.0635 13143.765 0
-5295.2891 5280.5532 13125.097 0
-5256.2842 5320.0283 13223.215 0
-5206.0396 5349.1528 13295.605 0
-5148.7388 5371.814 13351.931 0
-5076.564 5379.4224 13370.842 0
-4995.5347 5377.7412 13366.663 0
-4932.6616 5395.8667 13411.715 65536
-4875.8389 5421.3149 13474.968 65536
-4797.5151 5423.3076 13479.92 65536
-4764.6396 5477.6172 13614.909 65536
-4703.167 5500.3579 13671.434 0
-4655.9219 5540.8306 13772.03 0
-4568.5918 5534.1953 13755.538 0
-4519.2456 5574.1675 13854.891 0
-4450.7188 5591.5273 13898.039 0
-4425.4751 5664.9487 14080.532 0
-4364.4336 5694.4932 14153.967 0
-4332.7476 5764.2534 14327.359 0
-4260.9067 5782.3179 14372.26 0
-4183.606 5793.561 14400.205 0
-4121.8853 5827.2988 14484.062 0
-4066.5361 5871.6772 14594.367 0
-4008.6658 5914.2695 14700.233 256
-3942.2642 5945.8931 14778.835 256
-3870.0303 5969.9604 14838.656 256
-3794.9453 5990.6504 14890.081 256
-3710.1665 5996.6597 14905.018 0
-3622.3257 5997.8931 14908.083 0
-3547.2905 6020.9233 14965.326 0
-3478.3467 6055.7437 15051.874 0
-3398.178 6072.3438 15093.135 0
-3326.405 6105.2534 15174.934 0
-3242.1228 6116.3989 15202.636 0
-3167.5574 6147.0391 15278.794 0
-3108.8608 6211.1929 15438.252 0
-3058.8198 6297.0674 15651.698 0
-2969.3525 6304.6177 15670.465 0
-2888.4421 6331.4141 15737.067 0
-2807.1985 6359.2485 15806.252 0
-2725.0166 6386.812 15874.762 0
-2615.3064 6349.5176 15782.065 0
-2521.7803 6350.2031 15783.77 0
-2444.7178 6394.0015 15892.632 0
-2351.9705 6398.6475 15904.181 0
-2270.0657 6434.417 15993.086 0
-2181.6553 6454.0654 16041.925 0
-2091.4189 6469.8628 16081.19 0
-1995.3999 6468.4268 16077.62 0
-1902.1449 6476.2573 16097.083 0
-1805.9716 6474.4541 16092.602 65536
-1707.3737 6463.2725 16064.809 3
-1605.6089 6438.0669 16002.158 131072
-1516.0333 6461.6401 16060.751 65536
-1430.3843 6506.2412 16171.609 0
-1342.0745 6544.2935 16266.191 65536
-1251.9894 6578.9253 16352.271 65536
-1157.8829 6596.4761 16395.895 65536
-1060.2576 6595.3643 16393.129 65536
-961.01508 6582.9482 16362.27 196608
-865.28156 6594.48 16390.932 196608
-770.8924 6620.4819 16455.562 196608
-672.41284 6613.8091 16438.977 196608
-575.23151 6619.8066 16453.883 196608
-482.41922 6688.8394 16625.467 196608
-383.57938 6688.3335 16624.211 262144
-284.04514 6671.1699 16581.549 196608
-184.06438 6619.7085 16453.639 196608
-85.352013 6548.9116 16277.669 196608
11.250888 6467.9136 16076.344 196608
106.09354 6425.2412 15970.28 196608
200.8306 6419.4932 15955.993 131072
293.87238 6380.6245 15859.382 131072
386.00714 6345.7227 15772.633 131072
474.44998 6275.6274 15598.407 131072
565.58722 6258.2612 15555.242 131072
659.79144 6274.9434 15596.707 131072
733.38403 6115.6357 15200.739 131072
793.84106 5893.751 14649.232 196608
871.83521 5833.0581 14498.378 131072
988.55377 6019.0684 14960.716 131072
1116.1788 6235.3052 15498.184 131072
1134.0115 5851.9951 14545.447 0
1276.0742 6118.6606 15208.258 0
1353.6108 6061.1157 15065.227 65792
1434.0297 6022.8169 14970.032 0
1463.958 5789.3237 14389.674 394757
1464.9086 5473.3369 13604.271 1513750
1630.6614 5773.9492 14351.459 512
1926.5641 6482.6113 16112.876 256
2189.1123 7017.2397 17441.725 0
2137.1892 6541.0576 16258.148 0
2046.65 5992.9956 14895.91 196608
2101.9363 5899.6836 14663.979 262144
2181.614 5879.5366 14613.902 393216
2245.1294 5819.0425 14463.541 655360
2320.6653 5793.0171 14398.853 786432
2381.7288 5734 14252.163 851968
2464.3267 5729.1001 14239.983 917504
2524.5901 5674.3262 14103.841 589824
2593.8567 5642.6582 14025.128 393216
2647.6145 5580.2749 13870.071 196608
2709.0486 5537.3491 13763.377 196608
2753.6284 5463.4995 13579.819 196608
2796.7642 5391.0718 13399.797 196608
2794.9961 5238.4941 13020.557 262144
2895.2598 5280.2183 13124.264 393216
2963.241 5262.4224 13080.031 262144
3045.3425 5269.9712 13098.794 196608
3107.9731 5244.2896 13034.961 131072
3179.311 5234.1914 13009.862 65536
3233.8123 5197.5127 12918.695 0
3291.575 5167.6562 12844.485 3
3329.74 5109.0825 12698.897 2
3301.9348 4954.1255 12313.743 4544602
3613.8494 5304.5415 13184.722 4348254
3690.1887 5301.6372 13177.502 4282460
3742.9897 5265.7388 13088.274 4807261
3706.2056 5107.8364 12695.801 2697004
3936.7961 5317.375 13216.62 262146
4138.688 5480.7109 13622.6 262144
4227.4111 5490.7896 13647.65 196608
4321.749 5507.6436 13689.542 0
4465.8403 5586.1089 13884.572 131585
4552.4141 5591.0869 13896.945 65536
4584.3398 5529.9668 13745.027 65536
4647.1313 5507.5674 13689.353 0
4768.6733 5554.3691 13805.681 65536
4907.2661 5619.1118 13966.603 0
5094.8818 5736.9009 14259.374 0
5091.3916 5639.1685 14016.455 0
5111.5669 5570.373 13845.459 0
5151.1904 5524.6152 13731.727 131072
5198.4717 5488.3701 13641.637 196608
5238.208 5445.394 13534.817 196608
5245.0439 5370.0337 13347.506 196608
5283.8286 5329.1421 13245.867 65536
5341.0444 5307.7671 13192.738 65536
5381.3452 5270.4443 13099.971 65536
5425.3062 5237.7197 13018.632 0
5450.4561 5188.0098 12895.075 0
5504.2529 5166.5684 12841.781 0
5545.9814 5134.5405 12762.174 0
5606.418 5120.4629 12727.184 0
5634.3667 5077.4829 12620.355 0
5651.3218 5025.8564 12492.034 0
5684.2471 4989.5864 12401.884 0
5714.8462 4952.23 12309.031 0
5749.2959 4919.1113 12226.715 0
5763.0127 4869.3032 12102.912 65536
5795.3389 4836.2515 12020.762 65536
5859.915 4830.5908 12006.691 65536
5906.9443 4810.7754 11957.438 65536
5981.2695 4813.3975 11963.956 65536
6053.4058 4814.2163 11965.992 65536
6110.3379 4803.0654 11938.275 0
5779.9243 4491.1899 11163.093 196608
5104.3838 3921.2622 9746.5068 262144
5102.0591 3875.4956 9632.751 919553
4962.8818 3727.9456 9266.0078 327680
4751.1753 3529.7507 8773.3838 262144
0 0 0 0
4991.5469 3628.6799 9019.2773 327680
0 0 0 0
0 0 0 0
0 0 0 0
4562.1606 3179.9324 7903.8921 722950
4653.3389 3210.4292 7979.6929 1183756
4641.8599 3170.1992 7879.6992 789512
5019.6143 3393.9482 8435.8398 1513235
5703.4585 3818.1838 9490.2998 1447186
5642.8433 3740.6123 9297.4922 1118477
5883.7983 3862.5164 9600.4902 921099
5923.2998 3851.1011 9572.1172 658183
5934.2993 3821.5481 9498.6621 460548
5770.7114 3681.1819 9149.7744 263427
5890.0957 3722.2615 9251.8799 131841
6080.687 3807.1646 9462.9102 0
6667.2642 4136.1689 10280.668 0
6987.8135 4295.6606 10677.094 0
7433.2686 4528.3745 11255.517 0
7560.0122 4564.5088 11345.331 0
7663.9863 4586.3789 11399.689 0
7972.2207 4729.0298 11754.257 0
8202.7617 4823.5161 11989.107 0
8335.1416 4859.1504 12077.678 0
8259.2344 4773.7871 11865.503 65536
8455.5449 4845.8774 12044.687 65536
8609.041 4892.4263 12160.387 65536
8706.9258 4906.8599 12196.262 65536
8806.0859 4921.7681 12233.316 65536
9142.1152 5067.7344 12596.125 0
9236.0215 5078.2051 12622.15 0
9335.4512 5091.519 12655.242 0
9388.7002 5079.6348 12625.703 0
9515.9951 5107.6831 12695.419 0
9748.7627 5191.457 12903.644 0
9874.7061 5217.4805 12968.326 0
10031.852 5259.4595 13072.667 0
10129.02 5269.5898 13097.847 0
10225.759 5279.3452 13122.094 0
10355.118 5305.665 13187.515 0
10501.646 5340.3213 13273.653 0
10678.069 5389.5488 13396.012 0
10862.396 5442.0073 13526.4 0
11110.586 5525.4565 13733.817 0
11418.844 5637.3423 14011.916 0
11727.885 5747.9922 14286.941 0
11782.834 5733.4126 14250.703 0
12133.923 5862.1113 14570.591 0
12502.87 5997.5527 14907.237 0
11963.126 5698.2612 14163.332 0
12143.918 5743.9585 14276.915 0
12636.535 5935.4888 14752.974 0
12900.211 6017.5854 14957.03 0
13152.007 6093.0542 15144.611 0
10468.539 4816.8926 11972.644 0
10692.931 4886.9248 12146.712 0
16556.682 7516.0542 18681.555 0
11610.38 5235.5264 13013.181 65536
11460.529 5133.7549 12760.223 65536
11563.902 5146.0083 12790.679 65536
16791.668 7423.5952 18451.742 65536
14598.611 6412.168 15937.785 65536
18065.713 7883.8721 19595.785 0
18510.162 8026.0874 19949.27 196608
0 0 0 0
0 0 0 0
0 0 0 0
0 0 0 0
0 0 0 0
0 0 0 0
0 0 0 0
0 0 0 0
0 0 0 0
0 0 0 0
-10023.848 4503.9346 11031.803 0
-9827.1875 4444.6431 10886.576 0
-9825.7031 4473.4248 10957.072 0
-9765.4219 4475.6436 10962.507 0
-9709.8564 4480.0674 10973.343 0
-9653 4483.9512 10982.856 0
-9733.0938 4551.937 11149.378 0
-9746.8955 4589.6392 11241.725 0
-9716.2949 4606.8091 11283.779 0
-9816.3408 4686.5913 11479.196 0
-9573.7715 4602.7715 11273.891 0
-9852.1865 4770.0088 11683.518 0
-9857.2666 4806.3447 11772.517 0
-9790.0566 4807.6992 11775.834 0
-9721.4746 4808.3936 11777.536 0
-9655.0879 4810.1929 11781.943 0
-9587.7021 4811.5171 11785.187 0
-9521.5127 4813.4658 11789.959 0
-9458.3711 4816.9956 11798.604 0
-9387.6064 4816.666 11797.798 0
-9319.7422 4817.8311 11800.651 0
-9251.5371 4818.8364 11803.114 0
-9183.3818 4819.8838 11805.679 0
-9115.3232 4820.998 11808.408 0
-9048.2715 4822.6665 11812.494 0
-8981.1025 4824.2969 11816.488 0
-8914.3789 4826.1953 11821.138 0
-8969.4189 4894.5693 11988.611 0
-8900.5508 4895.8804 11991.823 0
-8832.4238 4897.625 11996.096 0
-8763.6934 4899.0591 11999.608 0
-8695.2158 4900.6597 12003.529 0
-8628.4756 4903.2749 12009.935 0
-8559.6455 4904.7354 12013.512 0
-8490.7373 4906.1753 12017.038 0
-8420.7373 4907.0034 12019.067 0
-8351.4512 4908.2656 12022.159 0
-8282.834 4909.9458 12026.274 0
-8213.6465 4911.3145 12029.627 0
-8144.9082 4912.978 12033.701 0
-8077.7925 4915.6587 12040.267 0
-8010.1875 4918.0864 12046.214 0
-7942.3979 4920.4438 12051.988 0
-7875.4463 4923.3677 12059.149 0
-7805.9727 4924.7549 12062.547 0
-7736.8911 4926.417 12066.618 0
-7671.4424 4930.4443 12076.483 0
-7607.5132 4935.5352 12088.952 0
-7546.9209 4942.9077 12107.01 0
-7474.2363 4942.4253 12105.829 0
-7405.4644 4944.5469 12111.025 65536
-7344.1162 4951.7158 12128.584 0
-7276.2197 4954.5669 12135.568 0
-7215.4453 4962.3735 12154.689 0
-7153.5762 4969.5781 12172.337 0
-7089.7461 4975.5542 12186.973 0
-7023.2759 4979.7803 12197.325 0
-6954.3501 4982.3359 12203.585 0
-6883.8145 4983.7798 12207.121 0
-6813.8828 4985.6968 12211.816 0
-6743.6172 4987.4077 12216.007 0
-6673.4463 4989.2261 12220.462 0
-6601.2695 4989.5693 12221.302 0
-6529.9731 4990.5928 12223.809 0
-6462.0532 4994.2485 12232.763 0
-6397.8687 5000.9077 12249.073 0
-6324.9346 5000.8018 12248.814 0
-6254.0674 5002.3472 12252.6 0
-6151.4839 4978.2607 12193.604 0
-6046.5415 4951.6694 12128.471 0
-5979.0884 4955.5073 12137.871 0
-5920.3369 4966.7388 12165.382 0
-5957.4097 5059.6313 12392.91 0
-5936.3315 5104.8442 12503.653 0
-5892.3018 5131.2168 12568.249 0
-5802.7539 5118.1187 12536.166 0
-5757.939 5144.6479 12601.146 0
-5668.0303 5131.0547 12567.852 0
-5577.0493 5116.1147 12531.259 0
-5516.4653 5129.0322 12562.898 0
-5468.8726 5154.5488 12625.398 0
-5443.1201 5201.6479 12740.761 0
-5408.7568 5241.73 12838.937 0
-5350.6816 5259.6509 12882.831 0
-5291.9536 5277.4404 12926.405 0
-5205.75 5267.9512 12903.162 0
-5167.583 5307.5156 13000.069 0
-5112.3677 5330.5049 13056.379 0
-5041.8994 5338.0542 13074.87 0
-4980.6289 5355.73 13118.164 0
-4904.9194 5358.1943 13124.201 0
-4842.3735 5375.3516 13166.225 65536
-4784.5952 5398.4512 13222.805 65536
-4699.8066 5391.3379 13205.382 65536
-4661.0186 5437.6479 13318.812 65536
-4607.3989 5467.957 13393.051 0
-4544.7832 5488.4673 13443.287 0
-4475.3794 5501.3672 13474.884 0
-4417.0981 5528.6592 13541.732 0
-4344.9146 5539.2402 13567.649 0
-4317.1919 5607.9751 13736.007 0
-4252.7026 5630.6802 13791.62 0
-4172.7837 5633.4478 13798.398 0
-4150.394 5715.5493 13999.495 0
-4066.3557 5714.376 13996.622 0
-4014.5508 5759.3979 14106.897 0
-3966.1782 5811.3687 14234.193 0
-3917.116 5864.5728 14364.51 0
-3842.5452 5881.1064 14405.007 0
-3782.0442 5920.4185 14501.296 0
-3695.0159 5919.0693 14497.991 0
-3613.4783 5926.6611 14516.587 0
-3527.8677 5927.7812 14519.33 0
-3472.6282 5981.2681 14650.34 0
-3413.4978 6030.6333 14771.253 0
-3333.2458 6044.3037 14804.736 0
-3261.2148 6074.0269 14877.539 0
-3169.4749 6067.6753 14861.982 0
-3099.2134 6103.2568 14949.135 0
-3037.5244 6158.3198 15084.004 0
-2968.4685 6201.3408 15189.379 0
-2876.3569 6197.3853 15179.69 0
-2796.9302 6221.3892 15238.484 0
-2734.8345 6286.8403 15398.799 0
-2655.6628 6316.2104 15470.736 0
-2544.0679 6267.8062 15352.178 0
-2454.8904 6273.0854 15365.107 0
-2384.0105 6327.335 15497.984 0
-2295.54 6337.3828 15522.595 0
-2210.677 6358.6479 15574.682 0
-2124.0764 6376.5552 15618.543 0
-2032.3253 6379.9312 15626.812 65536
-1945.407 6399.5269 15674.811 65536
-1857.8843 6419.0073 15722.523 65536
-1755.7396 6387.355 15644.997 65536
-1660.7354 6379.5933 15625.984 196608
-1565.0216 6368.0244 15597.648 196608
-1477.5322 6390.5703 15652.872 196608
-1384.8424 6392.1426 15656.723 196608
-1294.4193 6405.1582 15688.603 196608
-1203.4226 6417.1348 15717.938 196608
-1110.5823 6420.4692 15726.105 196608
-1018.7978 6431.082 15752.099 196608
-926.78912 6442.2837 15779.537 196608
-832.02277 6434.6807 15760.913 196608
-740.06165 6449.5952 15797.445 196608
-642.49323 6412.8765 15707.509 196608
-541.24036 6320.6465 15481.603 262144
-457.08667 6431.2207 15752.439 262144
-363.40872 6430.2334 15750.021 262144
-267.77426 6381.9316 15631.712 262144
-173.46405 6330.6357 15506.069 262144
-80.115372 6237.9209 15278.977 262144
10.555945 6158.0503 15083.344 262144
99.479523 6113.6826 14974.671 196608
187.85625 6093.4771 14925.181 196608
285.09683 6281.5308 15385.793 65536
375.75937 6268.5098 15353.899 0
463.53583 6221.8384 15239.585 0
552.12207 6199.5171 15184.912 0
641.61591 6192.2285 15167.059 0
727.97833 6160.2354 15088.696 0
797.92731 6011.6016 14724.637 131072
875.86621 5946.5952 14565.412 196608
971.49628 6002.5918 14702.569 196608
1073.9053 6087.7749 14911.214 196608
1148.9297 6016.5664 14736.797 262144
1236.1539 6014.8062 14732.486 262144
1327.0974 6030.1797 14770.142 262144
1404.2604 5984.9131 14659.267 262144
1472.6217 5909.6143 14474.832 262144
1424.4106 5400.644 13228.176 262144
1545.6587 5553.8149 13603.349 196608
2258.2686 7711.002 18887.098 131072
2336.2273 7599.4482 18613.861 131072
1919.0812 5960.2852 14598.943 196608
1989.2561 5910.9839 14478.187 196608
2055.0986 5853.4312 14337.22 196608
2095.3042 5730.3472 14035.741 393216
2197.4851 5779.6934 14156.608 458752
2278.4797 5771.7314 14137.106 393216
2346.3826 5732.3525 14040.652 458752
2413.4912 5693.8047 13946.234 393216
2485.2234 5668.3613 13883.915 458752
2551.8081 5633.1909 13797.769 393216
2511.0298 5370.5825 13154.544 262144
2657.0828 5511.3613 13499.363 196608
2708.6658 5453.6802 13358.081 196608
2716.761 5314.2183 13016.487 196608
2761.7786 5252.7026 12865.812 196608
2832.8572 5242.7319 12841.391 196608
2975.0073 5361.3652 13131.968 262144
3034.1499 5328.1665 13050.652 196608
3077.3833 5269.3818 12906.666 196608
3079.23 5144.314 12600.328 131072
3134.9788 5113.0977 12523.868 131072
3210.4478 5114.7471 12527.908 2
3216.1611 5007.7095 12265.733 516
3356.0222 5109.6606 12515.449 5398116
3609.283 5376.1016 13168.062 4544607
3685.5525 5373.1963 13160.946 4413019
3741.0203 5340.7148 13081.387 4937564
3953.7266 5529.4609 13543.696 1447448
3964.7905 5434.2969 13310.604 196608
4089.0918 5495.0264 13459.354 262144
4168.502 5494.2578 13457.47 65538
4263.7729 5514.0283 13505.896 527116
0 0 0 0
5010.8066 6244.9766 15296.259 528399
4937.1016 6043.4707 14802.696 593163
4700.605 5653.2383 13846.873 512
4823.8867 5701.6816 13965.528 660240
5067.4653 5888.2676 14422.546 1384735
5274.8818 6027.3257 14763.151 1647908
5303.8594 5961.2769 14601.373 265741
5319.3745 5882.4673 14408.339 527372
4890.75 5322.7808 13037.46 197635
5632.9731 6034.9551 14781.839 0
6047.2026 6379.252 15625.149 131072
6108.1348 6346.0742 15543.885 131072
6176.9131 6321.9165 15484.713 65536
5600.6543 5647.9795 13833.992 65536
5643.6304 5608.9766 13738.459 65536
5667.1104 5551.9858 13598.867 0
5521.6792 5333.4453 13063.581 0
5571.2725 5306.7285 12998.143 0
5865.8394 5510.8931 13498.217 0
5695.5786 5278.7402 12929.588 0
5578.0435 5100.9844 12494.198 0
5529.9331 4990.5518 12223.708 0
5534.1689 4929.6118 12074.443 0
5545.9121 4876.833 11945.169 0
5567.3809 4833.833 11839.846 0
5574.0298 4779.2002 11706.029 65536
5579.4736 4724.8931 11573.012 65536
5609.7549 4692.686 11494.125 65536
5635.6099 4657.5957 11408.175 65536
5689.5942 4646.311 11380.535 65536
5709.7915 4608.0244 11286.757 65536
5783.6074 4613.3965 11299.915 0
5807.6265 4579.3794 11216.596 196608
5315.7939 4143.9971 10150.182 262144
5537.6997 4268.5449 10455.246 393216
5816.1567 4433.4355 10859.124 327680
4796.415 3615.9998 8856.9219 327680
4710.7158 3512.8389 8604.2422 393216
5748.0308 4240.3457 10386.176 393216
5832.022 4256.5942 10425.975 393216
5823.3203 4205.5591 10300.971 393216
5921.4629 4231.9453 10365.601 393216
5935.7998 4198.5112 10283.707 393216
5981.2554 4187.5444 10256.846 393216
6005.6855 4162.2275 10194.835 393216
5954.3535 4085.4338 10006.739 458752
5021.3896 3411.2314 8355.3682 458752
5365.4785 3609.2905 8840.4883 393216
4807.1387 3202.343 7843.7231 327680
5361.0352 3537.0283 8663.4912 196608
5230.416 3418.0217 8372 196608
5270.6357 3411.8474 8356.877 131072
5434.9858 3485.3918 8537.0146 65536
5501.2622 3495.2642 8561.1953 262914
5576.5059 3510.6006 8598.7598 526085
6009.8169 3749.0271 9182.7549 723463
6129.6973 3789.3984 9281.6387 789255
6082.9175 3726.9382 9128.6514 789765
5504.9331 3342.9966 8188.2358 723201
5961.8789 3588.7615 8790.2051 394496
6194.3159 3696.2874 9053.5752 328704
6217.2378 3678.0151 9008.8203 263168
6452.228 3784.4404 9269.4951 263170
6591.7139 3833.521 9389.7119 197378
7540.9087 4348.7241 10651.635 65792
7754.4688 4434.6514 10862.103 65792
7922.6914 4493.4468 11006.113 0
8075.9409 4542.8564 11127.137 0
8496.4434 4740.5767 11611.426 0
8658.4756 4792.0591 11737.526 0
8920.4434 4897.5869 11996.003 0
9024.5605 4915.4639 12039.79 0
9225.9766 4985.6387 12211.675 0
9578.1865 5135.5698 12578.911 0
9787.8174 5207.3237 12754.663 0
9925.0293 5239.7422 12834.067 0
10107.608 5295.4341 12970.478 0
10295.229 5352.9038 13111.243 0
10460.35 5397.9004 13221.456 0
10568.363 5412.9761 13258.382 0
10726.67 5453.3975 13357.389 0
10939.53 5520.7563 13522.375 0
11178.883 5600.4043 13717.463 0
11372.479 5656.1416 13853.984 0
11635.657 5745.4365 14072.7 0
11882.485 5825.4404 14268.659 0
12162.017 5920.2305 14500.835 0
12417.627 6002.124 14701.423 0
15282.01 7335.0254 17966.191 0
15592.331 7432.043 18203.824 0
15859.188 7507.1504 18387.789 0
15602.491 7335.0928 17966.357 0
15926.317 7436.438 18214.588 0
16044.732 7441.1494 18226.129 0
16489.959 7596.3486 18606.27 0
14874.868 6806.6865 16672.094 65536
16905.271 7684.6011 18822.432 0
17248.17 7788.9297 19077.971 65536
17491.217 7847.0986 19220.449 65536
17735.082 7904.8784 19361.973 65536
17930.334 7940.3853 19448.941 0
18138.262 7981.0132 19548.455 196608
18381.939 8036.7554 19684.988 196608
18602.008 8081.5352 19794.67 196608
0 0 0 0
0 0 0 0
0 0 0 0
0 0 0 0
19354.049 8150.519 19963.637 262144
0 0 0 0
0 0 0 0
0 0 0 0
-9977.9805 4548.5913 10981.323 0
-9713.3721 4457.1196 10760.49 0
-9878.9287 4563.1313 11016.427 0
-9826.8994 4569.3838 11031.521 0
-9765.6641 4571.4097 11036.412 0
-9703.8037 4573.1689 11040.659 0
-9696.0547 4600.6274 11106.95 0
-9630.6064 4600.8965 11107.601 0
-9732.0508 4681.4512 11302.076 0
-9768.7354 4731.7573 11423.527 0
-9458.0059 4613.3096 11137.568 0
-9813.6553 4820.522 11637.825 0
-9820.2783 4858.0151 11728.342 0
-9753.8838 4859.6646 11732.324 0
-9685.4873 4860.3335 11733.938 0
-9619.0527 4862.0034 11737.971 0
-9552.0508 4863.4087 11741.363 0
-9481.6992 4863.1177 11740.661 0
-9421.582 4868.1094 11752.712 0
-9352.4609 4868.4893 11753.629 0
-9284.8916 4869.6885 11756.524 0
-9217.3564 4870.9238 11759.507 0
-9149.4912 4872.0024 11762.11 0
-9081.7812 4873.1812 11764.956 0
-9015.1406 4874.9561 11769.241 0
-8948.0732 4876.5259 11773.031 0
-8880.6826 4877.9434 11776.454 0
-8814.957 4880.3052 11782.155 0
-8747.376 4881.6694 11785.449 0
-8680.6123 4883.5156 11789.905 0
-8613.5928 4885.2466 11794.085 0
-8546.7969 4887.1338 11798.641 0
-8481.2119 4889.7505 11804.958 0
-8413.9912 4891.46 11809.085 0
-8346.5576 4893.0732 11812.98 0
-8278.252 4894.1978 11815.695 0
-8210.5928 4895.728 11819.389 0
-8143.9272 4897.8813 11824.588 0
-8076.6133 4899.6797 11828.93 0
-8009.8906 4901.8711 11834.22 0
-7943.0039 4904 11839.359 0
-7874.541 4905.1851 11842.221 0
-7808.1519 4907.6943 11848.279 0
-7743.3486 4911.2563 11856.878 0
-7676.6948 4913.6982 11862.773 0
-7609.1826 4915.6318 11867.441 0
-7543.0112 4918.4751 11874.306 0
-7479.6313 4923.2095 11885.736 0
-7421.9189 4931.8008 11906.478 0
-7348.7358 4930.1782 11902.56 0
-7282.6509 4933.3325 11910.175 65536
-7223.375 4941.2056 11929.183 0
-7158.2241 4945.1768 11938.771 0
-7096.7656 4951.8042 11954.77 0
-7039.4434 4961.4805 11978.131 0
-6979.4355 4969.4429 11997.354 0
-6916.2563 4975.2871 12011.464 0
-6848.5752 4977.9819 12017.969 0
-6777.3955 4978.1636 12018.407 0
-6706.4111 4978.4941 12019.205 0
-6635.5742 4978.9424 12020.288 0
-6565.4736 4979.959 12022.741 0
-6495.9155 4981.4136 12026.254 0
-6428.1255 4984.272 12033.155 0
-6359.8003 4986.7749 12039.196 0
-6298.0903 4994.5811 12058.043 0
-6226.5596 4994.6885 12058.302 0
-6158.4585 4997.582 12065.288 0
-6087.2695 4998.0083 12066.317 0
-6016.2603 4998.5938 12067.73 0
-5944.6973 4998.728 12068.056 0
-5882.0703 5006.4717 12086.75 0
-5826.5024 5020.4893 12120.591 0
-5799.1206 5059.4482 12214.647 0
-5752.7183 5082.5913 12270.519 0
-5686.3691 5088.4775 12284.73 0
-5626.356 5100.2612 12313.179 0
-5573.7793 5119.1855 12358.866 0
-5514.4429 5132.3237 12390.585 0
-5455.4941 5146.1841 12424.047 0
-5408.6948 5172.042 12486.473 0
-5353.4082 5190.3901 12530.771 0
-5289.5054 5200.7847 12555.865 0
-5241.8604 5227.6909 12620.822 0
-5188.437 5249.5312 12673.551 0
-5111.8335 5248.2168 12670.377 0
-5064.6274 5277.4966 12741.064 0
-4999.8184 5289.0435 12768.941 0
-4933.625 5299.459 12794.087 0
-4864.4287 5306.9248 12812.111 0
-4799.9429 5319.8491 12843.313 65536
-4737.8711 5335.9097 12882.087 65536
-4682.8706 5360.5923 12941.677 65536
-4597.9746 5351.3057 12919.257 65536
-4556.0981 5392.6221 13019.004 0
-4500.3579 5418.6733 13081.897 65536
-4439.7954 5439.7319 13132.737 65536
-4378.0771 5460.103 13181.918 65536
-4317.2051 5482.2915 13235.485 65536
-4235.6987 5478.6133 13226.605 65536
-4203.7827 5540.1519 13375.174 65536
-4149.2788 5573.7202 13456.215 65536
-4058.2192 5558.5371 13419.56 65536
-3991.7051 5577.0396 13464.229 0
-3920.8071 5590.0493 13495.637 0
-3857.1765 5614.1797 13553.894 0
-3818.4961 5676.4292 13704.178 0
-3768.8169 5724.6855 13820.68 0
-3686.458 5724.3477 13819.864 0
-3620.0925 5749.3945 13880.333 0
-3548.7954 5767.5947 13924.271 0
-3483.9875 5797.4624 13996.379 0
-3404.865 5804.3877 14013.099 0
-3329.386 5818.0283 14046.03 0
-3256.0894 5836.2817 14090.099 0
-3192.0325 5872.4976 14177.531 0
-3174.6733 5998.9189 14482.74 0
-3083.1355 5988.3105 14457.129 0
-3011.3484 6016.5542 14525.316 0
-2954.8933 6078.0029 14673.667 0
-2887.3047 6119.5913 14774.07 0
-2807.5188 6137.126 14816.403 0
-2721.634 6142.0327 14828.25 0
-2638.5938 6153.9023 14856.905 0
-2576.0889 6216.1455 15007.175 0
-2483.3152 6207.1948 14985.565 0
-2391.3071 6199.563 14967.141 0
-2322.9792 6255.1055 15101.232 0
-2244.1431 6285.6792 15175.045 0
-2158.3494 6298.5103 15206.021 0
-2073.6501 6315.7964 15247.754 0
-1984.3804 6320.1045 15258.155 0
-1907.2365 6365.2964 15367.258 65536
-1819.5649 6378.1294 15398.241 0
-1723.0063 6359.5225 15353.318 0
-1628.5305 6346.9502 15322.967 65536
-1532.5042 6326.4878 15273.565 65536
-1440.7157 6322.0459 15262.842 65536
-1349.6312 6320.3032 15258.634 65536
-1255.0143 6300.5747 15211.006 65536
-1169.2095 6325.458 15271.079 65536
-1080.3845 6336.8149 15298.499 65536
-993.22607 6360.9326 15356.724 65536
-904.77026 6380.7817 15404.644 196608
-808.33881 6342.52 15312.271 196608
-716.84027 6338.1655 15301.76 196608
-623.83368 6317.2759 15251.325 196608
-534.47797 6332.5381 15288.172 196608
-450.87323 6436.147 15538.308 196608
-358.6825 6438.9971 15545.188 196608
-264.26431 6389.9648 15426.814 196608
-170.44446 6310.9878 15236.146 196608
-78.784828 6223.623 15025.227 196608
10.369634 6137.4243 14817.124 196608
97.718681 6092.8911 14709.61 196608
184.20482 6062.0171 14635.074 65536
270.39484 6044.3296 14592.372 65536
361.62021 6120.4561 14776.159 65536
454.88425 6194.5957 14955.148 65536
545.80975 6217.8574 15011.307 65536
638.81409 6254.9375 15100.826 65536
721.14948 6191.2852 14947.156 65536
779.25696 5956.4053 14380.103 65536
861.04449 5931.0679 14318.933 65536
993.55109 6228.228 15036.345 131072
1121.6332 6450.896 15573.916 131072
1178.0264 6258.7397 15110.007 131072
1250.3966 6172.6772 14902.231 65536
1603.3843 7391.6548 17845.119 262912
1476.1127 6382.7275 15409.342 65536
1496.5952 6093.249 14710.475 131072
1498.8693 5765.6826 13919.656 262144
1592.8776 5806.7998 14018.922 197120
1699.7294 5888.3232 14215.738 393472
1768.5062 5836.4692 14090.55 393216
1839.5831 5796.5522 13994.182 393216
1914.2517 5770.9155 13932.289 196608
1979.533 5720.2793 13810.042 393216
2044.2742 5672.1758 13693.909 458752
2123.4573 5666.293 13679.707 458752
2166.2634 5567.3545 13440.847 458752
2215.7031 5491.8955 13258.672 458752
2280.8662 5459.2539 13179.868 458752
2382.6965 5513.6284 13311.141 393216
2455.3464 5499.1538 13276.195 393216
2455.811 5328.9429 12865.269 196608
2649.0178 5574.6211 13458.39 196608
2692.3008 5499.6426 13277.375 196608
2731.8987 5421.6216 13089.015 196608
2798.2957 5399.6323 13035.928 196608
2872.7637 5393.9824 13022.288 262144
2935.7251 5367.5908 12958.572 393216
2984.2166 5316.7686 12835.876 393216
3038.1228 5277.8862 12742.006 327680
3096.5474 5248.5537 12671.19 262144
3143.3359 5201.3599 12557.254 262144
3192.926 5160.8838 12459.535 196608
3292.1826 5200.7002 12555.661 131074
3337.7542 5155.8252 12447.323 4
3430.5403 5184.2471 12515.939 5
3558.7229 5263.8188 12708.044 5
3689.6418 5344.0459 12901.729 3
3750.9758 5322.272 12849.163 196611
3938.5276 5476.8853 13222.434 458754
4045.3979 5515.4482 13315.533 196610
4121.7896 5511.7744 13306.664 2
4196.7339 5506.3403 13293.545 395274
0 0 0 0
5049.8359 6385.2378 15415.401 2568500
4684.7153 5818.0068 14045.979 462351
4467.6729 5451.3184 13160.71 516
4865.6558 5834.7715 14086.452 2043182
5271.2656 6214.2437 15002.583 1517352
5896.8682 6836.125 16503.945 1188390
5793.103 6605.9482 15948.247 2306355
6046.7856 6784.2236 16378.643 1910056
5603.9038 6187.7173 14938.542 526857
5259.1792 5716.5103 13800.942 0
5293.8403 5665.8198 13678.564 131072
5610.9751 5914.4121 14278.722 131072
5904.8462 6131.4404 14802.677 65536
5507.1519 5634.5342 13603.034 0
5554.3071 5600.562 13521.018 0
5649.9307 5615.7329 13557.644 0
5402.8198 5294.6074 12782.374 256
5705.1104 5513.3198 13310.395 256
5603.0249 5340.6123 12893.439 256
5507.5977 5178.8252 12502.851 0
5453.7881 5059.959 12215.88 0
5407.6807 4951.2676 11953.475 0
5416.4775 4895.0132 11817.664 0
5414.4858 4830.5747 11662.095 0
5457.0249 4806.9912 11605.158 0
5470.9058 4759.0664 11489.458 65536
5526.3286 4748.0151 11462.777 65536
5559.6396 4718.4663 11391.44 65536
5577.0542 4676.2998 11289.641 65536
5622.3306 4658.2202 11245.992 65536
5597.0376 4582.7842 11063.872 65536
5706.0269 4617.7715 11148.34 65536
5755.6709 4604.48 11116.251 196608
5466.7021 4323.6777 10438.331 262144
5614.4146 4390.6777 10600.084 327680
5734.6445 4434.937 10706.937 262144
4626.4595 3538.6458 8543.0869 262144
5273.0469 3989.4187 9631.3545 196608
4479.9609 3352.9963 8094.8877 196608
5806.8433 4299.915 10380.963 196608
5866.8916 4298.7061 10378.045 196608
5887.0835 4268.624 10305.419 65536
5938.9414 4261.8848 10289.149 131072
5961.5674 4234.52 10223.084 196608
6041.8818 4248.2695 10256.279 65536
6062.8315 4220.4204 10189.045 131072
6028.5708 4155.0693 10031.272 131072
6186.3052 4222.0308 10192.933 196608
6167.5508 4168.4116 10063.484 196608
6190.6514 4143.8389 10004.16 196608
6257.0146 4148.417 10015.212 196608
6316.9805 4148.7075 10015.914 196608
