# .PCD v0.7 - Point Cloud Data file format
VERSION 0.7
FIELDS x y z rgb
SIZE 4 4 4 4
TYPE F F F U
COUNT 1 1 1 1
WIDTH 1422
HEIGHT 1
VIEWPOINT 0 0 0 1 0 0 0
POINTS 1422
DATA ascii
-1249.9963 5249.0322 13242.373 513
-1161.5948 5205.5747 13132.736 514
-1088.7531 5230.6069 13195.889 528400
-965.85217 5000.3628 12615.023 923160
-890.30273 4997.1411 12606.896 1318433
-825.93085 5061.8301 12770.096 1516326
-742.36365 5010.0664 12639.504 1385510
-679.02179 5098.5103 12862.633 1451304
-594.823 5032.9214 12697.164 1451302
-519.79492 5037.1421 12707.812 1056288
-443.70157 5030.7202 12691.61 1648427
-369.58337 5048.6479 12736.839 1977136
-287.54431 4939.7393 12462.081 1648172
-214.23155 4957.1792 12506.079 1253413
-137.90469 4886.3521 12327.395 2239791
-60.080624 4541.7817 11458.106 791315
8.0479612 4558.2676 11499.697 516
79.048271 4716.6035 11899.15 1845033
157.4915 4959.8037 12512.701 2503223
237.47969 5080.043 12816.043 2372924
312.14502 5055.6699 12754.555 2307389
389.55255 5076.5576 12807.25 2307135
464.17004 5060.2007 12765.984 2241599
533.9566 5003.1738 12622.116 2505029
607.50299 4991.0869 12591.623 2504773
683.31616 4998.2319 12609.648 2702152
740.31146 4879.9229 12311.176 2505030
797.52594 4784.2109 12069.712 2504773
849.82245 4677.229 11799.815 2438980
895.71344 4553.9907 11488.907 2175807
936.47931 4424 11160.964 2307647
965.39722 4258.938 10744.541 2569790
991.62433 4103.2236 10351.702 2700346
980.60406 3820.5815 9638.6465 262
1028.8658 3787.363 9554.8418 5
1242.2257 4333.5737 10932.834 2698806
1377.348 4566.1143 11519.492 2371641
1479.826 4673.5347 11790.495 2371897
1648.8267 4971.8325 12543.048 2107693
1750.4962 5050.0771 12740.445 1711650
1888.0596 5221.0923 13171.885 1
1968.3218 5226.3418 13185.129 2
2048.7781 5231.6851 13198.609 2
2128.3523 5234.4653 13205.623 2
2205.9272 5232.3052 13200.174 2
2289.9087 5244.9673 13232.118 1
2326.4961 5151.8389 12997.171 259
2515.0725 5390.4473 13599.138 987669
2643.9587 5490.249 13850.92 1449505
2707.7786 5452.9907 13756.924 1384228
2718.5063 5314.1333 13406.611 989727
2801.2117 5319.8784 13421.105 1449765
2881.6521 5321.1235 13424.246 1514273
2951.5354 5303.3325 13379.362 1908002
2910.6658 5092.6938 12847.958 4
2988.168 5094.6411 12852.872 4
3026.4124 5031.228 12692.892 1381914
3128.4043 5074.2988 12801.551 1317147
3217.6482 5095.1372 12854.123 263430
3271.5645 5060.3652 12766.399 2
3332.0493 5037.1001 12707.705 2039585
3316.2498 4902.1016 12367.128 723467
3445.697 4983.0068 12571.237 196608
3561.238 5040.7939 12717.025 262144
3631.0427 5032.7871 12696.824 196608
3711.3369 5039.3486 12713.379 788747
3759.6477 5003.0874 12621.897 262144
3845.5303 5017.2642 12657.663 262144
3872.0781 4954.9683 12500.503 393216
3865.3159 4853.1958 12243.748 524288
3917.7236 4828.1035 12180.444 458752
4038.6389 4886.8164 12328.566 262144
3983.4539 4734.1499 11943.416 196608
3767.4729 4399.0762 11098.086 65536
3956.7485 4540.5879 11455.095 131073
4271.9092 4819.3291 12158.309 196610
4406.8667 4888.8838 12333.782 262146
4496.6294 4906.8442 12379.093 131076
4559.3374 4895.1782 12349.662 2
4612.7622 4874.0732 12296.418 197895
4778.7744 4970.7363 12540.282 988183
4793.9468 4909.9409 12386.906 855569
4986.7397 5030.1523 12690.178 1
5045.0635 5013.1621 12647.314 2
5300.9312 5190.084 13093.656 790033
5455.9043 5264.5303 13281.472 1580321
5482.1631 5214.4258 13155.066 1318690
5569.4517 5222.9624 13176.604 1318437
5670.3765 5243.8735 13229.358 1844780
5591.4258 5100.1416 12866.748 1778729
5531.9468 4977.8096 12558.126 1383970
5507.4146 4889.7612 12335.997 988439
5333.8311 4673.4302 11790.232 461578
5476.8735 4736.5356 11949.436 257
5451.1792 4653.9658 11741.127 132100
5452.8999 4596.5933 11596.386 197123
5479.3779 4561.2622 11507.251 196865
5370.3779 4415.4141 11139.303 327680
5250.1772 4264.0215 10757.366 524288
5010.1538 4020.1267 10142.063 786432
4936.7119 3914.1064 9874.5928 1048576
5061.8364 3966.1619 10005.92 1245184
5033.9902 3898.542 9835.3262 1310720
5007.6914 3833.6584 9671.6367 1310720
5043.644 3817.3633 9630.5273 1114112
5098.3823 3815.4929 9625.8086 851968
4542.8203 3361.9998 8481.7266 655616
4297.1216 3145.2642 7934.9409 393472
4163.3442 3014.2654 7604.4546 327680
3539.6965 2535.2222 6395.9136 525312
4464.6641 3163.7324 7981.5332 262144
4999.0356 3505.1545 8842.8799 196608
5083.3267 3527.1743 8898.4316 196608
5150.1704 3536.7593 8922.6133 196608
5208.2305 3540.178 8931.2383 65536
5286.3833 3557.0476 8973.7979 65536
5345.563 3560.9417 8983.6211 65536
5429.6963 3581.2168 9034.7715 65536
5446.0562 3556.8323 8973.2539 65536
5548.7407 3588.7522 9053.7822 65536
5661.2886 3626.3777 9148.7041 65536
5640.3047 3578.5659 9028.084 65536
5753.3672 3615.9014 9122.2744 65536
5799.2153 3610.6904 9109.1289 65536
5871.1914 3621.6938 9136.8877 65536
6130.3115 3746.8784 9452.707 65536
6248.96 3784.7124 9548.1553 65536
6183.5063 3711.3667 9363.1162 65536
6267.6025 3728.2888 9405.8086 65536
6352.3794 3745.3132 9448.7578 65536
6457.0015 3773.6372 9520.2148 65536
6626.1519 3838.854 9684.7441 65536
6713.3735 3855.8906 9727.7246 65536
6828.96 3888.7881 9810.7197 65536
6898.2236 3894.9744 9826.3262 65536
6955.915 3894.5769 9825.3232 131072
7095.6777 3939.7546 9939.2988 196608
7270.8369 4003.6777 10100.565 196608
7300.3154 3986.9915 10058.469 196608
7409.4546 4013.7292 10125.923 65536
7416.2471 3985.041 10053.548 65536
7577.8086 4039.3101 10190.459 65536
7657.9917 4049.6841 10216.632 65536
7752.73 4067.532 10261.658 65536
7836.0498 4079.1567 10290.985 0
7992.9258 4128.5957 10415.711 0
8100.6675 4152.0903 10474.983 0
8255.9209 4199.3931 10594.32 0
8409.9912 4245.3828 10710.345 0
8555.9287 4286.6069 10814.346 0
8755.8418 4354.0571 10984.511 0
8975.2646 4430.1387 11176.45 0
9138.1768 4477.4141 11295.718 0
9530.2734 4635.4741 11694.476 0
9728.9395 4697.8433 11851.821 0
9948.7822 4769.4673 12032.517 0
10115.218 4814.6484 12146.5 0
9855.4131 4657.7446 11750.659 0
9818.499 4607.6479 11624.274 0
10128.236 4719.792 11907.193 0
10300.232 4766.6367 12025.374 0
10457.989 4806.292 12125.418 0
10829.738 4943.0786 12470.506 0
11013.981 4993.0024 12596.455 0
11652.754 5246.9141 13237.029 0
11538.795 5160.7598 13019.677 0
12309.932 5468.9771 13797.254 65536
12516.406 5523.9106 13935.843 65536
13308.418 5834.8413 14720.265 65536
12497.692 5443.6074 13733.251 65536
13421.077 5807.8745 14652.232 65536
13234.948 5690.4053 14355.879 65536
13502.605 5768.2993 14552.391 65536
13407.091 5691.042 14357.485 65536
14158.713 5972.0801 15066.494 196608
14429.794 6048.1699 15258.455 196608
13977.838 5822.1445 14688.233 196608
14409.112 5964.5312 15047.45 262144
15071.723 6200.3301 15642.327 262144
15262.593 6240.3589 15743.314 262144
0 0 0 0
0 0 0 0
0 0 0 0
-8595.5273 3805.9353 9459.8555 0
-8670.3545 3864.3442 9605.0342 0
-8769.8906 3934.6128 9779.6904 0
-8688.0557 3923.9041 9753.0732 0
-8626.5996 3922.3169 9749.1279 0
-8603.8711 3938.4363 9789.1934 0
-8816.8613 4063.4104 10099.823 0
-8810.9932 4088.5413 10162.288 0
-8761.1914 4093.4922 10174.594 0
-8729.5938 4107.0767 10208.358 0
-8603.9658 4076.3018 10131.866 0
-8532.5352 4070.9521 10118.568 0
-8462.5137 4066.2029 10106.765 0
-8640.3252 4181.3208 10392.896 0
-8593.9688 4188.8325 10411.566 0
-8625.1816 4234.5366 10525.167 0
-8541.2539 4223.9663 10498.895 0
-8795.6543 4381.7881 10891.169 0
-8854.0869 4443.5996 11044.805 0
-8792.8975 4445.8516 11050.401 0
-8732.6855 4448.6353 11057.32 0
-8669.8994 4450.1401 11061.061 0
-8605.627 4450.8989 11062.947 0
-8545.835 4454.0044 11070.666 0
-8489.6006 4459.0273 11083.15 0
-8423.7578 4459.042 11083.188 0
-8362.0869 4461.2832 11088.757 0
-8298.4648 4462.5103 11091.808 0
-8232.9004 4462.7041 11092.29 0
-8166.4209 4462.4019 11091.538 0
-8099.291 4461.7354 11089.882 0
-8042.1597 4466.6118 11102.002 0
-7981.0854 4469.3604 11108.834 0
-7917.6387 4470.8159 11112.451 0
-7852.0835 4471.0947 11113.145 0
-7790.0708 4473.4126 11118.906 0
-7727.5088 4475.4521 11123.976 0
-7666.1973 4478.2573 11130.947 0
-7602.1309 4479.4878 11134.007 0
-7540.8506 4482.397 11141.236 0
-7479.4819 4485.3037 11148.461 0
-7416.3604 4487.2017 11153.18 0
-7351.4902 4488.0669 11155.33 0
-7286.7725 4489.042 11157.753 0
-7225.7612 4492.3389 11165.948 0
-7166.0723 4496.5269 11176.357 0
-7105.4502 4500.2017 11185.491 0
-7046.2129 4504.832 11197 0
-6993.1128 4513.5112 11218.573 0
-6932.1694 4517.2471 11227.858 0
-6873.2837 4522.4087 11240.688 0
-6813.6699 4527.188 11252.567 0
-6758.1338 4534.7988 11271.484 0
-6710.7847 4548.1104 11304.57 0
-6634.79 4542.0801 11289.583 0
-6568.3789 4542.5557 11290.765 65536
-6508.9531 4547.9209 11304.1 0
-6456.1035 4558.0405 11329.254 0
-6391.8682 4560.2515 11334.749 0
-6342.2451 4573.0449 11366.548 0
-6283.9727 4579.811 11383.365 0
-6218.2207 4581.2129 11386.85 0
-6163.6895 4591.0034 11411.185 0
-6099.6372 4593.8418 11418.239 0
-6029.1694 4591.8574 11413.308 0
-5974.1318 4601.7139 11437.806 0
-5902.8457 4599.1372 11431.4 0
-5841.3726 4604.2349 11444.072 0
-5781.9097 4611.0557 11461.025 65536
-5716.3145 4613.0908 11466.084 0
-5645.1123 4610.5957 11459.882 0
-5583.4321 4615.9111 11473.094 0
-5518.104 4618.3057 11479.045 0
-5449.6021 4618.0698 11478.459 0
-5394.125 4629.0054 11505.64 0
-5341.3467 4642.5679 11539.35 0
-5283.3003 4651.8442 11562.407 0
-5222.4062 4658.8252 11579.759 0
-5159.1924 4663.896 11592.362 0
-5106.7153 4678.9404 11629.757 0
-5036.103 4677.5542 11626.311 0
-4975.8374 4685.8726 11646.987 0
-4936.2173 4714.1431 11717.254 65536
-4880.7178 4727.8398 11751.299 0
-4837.6006 4754.104 11816.579 0
-4773.042 4759.7598 11830.637 65536
-4711.3252 4768.4604 11852.263 65536
-4676.7461 4805.3091 11943.853 65536
-4610.9604 4810.7358 11957.341 65536
-4565.5566 4837.9292 12024.932 65536
-4499.1255 4843.3516 12038.409 65536
-4429.5063 4845.4624 12043.655 0
-4358.4883 4846.0874 12045.208 65793
-4286.0195 4845.0918 12042.734 0
-4225.1943 4857.4492 12073.449 0
-4168.0923 4874.5879 12116.049 0
-4111.9492 4893.4702 12162.981 65536
-4029.1487 4880.7368 12131.332 65536
-3967.05 4893.0737 12161.996 65536
-3899.647 4899.2041 12177.234 65536
-3834.9292 4909.0044 12201.592 65536
-3768.1699 4916.5186 12220.269 65536
-3707.813 4932.8457 12260.851 65536
-3650.8223 4954.395 12314.413 131072
-3629.3726 5026.0449 12492.503 65536
-3543.2039 5009.1909 12450.611 65536
-3442.6648 4970.8682 12355.358 65536
-3368.7585 4970.1689 12353.62 65536
-3294.3196 4968.6348 12349.808 65536
-3236.6921 4992.9648 12410.28 0
-3191.1794 5037.5532 12521.107 0
-3148.6143 5089.0356 12649.069 0
-3067.9189 5079.8989 12626.36 0
-2988.1421 5071.8638 12606.388 0
-2912.4487 5070.5244 12603.06 0
-2845.2312 5084.2607 12637.201 0
-2745.3679 5038.8237 12524.265 0
-2671.9487 5040.7412 12529.032 0
-2589.575 5025.3926 12490.882 0
-2517.2827 5029.2793 12500.542 0
-2446.4519 5036.4111 12518.269 0
-2371.2671 5034.7451 12514.128 0
-2300.5911 5042.8555 12534.286 0
-2220.2961 5029.7178 12501.632 0
-2138.2815 5011.6396 12456.698 0
-2069.804 5025.1313 12490.231 0
-1999.6798 5035.4795 12515.953 0
-1928.7544 5044.5322 12538.454 0
-1868.3541 5082.9468 12633.936 0
-1803.8005 5112.8057 12708.151 0
-1727.55 5110.6709 12702.845 256
-1667.7205 5159.1396 12823.316 0
-1599.4229 5184.7998 12887.097 0
-1524.0173 5188.8413 12897.143 257
-1440.8801 5165.5923 12839.355 1283
-1214.4073 4597.1455 11426.451 198922
-1211.256 4856.8154 12071.874 199434
-1159.3102 4941.2139 12281.65 659988
-1068.0773 4858.2534 12075.447 1121053
-999.83545 4875.4497 12118.191 1187105
-965.5545 5073.7739 12611.136 1581863
-901.19757 5134.1357 12761.169 1055264
-825.20746 5133.2271 12758.91 1778474
-746.94153 5116.5449 12717.446 660250
-667.30737 5085.6797 12640.729 1121058
-583.07886 5007.5259 12446.473 1121314
-512.99207 5045.7568 12541.498 1450536
-439.77652 5060.9805 12579.338 1384745
-363.99771 5046.9009 12544.342 1713967
-275.66333 4806.6411 11947.163 1582894
-197.68637 4642.9219 11540.23 2108466
-132.02069 4748.0044 11801.419 2239792
-59.850151 4592.1973 11414.152 516
8.0161047 4608.3003 11454.177 259
76.539566 4635.3921 11521.514 2436915
157.93298 5048.2827 12547.776 1648172
228.18156 4954.3301 12314.252 1977909
301.5141 4956.709 12320.164 2043189
373.35538 4938.4326 12274.738 1978167
445.1405 4925.5098 12242.618 2043960
522.55005 4969.709 12352.478 2175291
602.00293 5020.0591 12477.624 2307135
664.95312 4936.8423 12270.784 2175550
732.93182 4903.7178 12188.453 2307393
781.30951 4757.208 11824.294 2438979
834.48962 4661.7061 11586.919 2373186
879.34515 4537.8057 11278.959 2570565
924.41144 4432.4692 11017.139 2570565
975.72736 4369.0522 10859.513 3096651
971.29773 4079.3772 10139.51 3161414
970.17499 3836.625 9536.1357 461325
1024.2792 3827.0137 9512.2471 8
1075.8477 3809.4292 9468.54 3290430
1337.9688 4502.0728 11190.142 2569019
1443.327 4626.6113 11499.689 2306619
1522.8041 4660.6772 11584.361 1451308
1668.4187 4885.4595 12143.07 1517098
1793.884 5035.0469 12514.878 1977134
1890.0449 5093.7466 12660.779 2239791
1954.8767 5066.7505 12593.679 1581858
2087.7642 5211.6318 12953.789 1514524
2160.304 5200.9209 12927.166 329738
2258.0298 5249.4985 13047.908 0
2329.2056 5235.1753 13012.308 260
2381.8608 5181.4839 12878.854 260
2481.4216 5229.9961 12999.435 4
2579.1443 5271.8223 13103.396 3
2672.4006 5302.3345 13179.235 3
2727.5154 5257.5874 13068.014 3
2812.1038 5270.5581 13100.254 1776929
2903.6304 5295.4839 13162.208 328966
2931.4055 5205.8853 12939.506 196610
2963.5605 5128.4473 12747.029 196610
3006.4185 5072.9292 12609.036 263173
3086.5796 5081.5254 12630.402 657932
3163.1885 5084.0039 12636.562 1
3257.8528 5114.7129 12712.893 2
3300.5256 5064.2563 12587.479 328452
3257.0537 4886.7871 12146.37 196608
3393.9155 4981.7148 12382.318 262144
3478.0225 4996.8208 12419.865 196608
3550.6204 4995.1079 12415.607 131072
3641.7334 5018.9814 12474.947 65537
3722.6543 5028.1367 12497.702 1
3744.5178 4958.7261 12325.179 591623
3776.4536 4905.062 12191.793 262144
3755.9087 4786.5361 11897.19 393216
3835.3816 4797.498 11924.438 393216
3938.2317 4836.7734 12022.058 196608
3833.6494 4624.4287 11494.265 789003
3700.4836 4385.644 10900.752 1183504
4014.196 4675.5825 11621.41 196609
4161.7441 4765.4443 11844.767 196608
4298.9111 4840.6279 12031.639 196610
4333.8237 4800.0952 11930.894 131074
4450.8701 4850.3735 12055.862 2
4484.5742 4809.6743 11954.702 789776
4549.2129 4802.9048 11937.876 2172201
4564.2236 4744.7515 11793.334 1843236
4615.3174 4725.3008 11744.987 1
4968.5952 5011.2051 12455.618 1
5250.0034 5217.2935 12967.861 1447962
5414.186 5302.6079 13179.915 922390
5414.4277 5227.2173 12992.527 462097
5542.0503 5275.1938 13111.775 593942
5596.4922 5253.1489 13056.981 1910061
5707.437 5284.0181 13133.709 1976111
5721.353 5225.4351 12988.099 1844782
5716.2495 5151.2729 12803.764 1845038
5626.7817 5004.0317 12437.788 1778989
5410.835 4749.5879 11805.354 1845038
5525.2549 4787.938 11900.676 1845809
5448.2822 4661.564 11586.565 1977652
5435.6592 4592.7144 11415.437 2175288
5272.7227 4400.125 10936.745 1977651
5207.1797 4292.5117 10669.268 1911858
4877.2988 3972.2041 9873.125 2109236
4699.0161 3781.5098 9399.1445 2108721
4465.0269 3550.9934 8826.1836 1910314
4392.3433 3452.6262 8581.6865 1909284
4354.502 3383.5906 8410.0947 2171683
4331.3618 3327.4155 8270.4688 1709847
4493.8018 3413.4666 8484.3535 722695
4329.8779 3252.4546 8084.1499 459009
3972.9177 2951.5662 7336.2754 524288
4571.2026 3359.1785 8349.418 458752
4794.5298 3485.4553 8663.2852 524288
4923.6343 3541.2793 8802.0391 393216
4990.71 3551.7852 8828.1523 196608
5082.3843 3579.397 8896.7822 196608
5080.3872 3541.1484 8801.7139 65536
5188.0894 3579.3635 8896.6992 0
5242.981 3580.7402 8900.1211 65536
5360.3335 3624.3215 9008.4443 65536
5371.9844 3596.2786 8938.7422 65536
5486.6011 3637.0403 9040.0576 65536
5545.8374 3640.656 9049.0449 65536
5627.3188 3658.6655 9093.8086 65536
5693.2417 3666.3127 9112.8164 65536
5779.5698 3686.8325 9163.8193 65536
5800.7769 3665.8162 9111.582 65536
5804.0068 3633.9326 9032.334 65536
5883.7837 3650.1208 9072.5703 65536
6032.0269 3708.1042 9216.6904 65536
6123.4023 3730.3992 9272.1064 65536
6249.8433 3773.4683 9379.1572 65536
6377.2373 3816.3462 9485.7324 65536
6432.8477 3815.8916 9484.6025 65536
6593.4644 3877.1919 9636.9678 65536
6708.856 3911.0723 9721.1787 65536
6735.9844 3893.3579 9677.1484 65536
6871.7764 3938.2185 9788.6523 65536
6917.6543 3931.2288 9771.2793 65536
7039.1357 3966.9629 9860.0977 0
7133.6343 3987.0256 9909.9648 0
7234.0352 4010.0317 9967.1475 65536
7354.0625 4043.4548 10050.223 65536
7503.3184 4092.2812 10171.583 65536
7605.8076 4115.0244 10228.112 65536
7636.4175 4098.8252 10187.849 65536
7710.9077 4106.249 10206.301 65536
7815.8521 4129.6479 10264.46 0
7885.0283 4133.9316 10275.107 0
8023.0757 4173.9795 10374.649 0
8120.2764 4192.3281 10420.256 0
8257.9453 4231.1343 10516.71 0
8411.5391 4277.4551 10631.843 1
8780.1895 4431.6309 11015.056 1
8927.0322 4472.3999 11116.39 0
9102.4062 4526.7598 11251.503 0
9345.708 4613.8608 11467.997 0
9611.4336 4710.6914 11708.675 0
9665.7598 4703.2646 11690.216 0
10199.597 4927.604 12247.823 0
9755.5566 4679.6821 11631.6 0
10369.731 4939.2969 12276.887 0
9886.3008 4676.127 11622.763 0
10081.212 4735.2314 11769.671 0
11228.987 5238.0063 13019.345 0
11389.673 5276.6006 13115.273 0
12320.978 5669.2559 14091.238 0
12335.318 5637.5347 14012.394 0
12368.606 5614.8403 13955.985 0
11700.202 5276.0303 13113.854 65536
12575.067 5633.0137 14001.156 65536
12700.322 5651.7217 14047.656 65536
12445.81 5502.291 13676.238 65536
12622.547 5544.2183 13780.45 65536
12676.809 5532.1553 13750.468 65536
13492.729 5850.5068 14541.747 65536
13649.009 5880.6025 14616.552 131072
13505.425 5781.9404 14371.321 196608
13753.231 5851.0269 14543.04 196608
13906.521 5879.291 14613.292 196608
14054.146 5904.8252 14676.758 196608
14505.443 6056.8442 15054.609 262144
14728.381 6112.231 15192.276 262144
0 0 0 0
0 0 0 0
0 0 0 0
-8462.4873 3802.3811 9313.4385 0
-8552.9688 3868.3394 9474.9941 0
-8701.916 3961.7898 9703.8896 0
-8621.0693 3951.1692 9677.875 0
-8560.1221 3949.5872 9674 0
-8530.8887 3962.7151 9706.1562 0
-8771.0762 4102.0244 10047.376 0
-8730.0576 4110.8281 10068.939 0
-8675.1621 4113.1733 10074.685 0
-8611.8418 4111.5303 10070.659 0
-8555.1143 4113.0327 10074.34 0
-8497.9688 4114.355 10077.577 0
-8441.9697 4116.2539 10082.229 0
-8604.1035 4225.3013 10349.327 0
-8517.9072 4213.0908 10319.419 0
-8535.2334 4252.2783 10415.403 0
-8664.7539 4348.3428 10650.701 0
-8721.2598 4408.9097 10799.051 0
-8793.9824 4478.6328 10969.829 0
-8732.9912 4480.791 10975.115 0
-8674.6006 4484.3262 10983.774 0
-8611.1406 4485.2744 10986.097 0
-8474.4854 4447.8208 10894.358 0
-8414.5664 4450.375 10900.615 0
-8359.3799 4455.4917 10913.147 0
-8299.1787 4457.9941 10919.277 0
-8238.209 4460.1206 10924.486 0
-8178.2461 4462.8296 10931.122 0
-8113.4155 4462.9053 10931.307 0
-8052.6353 4465.2275 10936.995 0
-7984.1099 4463.2583 10932.171 0
-7927.3662 4467.897 10943.533 0
-7869.6616 4472.0659 10953.744 0
-7809.2036 4474.7271 10960.263 0
-7744.3501 4474.8926 10960.668 0
-7685.54 4478.583 10969.707 0
-7623.0249 4480.1592 10973.567 0
-7584.5239 4495.9976 11012.362 0
-7521.6909 4497.5625 11016.195 0
-7460.813 4500.3345 11022.984 0
-7397.4658 4501.6523 11026.213 0
-7366.3496 4522.7837 11077.971 0
-7302.9971 4524.3247 11081.746 0
-7240.457 4526.4019 11086.833 0
-7177.5605 4528.2925 11091.464 0
-7116.2017 4531.1968 11098.578 0
-7054.1177 4533.6895 11104.683 0
-6993.7188 4537.3228 11113.583 0
-6933.9131 4541.4136 11123.603 0
-6873.3096 4545.0562 11132.524 0
-6823.8359 4556.2002 11159.82 0
-6763.0649 4559.9463 11168.996 0
-6705.6211 4566.0317 11183.901 0
-6656.4243 4577.9111 11212.999 0
-6573.4849 4566.5898 11185.269 0
-6515.0625 4572.2437 11199.116 0
-6458.4443 4579.292 11216.381 0
-6395.439 4581.9126 11222.8 0
-6339.1211 4589.4302 11241.213 0
-6283.3423 4597.5015 11260.982 0
-6230.4521 4607.8833 11286.412 0
-6170.4805 4613.1978 11299.428 0
-6107.4619 4616.3247 11307.088 0
-6047.0137 4621.4863 11319.73 0
-5981.0229 4622.4805 11322.165 65536
-5920.9531 4628.1255 11335.992 65536
-5861.3169 4634.2432 11350.977 65536
-5794.2529 4634.562 11351.758 65536
-5729.0884 4636.4258 11356.322 65536
-5664.2563 4638.606 11361.663 0
-5600.3472 4641.604 11369.006 0
-5538.5913 4646.4819 11380.953 0
-5473.0654 4648.2778 11385.353 0
-5405.8896 4648.7007 11386.388 0
-5341.1724 4651.2744 11392.692 0
-5285.4902 4661.8838 11418.679 0
-5238.9565 4680.9434 11465.363 0
-5179.2227 4688.5552 11484.007 0
-5115.7622 4692.9521 11494.776 0
-5069.0557 4713.0454 11543.992 0
-4998.7808 4711.4761 11540.148 0
-4945.0103 4725.6348 11574.829 0
-4897.0298 4745.8052 11624.233 65536
-4845.0391 4762.6108 11665.396 65536
-4783.6919 4770.5728 11684.898 65536
-4695.7778 4751.8857 11639.126 65536
-4633.4639 4758.9326 11656.388 65536
-4613.4238 4810.272 11782.136 65536
-4561.4019 4829.3325 11828.822 65536
-4504.7339 4843.9941 11864.734 65536
-4433.4287 4843.1328 11862.624 65536
-4361.4678 4841.5142 11858.66 0
-4094.5964 4619.9268 11315.91 0
-3886.5818 4458.4546 10920.405 657928
-3897.7139 4547.1602 11137.678 328964
-4120.7769 4890.4448 11978.51 65536
-4057.5122 4900.0186 12001.959 65536
-3981.8159 4894.6538 11988.818 65536
-3914.9604 4900.1587 12002.302 65536
-3844.3599 4901.0938 12004.592 65536
-3774.5378 4903.0747 12009.445 65536
-3711.1331 4913.6294 12035.297 65536
-3646.7295 4923.25 12058.861 65536
-3586.9395 4939.6104 12098.934 65536
-3565.2639 5010.2012 12271.837 0
-3485.4319 5000.3071 12247.604 0
-3402.7268 4985.7827 12212.026 0
-3330.0959 4985.7065 12211.84 0
-3244.7126 4966.1094 12163.84 0
-3174.7019 4969.6841 12172.595 0
-3096.6812 4960.5933 12150.328 256
-3065.4636 5027.833 12315.023 256
-2995.1426 5032.6577 12326.841 256
-2925.3455 5038.6265 12341.461 256
-2839.2795 5016.1606 12286.435 256
-2770.5593 5023.9624 12305.543 0
-2676.9441 4985.8198 12212.117 256
-2612.5459 5001.4844 12250.486 256
-2538.5166 4999.0815 12244.601 66306
-2325.5657 4714.8843 11548.497 659470
-2392.8069 4998.7437 12243.772 513
-2314.8293 4987.521 12216.284 264455
-2182.7761 4855.2876 11892.396 513
-2172.0388 4993.0854 12229.914 256
-2091.7227 4974.9385 12185.466 256
-2024.4186 4987.5493 12216.354 0
-1957.7627 5002.7539 12253.596 256
-1889.0385 5013.6436 12280.269 256
-1722.3009 4754.8198 11646.313 527886
-1593.392 4583.1289 11225.779 659731
-1527.012 4584.1455 11228.269 463123
-1513.4231 4750.979 11636.905 1252897
-1393.8196 4585.0488 11230.481 1055776
-1327.9691 4588.145 11238.065 1056545
-1269.9033 4619.8901 11315.82 1385510
-1210.0623 4648.3652 11385.567 1122083
-1148.8729 4674.7285 11450.14 1187619
-1074.4989 4647.3853 11383.166 1581864
-1015.6266 4687.9204 11482.451 1582890
-969.60852 4797.9009 11751.835 1186851
-897.72229 4787.0176 11725.177 1581865
-845.54901 4888.2656 11973.172 1845806
-758.43109 4787.5371 11726.45 1648172
-689.67377 4794.0508 11742.404 1714224
-621.89191 4809.5747 11780.428 1648431
-547.24048 4769.1699 11681.462 1648431
-481.13943 4802.3667 11762.773 2043445
-422.02289 4928.416 12071.515 1188137
-331.48862 4664.0527 11423.991 2043445
-264.56424 4681.2573 11466.132 2175032
-194.05551 4624.9741 11328.272 2175031
-128.60095 4693.3398 11495.727 2174516
-57.703297 4492.8784 11004.722 1054748
7.8320518 4569.0049 11191.185 518
73.663605 4527.1216 11088.596 517
143.3842 4650.9409 11391.876 527635
217.45494 4791.1787 11735.37 462357
282.5694 4713.8911 11546.064 858144
379.79352 5097.8022 12486.404 858658
437.51868 4912.6899 12032.996 1319725
499.06662 4816.4863 11797.357 1451568
586.37744 4961.9922 12153.756 1649462
644.45197 4855.3154 11892.464 1715512
712.95282 4840.5132 11856.209 2175808
761.41693 4704.5732 11523.24 2241346
813.67365 4612.5688 11297.888 2175553
873.7016 4575.2871 11206.571 2307395
915.8938 4456.5034 10915.626 2109757
976.12872 4435.4175 10863.979 2109241
957.12585 4079.2397 9991.5674 1976626
972.92883 3904.3518 9563.2031 1514786
1017.6435 3858.3887 9450.6221 263
1061.4114 3813.8323 9341.4863 659734
1250.2739 4269.1401 10456.704 2306104
1395.5596 4539.5762 11119.103 2175802
1483.6541 4607.9346 11286.537 2241854
1571.5028 4669.6489 11437.698 2373183
1662.0062 4733.8062 11594.844 1978167
1805.2251 4937.0239 12092.599 1911603
1920.4071 5050.9395 12371.62 1516329
2028.4479 5138.3633 12585.754 1187360
2069.7063 5056.416 12385.034 1186847
2211.0193 5216.1416 12776.261 1779240
2255.8411 5145.1807 12602.451 1910826
2346.4771 5179.9165 12687.533 1712678
2407.2964 5148.7178 12611.115 395788
2481.8484 5147.8877 12609.082 258
2547.925 5130.0415 12565.37 3
2634.9639 5154.2158 12624.582 1
2719.5657 5172.4165 12669.162 65537
2809.6196 5199.7266 12736.055 196608
2878.2297 5186.959 12704.782 196608
2913.9028 5117.0049 12533.438 196608
2963.8237 5074.9346 12430.393 196608
3025.7439 5054.9565 12381.46 131073
3087.7632 5036.0894 12335.247 131073
3157.6665 5030.6582 12321.943 131072
3209.0229 4996.5947 12238.509 196608
3283.8774 4999.8174 12246.403 262144
3331.8469 4962.855 12155.868 393216
3387.4536 4938.5957 12096.448 262144
3437.9109 4907.9932 12021.491 262144
3552.8992 4968.8862 12170.642 262144
3615.3884 4955.3921 12137.589 262144
3680.6855 4946.1997 12115.073 196608
3762.3357 4958.9136 12146.214 393216
3784.5215 4894.2476 11987.823 393216
3868.6743 4910.6289 12027.947 393216
3776.677 4706.8789 11528.888 262144
3817.9209 4673.4897 11447.106 196608
3802.6326 4573.2817 11201.659 196608
0 0 0 0
0 0 0 0
0 0 0 0
0 0 0 0
0 0 0 0
0 0 0 0
0 0 0 0
0 0 0 0
4475.207 4649.5371 11388.437 3
4868.9912 4983.291 12205.924 2
5117.5371 5160.7798 12640.66 1448477
5291.4629 5258.9712 12881.167 725271
5457.4985 5346.6323 13095.881 1581094
5540.2544 5351.3872 13107.527 1317667
5574.1753 5309.4937 13004.914 1120801
5608.7407 5269.3516 12906.593 1055008
5651.062 5237.4814 12828.53 1055008
5651.4639 5168.1255 12658.651 989215
5704.2456 5147.8618 12609.02 1120801
5875.9292 5234.0381 12820.096 1581611
5813.7593 5112.3667 12522.077 1384489
5545.5913 4814.9146 11793.508 1713710
5610.2563 4810.2607 11782.108 1845810
5865.4727 4967.0869 12166.234 1911347
5525.7368 4622.4028 11321.976 2042932
5559.3843 4594.5986 11253.872 2240311
5283.0293 4314.2969 10567.31 2240568
5191.2036 4189.5034 10261.645 2372155
4971.8716 3965.9009 9713.959 2306361
5201.5332 4101.4688 10046.015 2371898
4758.3677 3709.4478 9085.8105 2436920
4278.0317 3297.5735 8076.9775 2370868
0 0 0 0
3469.9468 2615.9805 6407.5039 2893862
3587.8606 2675.512 6553.3188 393216
3781.3354 2789.5066 6832.5337 393216
3651.0181 2664.7539 6526.9683 327680
4696.1602 3391.5327 8307.1182 262144
4717.4146 3371.437 8257.8975 196608
4795.3311 3391.8342 8307.8574 0
4841.8345 3389.8228 8302.9307 65536
4886.7944 3386.7825 8295.4834 65536
4947.1177 3394.3438 8314.0039 65536
5029.0918 3416.4634 8368.1836 65536
5058.3223 3402.6704 8334.3994 65536
5108.9077 3403.3711 8336.1152 65536
5186.6128 3421.9502 8381.623 65536
5235.52 3421.3572 8380.1699 65536
5269.1699 3410.8989 8354.5537 0
5370.1108 3443.7883 8435.1123 0
5388.7969 3423.8083 8386.1738 0
5495.3047 3459.4817 8473.5508 0
6080.5801 3793.1704 9290.8779 0
6184.3247 3823.1687 9364.3555 0
5894.5332 3611.5173 8845.9424 65536
5831.3296 3541.2083 8673.7295 65536
6013.8843 3620.0662 8866.8818 65536
6075.2144 3625.2168 8879.4971 65536
6451.0708 3816.3467 9347.6455 65536
6575.5171 3856.7527 9446.6152 65536
6714.6611 3905.0227 9564.8457 65536
6827.5005 3937.313 9643.9365 65536
6621.0498 3786.4683 9274.4619 65536
7027.7676 3985.8801 9762.8955 65536
7080.0811 3982.6677 9755.0273 65536
7177.0986 4004.4504 9808.3809 65536
7288.0215 4033.5774 9879.7236 65536
7305.7837 4011.0913 9824.6475 65536
7302.5083 3977.5029 9742.377 65536
7375.7988 3985.8184 9762.7441 65536
7648.2261 4100.7759 10044.318 0
7352.9131 3911.9033 9581.6992 256
6499.856 3431.4832 8404.9717 256
7789.6084 4081.0205 9995.9297 658958
7584.3657 3943.4175 9658.8887 1054484
7045.5991 3635.7717 8905.3506 1316888
8400.8721 4302.8159 10539.188 513
8449.6328 4295.7607 10521.907 1
8916.2588 4499.6899 11021.405 2
9042.3604 4530.0479 11095.764 1
9133.8779 4542.7661 11126.915 0
10433.663 5151.9175 12618.953 0
10969.037 5377.6187 13171.778 0
11159.899 5432.4199 13306.006 0
11352.531 5487.3047 13440.439 0
11709.71 5620.4004 13766.441 0
11948.177 5695.0669 13949.326 0
10527.69 4983.417 12206.232 0
10588.883 4978.0791 12193.158 0
10855.926 5068.9316 12415.689 0
11152.051 5172.0449 12668.252 0
11349.975 5228.5371 12806.622 0
11540.407 5280.8491 12934.754 65536
11805.699 5366.4971 13144.537 65536
11975.567 5407.9277 13246.016 65536
12544.223 5627.7256 13784.382 65536
12490.59 5567.3042 13636.389 65536
13391.312 5930.2949 14525.486 65536
13240.505 5825.9521 14269.913 65536
13555.039 5926.3892 14515.921 196608
13916.149 6045.7905 14808.378 196608
14171.792 6118.1597 14985.637 196608
14336.819 6150.7485 15065.46 196608
14528.501 6194.2974 15172.127 196608
14897.236 6312.3315 15461.235 262144
15078.046 6349.7769 15552.954 262144
0 0 0 0
0 0 0 0
0 0 0 0
-8605.249 3922.8135 9470.5547 0
-8453.4805 3879.0005 9364.7803 0
-8644.6504 3993.0117 9640.0293 0
-8554.2158 3977.6018 9602.8262 0
-8493.8125 3976.0427 9599.0625 0
-8465.5039 3989.5884 9631.7646 0
-8370.0508 3971.459 9587.9961 0
-8610.5371 4113.5723 9931.0889 0
-8541.3193 4108.668 9919.25 0
-8505.1865 4119.7222 9945.9365 0
-8452.9561 4123.0786 9954.04 0
-8397.9912 4125.1396 9959.0156 0
-8332.0312 4121.7905 9950.9307 0
-8516.791 4243.3096 10244.304 0
-8460.8428 4245.7866 10250.285 0
-8582.2012 4337.9214 10472.718 0
-8552.3252 4354.4009 10512.504 0
-8592.7646 4407.1875 10639.942 0
-8585.2832 4435.9956 10709.492 0
-8520.2705 4435.2861 10707.779 0
-8459.8057 4436.9517 10711.801 0
-8395.8896 4436.8188 10711.479 0
-8333.2539 4437.3647 10712.798 0
-8277.1133 4441.4058 10722.553 0
-8224.9492 4447.6587 10737.649 0
-8170.3037 4452.6567 10749.716 0
-8067.832 4431.4648 10698.554 0
-8004.7466 4431.7412 10699.221 0
-7939.2266 4430.6636 10696.619 0
-7882.417 4434.4688 10705.807 0
-7817.8516 4433.938 10704.523 0
-7766.1689 4440.7642 10721.004 0
-7706.8638 4443.3081 10727.146 0
-7643.7554 4443.6841 10728.054 0
-7584.1313 4446.1094 10733.909 0
-7526.7104 4449.8779 10743.008 0
-7469.2539 4453.6899 10752.21 0
-7406.146 4454.1689 10753.366 0
-7343.6973 4455.0562 10755.508 0
-7285.6035 4458.623 10764.12 0
-7266.0874 4486.0723 10830.389 0
-7201.3081 4485.8169 10829.771 0
-7143.9688 4490.2329 10840.433 0
-7078.9702 4489.8711 10839.56 0
-7018.77 4492.5742 10846.085 0
-6958.5776 4495.3325 10852.744 0
-6899.3179 4498.75 10860.995 0
-6839.6333 4501.9536 10868.729 0
-6783.0454 4507.2749 10881.576 0
-6723.7754 4510.8994 10890.326 0
-6660.1592 4511.6509 10892.141 0
-6602.3936 4516.4189 10903.651 0
-6571.6797 4539.9697 10960.509 0
-6507.0859 4540.3521 10961.433 0
-6418.2983 4523.6904 10921.207 0
-6327.2656 4505.0898 10876.301 0
-6272.0854 4511.896 10892.732 0
-6228.3555 4527.167 10929.6 0
-6171.1772 4532.8813 10943.396 0
-6120.8457 4543.8008 10969.758 0
-6070.2466 4554.7539 10996.201 0
-6034.584 4577.2749 11050.572 0
-5975.0605 4581.9941 11061.966 0
-5914.4136 4585.9473 11071.509 0
-5852.3452 4588.875 11078.577 65536
-5794.3091 4595.0664 11093.524 65536
-5731.9434 4597.9277 11100.433 65536
-5664.3955 4596.6504 11097.349 65536
-5598.3354 4596.5649 11097.142 65536
-5533.5396 4597.5269 11099.465 0
-5471.8188 4601.0986 11108.087 0
-5417.9614 4611.4497 11133.077 0
-5353.0522 4612.5342 11135.695 0
-5289.9185 4615.1943 11142.118 0
-5219.6914 4611.6553 11133.574 0
-5187.9805 4642.4922 11208.021 0
-5158.8423 4676.4629 11290.034 0
-5107.0024 4690.4785 11323.871 0
-5042.5586 4693.1387 11330.293 0
-4986.479 4703.7603 11355.937 0
-4919.8423 4704.5781 11357.911 0
-4872.0093 4723.6504 11403.955 0
-4812.8018 4732.0767 11424.299 65536
-4751.9717 4739.1265 11441.317 65536
-4694.4927 4749.771 11467.017 65536
-4612.0547 4735.104 11431.607 65536
-4548.6445 4739.8267 11443.008 65536
-4490.3169 4750.0684 11467.734 65536
-4437.2627 4766.291 11506.899 65536
-4398.1914 4798.2764 11584.119 65536
-4310.5645 4777.4634 11533.872 65536
-4237.6455 4772.543 11521.993 0
-4171.769 4775.522 11529.186 256
-3986.9849 4640.2114 11202.516 1052945
-3864.8984 4574.5146 11043.908 0
-4002.147 4818.8008 11633.67 0
-3932.7175 4818.4497 11632.822 0
-3855.2554 4808.0674 11607.758 0
-3787.2769 4809.3511 11610.855 0
-3708.4939 4796.707 11580.33 65536
-3639.6018 4796.6196 11580.119 65536
-3572.7336 4799.248 11586.465 0
-3499.5073 4793.27 11572.033 65536
-3440.9431 4807.5386 11606.48 0
-3423.863 4881.5361 11785.127 0
-3362.0481 4893.5122 11814.04 0
-3294.9814 4898.1929 11825.34 0
-3220.9417 4892.4844 11811.559 0
-3142.3452 4879.4468 11780.083 256
-3073.4207 4881.1758 11784.257 256
-2989.0786 4857.9287 11728.133 256
-2923.4885 4864.7744 11744.661 256
-2887.3491 4922.1611 11883.205 256
-2782.8425 4862.9556 11740.27 256
-2700.6165 4840.6406 11686.396 257
-2625.0039 4829.3149 11659.054 132356
-2544.4304 4808.0005 11607.596 0
-2467.9929 4793.5317 11572.664 0
-2332.7405 4660.7227 11252.033 264198
-2219.4846 4565.3198 11021.71 514
-2182.9495 4626.7231 11169.951 513
-2028.7805 4434.835 10706.689 1028
-1964.4807 4433.3311 10703.06 197892
-1969.3813 4593.1206 11088.827 256
-1964.0918 4739.3862 11441.945 256
-1879.0446 4696.7842 11339.094 0
-1736.7953 4502.7139 10870.564 256
-1714.457 4616.5327 11145.35 256
0 0 0 0
-1500.9836 4380.1812 10574.743 792087
-1473.9049 4489.1289 10837.769 1121569
-1341.063 4271.1865 10311.606 1253413
-1290.7997 4307.9722 10400.415 1056036
-1247.015 4371.168 10552.983 989988
-1201.99 4436.479 10710.659 1056295
-1142.2393 4451.7041 10747.415 1582897
-1084.5189 4477.1143 10808.762 1714740
-1028.7679 4514.3657 10898.695 1517615
-969.86188 4541.8486 10965.045 1517359
-901.86572 4527.6558 10930.78 1122857
-833.7746 4510.7451 10889.954 1517614
-783.32141 4594.4414 11092.016 1780274
-713.7774 4571.2549 11036.039 1451052
-644.11853 4542.5669 10966.779 1319722
-591.87982 4644.1035 11211.912 1780017
-528.66125 4674.3232 11284.868 1385001
-462.39386 4682.4487 11304.485 1451052
-391.01727 4632.8037 11184.631 1516589
-324.37201 4630.3613 11178.734 1516075
-254.54523 4569.5454 11031.911 1779503
-187.2028 4526.6021 10928.236 1384742
-121.33353 4492.5747 10846.087 1252385
-55.480656 4382.7046 10580.836 1318176
7.3816967 4368.9688 10547.674 528147
71.76844 4474.8584 10803.315 258
135.6447 4463.9463 10776.972 2
199.60545 4461.9233 10772.088 2
262.70883 4446.3716 10734.542 2
325.60815 4434.1187 10704.961 2
395.73877 4508.2505 10883.932 1
458.52545 4489.6436 10839.011 2
511.2955 4389.626 10597.545 259
573.07983 4380.4492 10575.391 66053
648.82629 4469.2607 10789.802 66052
689.67297 4323.3218 10437.472 261
740.59418 4259.4111 10283.177 395792
809.36609 4300.083 10381.369 329743
859.4212 4242.5977 10242.586 527893
896.44269 4132.6309 9977.1016 1383973
940.04059 4064.7461 9813.2119 1054493
954.13074 3884.655 9378.4316 658963
994.26831 3824.6401 9233.542 4
1072.4834 3909.7144 9438.9307 4
1170.7721 4055.8716 9791.7871 1909803
1288.837 4253.4526 10268.793 1910576
1412.5232 4450.8804 10745.427 1845553
1516.7788 4572.6499 11039.406 1385000
1612.4709 4659.5757 11249.265 1318436
1734.8027 4813.4961 11620.863 1252384
1815.0741 4843.3945 11693.045 791832
1904.275 4894.0376 11815.309 1252896
1986.7396 4924.3809 11888.564 1647141
2106.1033 5040.9585 12170.009 2371380
2167.6106 5015.9136 12109.544 3030083
2205.0684 4938.6147 11922.928 3096646
2273.3052 4932.9175 11909.174 3425355
2352.5942 4950.8242 11952.404 3490633
2392.9731 4888.1973 11801.209 2634551
2514.0383 4989.2642 12045.207 2501422
2530.3796 4882.6577 11787.835 592653
2640.4651 4957.812 11969.274 0
2717.24 4968.1191 11994.158 65536
2786.4155 4964.3599 11985.083 131072
2848.2305 4948.002 11945.59 196608
2934.3892 4973.7007 12007.633 196608
3015.2434 4989.4019 12045.54 196608
3094.1128 5001.167 12073.942 196608
3127.0886 4939.8994 11926.029 196608
3179.1763 4910.8706 11855.946 262144
3256.7432 4921.604 11881.86 393216
3321.2102 4912.5059 11859.896 262144
3387.8374 4906.915 11846.397 196608
3501.5996 4968.4316 11994.912 196608
0 0 0 0
3528.1541 4810.2441 11613.012 196608
0 0 0 0
0 0 0 0
3803.8887 4898.6826 11826.523 393216
3843.822 4860.2998 11733.857 262144
0 0 0 0
0 0 0 0
0 0 0 0
0 0 0 0
0 0 0 0
0 0 0 0
0 0 0 0
0 0 0 0
0 0 0 0
0 0 0 0
0 0 0 0
0 0 0 0
0 0 0 0
5190.9321 5234.1606 12636.442 1383458
5310.3765 5278.2339 12742.845 1383971
5418.7319 5310.2012 12820.021 1581351
5481.7266 5297.4458 12789.227 1318180
5565.7954 5305.1265 12807.769 857630
5617.5312 5282.1963 12752.411 1844781
5693.0981 5281.9878 12751.907 528407
5708.707 5226.8867 12618.882 660250
5828.6411 5267.4961 12716.922 1186593
5859.772 5227.8403 12621.183 1055265
5907.9453 5204.1978 12564.105 1252901
5919.877 5149.6206 12432.343 1186853
5924.3306 5089.9639 12288.318 989218
5823.834 4942.6885 11932.763 1384747
5483.7134 4598.0352 11100.691 1187624
5471.8213 4533.52 10944.938 1779761
5415.2822 4433.9648 10704.589 1648175
5322.7271 4307.5747 10399.455 1713968
5212.3628 4169.8389 10066.93 2108470
5116.1763 4046.4429 9769.0234 2306105
4966.7964 3884.2166 9377.373 2370872
0 0 0 0
0 0 0 0
0 0 0 0
3624.8999 2713.0317 6549.8691 196608
4542.4536 3363.6458 8120.5981 721920
4650.7051 3407.5994 8226.7119 262144
4690.3691 3400.9067 8210.5547 196608
4750.0347 3408.7051 8229.3818 65536
4814.3188 3419.6257 8255.7461 65536
4844.9927 3406.6929 8224.5234 65536
4899.748 3410.782 8234.3955 65536
4952.666 3413.5237 8241.0146 65536
5027.2847 3431.022 8283.2598 65536
5095.96 3444.1643 8314.9883 65536
5164.728 3457.1162 8346.2568 65536
5219.79 3460.7346 8354.9922 65536
5262.4751 3456.156 8343.9385 65536
5375.9014 3497.689 8444.208 65536
5313.3511 3425.0178 8268.7637 65536
5506.6914 3517.1155 8491.1084 0
5342.4497 3381.2275 8163.0444 0
5321.2065 3337.4746 8057.415 65536
5615.6582 3490.7405 8427.4336 65536
5500.6763 3389.0393 8181.9043 65536
5625.4971 3435.5718 8294.2432 65536
6868.1084 4158.0161 10038.387 65536
7032.917 4221.125 10190.745 65536
7140.2563 4248.958 10257.94 65536
6486.6831 3827.356 9240.0986 65536
5958.0103 3485.9092 8415.7695 65536
6060.2275 3516.1958 8488.8877 65536
6184.6509 3558.7598 8591.6475 65536
6218.8408 3549.1304 8568.3994 65536
6358.0732 3599.1184 8689.082 65536
6489.9878 3644.1924 8797.9004 65536
6839.7769 3809.9062 9197.9717 65536
6918.6885 3823.3044 9230.3174 65536
6849.6465 3755.3745 9066.3193 65536
7064.4492 3842.9106 9277.6514 0
7325.2627 3953.9258 9545.667 0
6531.1685 3498.2083 8445.4619 1
6101.4756 3243.1326 7829.6519 1647140
0 0 0 0
0 0 0 0
0 0 0 0
7461.0649 3848.3958 9290.8936 1843746
7518.3579 3849.4578 9293.457 1777441
8396.6719 4267.8076 10303.448 461322
10456.396 5276.2314 12738.011 256
10558.946 5289.6787 12770.476 0
10752.715 5348.3066 12912.016 0
10732.556 5300.4507 12796.481 0
10810.139 5301.2007 12798.292 0
10938.678 5326.7539 12859.982 0
11073.384 5354.9346 12928.018 0
11232.401 5394.4028 13023.303 0
11334.751 5406.3022 13052.03 0
11535.502 5464.6543 13192.906 0
11775.786 5540.8213 13376.789 0
12096.227 5653.4277 13648.647 0
11798.368 5477.4849 13223.882 65536
12118.832 5589.0317 13493.181 65536
12284.038 5627.9805 13587.211 65536
12573.646 5723.0425 13816.713 65536
12672.232 5730.4902 13834.693 65536
13030.33 5854.438 14133.932 65536
13260.814 5919.8301 14291.803 65536
18228.418 8085.6509 19520.582 65536
0 0 0 0
15295.68 6699.4854 16174.065 65536
15467.347 6732.3647 16253.444 131072
16038.534 6937.6533 16749.057 196608
15500.578 6663.5952 16087.419 196608
15652.375 6687.6001 16145.373 196608
0 0 0 0
0 0 0 0
0 0 0 0
-8259.0039 3818.9954 9089.4932 0
-8357.0195 3889.761 9257.9209 0
-8515.4854 3989.7878 9495.9922 0
-8456.9668 3988.8064 9493.6562 0
-8390.0117 3983.8054 9481.7539 0
-8330.1797 3982.1428 9477.7969 0
-8326.4795 4007.4731 9538.084 0
-8478.251 4108.4907 9778.5146 0
-8362.3877 4080.3142 9711.4521 0
-8585.6543 4218.3706 10040.035 0
-8532.5566 4221.623 10047.776 0
-8473.7998 4222.1016 10048.916 0
-8412.4902 4221.3062 10047.022 0
-8423.707 4257.1523 10132.339 0
-8477.4268 4315.1494 10270.377 0
-8508.7715 4362.5156 10383.112 0
-8532.9766 4406.8877 10488.721 0
-8475.7451 4409.5439 10495.043 0
-8416.0371 4410.9424 10498.371 0
-8360.1055 4414.3555 10506.495 0
-8305.0508 4418.2861 10515.851 0
-8238.459 4416.0923 10510.629 0
-8173.0508 4414.5044 10506.85 0
-8116.4629 4417.6929 10514.438 0
-8058.0737 4419.9429 10519.793 0
-8011.6313 4428.832 10540.95 0
-7962.8384 4436.5522 10559.324 0
-7895.334 4433.8867 10552.979 0
-7835.5327 4435.5386 10556.912 0
-7775.23 4436.9312 10560.227 0
-7717.9863 4440.106 10567.783 0
-7656.7437 4441.0142 10569.944 0
-7599.4214 4444.23 10577.599 0
-7536.5469 4444.2251 10577.587 0
-7475.939 4445.5684 10580.783 0
-7425.957 4453.3062 10599.2 0
-7364.8369 4454.4395 10601.898 0
-7305.4443 4456.6475 10607.152 0
-7241.3657 4456.0088 10605.633 0
-7181.9937 4458.2817 10611.042 0
-7132.5063 4466.7852 10631.281 0
-7073.2388 4469.2603 10637.172 0
-7008.2637 4468.1416 10634.51 0
-6950.4067 4471.582 10642.698 0
-6889.8501 4473.333 10646.865 0
-6826.7705 4473.4629 10647.175 0
-6768.4014 4476.7109 10654.905 0
-6713.3452 4482.2324 10668.047 0
-6656.4814 4486.6401 10678.538 0
-6595.0254 4488.0083 10681.794 0
-6534.5562 4490.0811 10686.728 0
-6457.1523 4480.4438 10663.79 0
-6404.2363 4487.7754 10681.24 0
-6365.6636 4505.4053 10723.2 0
-6312.9702 4513.2979 10741.984 0
-6247.0669 4511.8091 10738.442 0
-6191.4277 4517.7803 10752.654 0
-6143.4731 4529.542 10780.647 0
-6082.981 4532.21 10786.997 0
-6035.3701 4544.6343 10816.568 0
-5980.646 4551.9126 10833.891 0
-5928.1416 4561.0571 10855.655 0
-5867.667 4564.2026 10863.142 0
-5807.9019 4567.9766 10872.124 0
-5740.2788 4565.5854 10866.434 65536
-5677.8779 4567.3408 10870.611 65536
-5618.6685 4571.7329 10881.065 65536
-5554.3721 4572.041 10881.798 65536
-5489.4829 4571.8618 10881.371 65536
-5428.4209 4574.9043 10888.612 0
-5366.48 4577.2695 10894.242 0
-5312.6675 4586.7114 10916.715 0
-5246.2124 4585.3364 10913.441 0
-5184.5415 4588.1606 10920.164 0
-5119.1938 4587.7617 10919.214 0
-5088.4995 4618.8066 10993.104 0
-5060.8706 4653.4785 11075.625 0
-5010.3901 4667.7749 11109.651 0
-4952.8965 4675.832 11128.828 0
-4888.3809 4677.3887 11132.533 0
-4821.8818 4677.064 11131.761 0
-4766.8413 4688 11157.788 0
-4719.9165 4707.3379 11203.814 65536
-4644.6196 4698.5278 11182.847 65536
-4592.4736 4713.2217 11217.818 65536
-4505.0957 4691.6577 11166.495 65536
-4431.1445 4683.6411 11147.414 65536
-4342.8701 4660.0112 11091.174 0
-4302.3301 4687.6631 11156.986 0
-4236.3794 4688.0605 11157.933 0
-4172.043 4690.2852 11163.228 0
-4147.582 4738.1353 11277.114 0
-4080.3889 4737.939 11276.646 0
-3837.2556 4530.0308 10781.811 0
-3908.8442 4692.9131 11169.482 0
-3895.3879 4757.5557 11323.336 0
-3824.5918 4753.2085 11312.99 0
-3750.3022 4744.2871 11291.756 0
-3685.373 4747.0967 11298.443 0
-3611.5293 4738.3154 11277.543 0
-3544.0801 4737.7505 11276.198 0
-3470.1667 4728.355 11253.837 0
-3399.8503 4723.5884 11242.491 0
-3352.9763 4751.853 11309.764 0
-3331.7834 4818.4141 11468.185 0
-3272.4941 4831.5098 11499.354 0
-3211.3872 4842.4233 11525.328 0
-3139.9561 4837.9058 11514.576 0
-3057.459 4815.7573 11461.86 256
-2980.1863 4801.0151 11426.773 256
-2899.8809 4780.5859 11378.15 256
-2841.187 4795.6597 11414.027 256
-2796.5952 4835.856 11509.697 258
-2725.7595 4831.5493 11499.447 257
-2631.4426 4784.3291 11387.06 515
-2458.457 4587.8101 10919.329 257
-2402.6389 4605.2124 10960.748 2
-2281.855 4495.5923 10699.845 2
-2179.3047 4416.6406 10511.933 1030
-2042.9436 4262.4834 10145.027 198924
-2044.6417 4395.7627 10462.243 132359
-1927.21 4273.2534 10170.661 527885
0 0 0 0
0 0 0 0
-1572.6047 3849.1702 9161.3115 256
-1463.7075 3711.1204 8832.7432 256
0 0 0 0
0 0 0 0
0 0 0 0
0 0 0 0
-1299.1317 4013.5903 9552.6436 1778988
-1253.4106 4049.3 9637.6357 924451
-1230.5974 4165.981 9915.3447 463900
-1179.9146 4195.3057 9985.1396 463901
-1149.473 4303.5176 10242.692 727329
-1098.8575 4344.0801 10339.233 398366
-1034.4552 4331.7153 10309.806 990503
-963.00836 4286.439 10202.043 1451053
-890.20013 4228.6104 10064.407 858916
-856.19159 4360.0322 10377.201 1319467
-801.44031 4398.0288 10467.636 1385004
-739.25787 4398.209 10468.064 1517103
-680.12225 4418.2153 10515.682 1451823
-612.07825 4378.5439 10421.261 1648434
-560.06055 4457.4922 10609.163 1121831
-486.34787 4361.8975 10381.641 594456
-426.03897 4376.2036 10415.69 132620
-371.29407 4462.2432 10620.471 262
-303.18021 4389.9492 10448.406 3
-244.4843 4451.9087 10595.874 2
-177.82227 4361.4741 10380.634 2
-117.52879 4414.1387 10505.979 258
-54.061367 4331.8647 10310.161 198408
7.2238216 4336.8755 10322.087 516
68.550995 4335.5757 10318.993 1029
132.15085 4411.3687 10499.386 66565
193.43535 4386.042 10439.106 1
253.77112 4356.729 10369.339 1
312.72342 4319.7607 10281.352 0
372.0036 4298.667 10231.147 0
431.12885 4281.9614 10191.387 1
488.45059 4253.666 10124.042 1
546.2251 4235.0879 10079.824 1
601.87994 4205.3711 10009.097 3
656.07965 4171.7485 9929.0723 3
707.12793 4125.29 9818.4971 3
757.31396 4081.2676 9713.7207 259
815.37537 4082.917 9717.6465 260
871.09241 4073.3855 9694.9609 330252
918.78064 4029.8225 9591.2773 395788
967.35931 3995.0261 9508.46 395531
1021.4194 3985.459 9485.6885 4
1078.4268 3987.791 9491.2393 4
1139.3735 4003.7339 9529.1846 724243
1243.6238 4163.1289 9908.5566 395533
1352.5039 4322.9087 10288.845 4
1431.9366 4378.8164 10421.909 517
1538.9722 4510.9961 10736.507 4
1611.9504 4536.7983 10797.917 4
1703.6042 4611.1733 10974.936 4
1767.7753 4608.4185 10968.379 260
1827.0096 4593.4473 10932.747 3
1905.8833 4627.1865 11013.048 2
1952.3212 4582.5503 10906.811 3
2035.135 4623.4219 11004.089 66052
2080.8784 4580.1543 10901.107 329736
2143.6812 4575.9141 10891.016 198153
2194.7917 4547.6958 10823.854 66052
2292.4907 4614.8691 10983.732 258
2361.3323 4621.8398 11000.323 263431
2452.1331 4670.2583 11115.562 264716
2538.0068 4706.998 11203.006 1185562
2602.8384 4703.832 11195.471 658959
2670.4524 4705.7271 11199.981 593422
2690.3362 4625.4683 11008.959 725009
2853.7861 4789.9917 11400.537 593165
2898.7397 4752.604 11311.551 263687
3037.8923 4867.854 11585.854 131588
0 0 0 0
3207.0676 4916.0752 11700.625 196609
3252.4937 4879.8945 11614.512 196608
3286.0171 4827.7305 11490.357 196608
0 0 0 0
0 0 0 0
0 0 0 0
3554.447 4821.3081 11475.072 0
0 0 0 0
3735.3362 4879.4229 11613.39 196608
3807.7844 4883.8169 11623.848 196608
0 0 0 0
0 0 0 0
0 0 0 0
0 0 0 0
0 0 0 0
0 0 0 0
0 0 0 0
0 0 0 0
0 0 0 0
0 0 0 0
0 0 0 0
0 0 0 0
0 0 0 0
5101.1396 5217.4238 12417.857 1712166
5116.9302 5158.9351 12278.648 1449252
5349.3857 5317.4624 12655.956 988702
5366.9917 5260.9878 12521.542 395534
5504.0205 5321.52 12665.614 329482
5534.9951 5279.2661 12565.046 395532
5608.6616 5278.3135 12562.779 263948
5713.0215 5305.8926 12628.419 725528
5744.0273 5265.5127 12532.312 1383458
5799.1147 5247.96 12490.535 923422
5866.6548 5241.9771 12476.296 923935
5897.7832 5204.0156 12385.944 2107953
5889.2168 5132.3965 12215.485 1647915
5826.3423 5015.7686 11937.902 1713196
5787.3252 4922.2383 11715.293 1450281
5656.8647 4754.082 11315.069 1911346
5545.4668 4605.7095 10961.931 1911346
5537.2554 4545.4863 10818.597 1845296
5278.2881 4283.167 10194.256 1515819
4991.5205 4004.4968 9531.001 659478
4515.916 3582.2854 8526.1055 1383975
0 0 0 0
0 0 0 0
0 0 0 0
3769.5696 2861.79 6811.2734 196608
3582.51 2690.8806 6404.4961 656128
4477.4536 3327.7297 7920.2446 196608
4564.6357 3357.2295 7990.4561 196608
4592.5317 3342.967 7956.5103 196608
4633.1743 3338.179 7945.1138 65536
4680.2896 3338.1035 7944.9351 65536
4721.7485 3334.0364 7935.2544 65536
4802.6938 3357.6548 7991.4683 65536
4845.2803 3354.2559 7983.3789 65536
4872.9053 3340.666 7951.0342 65536
4955.8867 3364.9229 8008.7671 65536
5008.3037 3368.1631 8016.479 65536
5057.6216 3369.2778 8019.1318 65536
5130.9673 3386.229 8059.4771 65536
5169.5781 3380.1553 8045.021 65536
5271.4209 3415.1577 8128.3301 65536
5338.4937 3427.2039 8157 65536
5393.0293 3431.0562 8166.1694 65536
5523.6948 3482.842 8289.4238 65536
5604.4131 3502.4983 8336.2061 65536
5728.3389 3548.5752 8445.873 65536
5855.2612 3595.6921 8558.0146 65536
5963.2964 3630.499 8640.8574 65536
6097.0889 3680.2585 8759.2891 65536
6457.9531 3865.0779 9199.1729 65536
6791.0361 4030.3066 9592.4297 65536
7002.3813 4121.1372 9808.6133 65536
7146.647 4171.3159 9928.042 65536
6163.0889 3567.7808 8491.584 65536
6275.9277 3603.5935 8576.8203 65536
6381.6665 3634.7849 8651.0586 65536
6451.4072 3645.1384 8675.7012 65536
