# .PCD v0.7 - Point Cloud Data file format
VERSION 0.7
FIELDS x y z rgb
SIZE 4 4 4 4
TYPE F F F U
COUNT 1 1 1 1
WIDTH 1403
HEIGHT 1
VIEWPOINT 0 0 0 1 0 0 0
POINTS 1403
DATA ascii
5652.1694 4170.877 12831.044 256
5406.3574 3936.3765 12109.64 256
5786.3223 4157.6807 12790.447 0
5350.4912 3794.668 11673.695 0
5333.0161 3733.8567 11486.619 256
5578.0044 3856.021 11862.438 2
5742.6055 3920.2585 12060.055 0
5452.2705 3676.1731 11309.165 0
5650.9424 3763.7288 11578.516 0
5724.0308 3766.5405 11587.166 0
5692.668 3701.3713 11386.684 65536
5668.2354 3642.1868 11204.611 65536
5622.418 3570.7952 10984.986 65536
5608.2251 3520.8962 10831.48 65536
5630.397 3494.7017 10750.896 65536
5646.9326 3465.6353 10661.479 65536
5687.0186 3451.5073 10618.016 65536
5747.2939 3449.8079 10612.788 65536
4780.3667 2838.2612 8731.4619 0
0 0 0 0
4665.6475 2711.283 8340.833 196608
3759.1453 2161.5337 6649.6167 460032
4675.0293 2660.2056 8183.7017 131072
4969.9585 2798.908 8610.3975 262144
5476.1792 3052.562 9390.7246 196608
5545.8379 3060.2026 9414.2295 196608
5592.2505 3054.9915 9398.1982 196608
5638.9707 3050.0496 9382.9951 196608
5610.7104 3005.0459 9244.5479 131072
5683.0161 3014.2544 9272.877 65536
5746.9053 3018.8652 9287.0615 65536
5793.3823 3014.3289 9273.1055 65536
5867.3618 3024.0522 9303.0186 65536
5962.1133 3044.2004 9365.001 65536
6016.5986 3043.6064 9363.1738 65536
6065.6953 3040.3225 9353.0713 65536
6148.9746 3054.0759 9395.3818 65536
6176.4653 3040.1221 9352.4551 65536
6255.9224 3051.7676 9388.2803 65536
6325.8179 3058.5837 9409.249 65536
6504.7852 3117.5557 9590.667 65536
6465.0898 3071.6147 9449.3369 65536
6573.7549 3096.345 9525.416 0
6645.3853 3103.3584 9546.9912 0
6754.9775 3127.8308 9622.2764 65536
6939.3145 3186.2109 9801.874 131072
7189.3247 3273.5229 10070.476 196608
7207.7588 3254.8198 10012.938 196608
7267.7778 3255.0474 10013.639 196608
7173.6382 3186.7888 9803.6514 196608
7352.5483 3239.9514 9967.1973 196608
7347.8203 3211.9893 9881.1768 196608
7470.4805 3239.7151 9966.4707 196608
7646.4907 3289.9587 10121.037 196608
7232.2559 3087.4431 9498.0303 196608
7563.8193 3203.9792 9856.5352 196608
7808.7261 3282.2988 10097.473 196608
8332.8252 3475.884 10693.007 0
8304.9414 3438.0315 10576.561 0
8447.1504 3470.6333 10676.854 0
8752.9199 3569.449 10980.845 0
9070.3945 3671.5396 11294.911 0
9177.668 3687.6699 11344.533 0
9286.0488 3704.0068 11394.791 0
9464.2598 3747.7585 11529.387 0
9632.5586 3786.9846 11650.06 0
10001.636 3904.0227 12010.108 0
10394.653 4028.6807 12393.599 0
10540.965 4056.6404 12479.612 0
10761.18 4112.4517 12651.308 0
10876.399 4127.6431 12698.041 0
11069.234 4171.877 12834.12 0
11324.102 4238.7251 13039.768 0
11509.736 4278.9258 13163.438 0
11865.801 4381.5161 13479.042 0
12020.486 4408.8687 13563.188 0
12442.097 4533.1074 13945.388 0
12594.277 4558.1885 14022.546 0
13326.031 4791.3223 14739.745 0
13437.48 4799.8403 14765.95 0
9786.0225 3472.8657 10683.723 0
9924.3887 3499.2644 10764.934 0
10106.057 3540.4944 10891.771 0
13023.634 4533.5811 13946.845 0
13250.052 4583.2275 14099.574 0
14258.45 4901.0391 15077.271 0
14246.667 4866.4053 14970.726 0
15030.978 5102.4448 15696.864 0
15150.944 5111.4443 15724.549 0
15920.465 5338.1279 16421.906 65536
0 0 0 0
0 0 0 0
0 0 0 0
-8776.2168 3197.0806 9658.7148 0
-8399.5684 3080.0181 9305.0566 0
-8354.6338 3083.8452 9316.6191 0
-8818.1768 3276.6638 9899.1445 0
-8763.0029 3278.0332 9903.2812 0
-8583.1631 3232.4709 9765.6328 0
-8766.4707 3323.9832 10042.101 0
-8745.3125 3338.6907 10086.534 0
-8661.3447 3329.4573 10058.639 0
-8578.4609 3320.5149 10031.623 0
-8605.3242 3354.2256 10133.466 0
-8409.9961 3301.1938 9973.252 0
-8362.5273 3305.8611 9987.3525 0
-8320.418 3312.7283 10008.099 0
-8278.5742 3319.8018 10029.468 0
-8548.5371 3452.9219 10431.639 0
-8410.8848 3422.1409 10338.646 0
-8469.8662 3471.4995 10487.764 0
-8398.2471 3467.6653 10476.18 0
-8348.5762 3472.9033 10492.005 0
-8282.9326 3471.5259 10487.844 0
-8240.0107 3479.7236 10512.609 0
-8325.6748 3542.7622 10703.055 0
-8389.2832 3597.3142 10867.862 0
-8398.1123 3629.0405 10963.712 0
-8456.9707 3683.0522 11126.886 0
-8457.4883 3712.3064 11215.267 0
-8394.4941 3713.9268 11220.161 0
-8332.3174 3715.937 11226.235 0
-8270.7939 3718.2744 11233.296 0
-8203.3242 3717.9541 11232.328 0
-8144.4443 3721.5535 11243.203 0
-8088.2231 3726.438 11257.959 0
-8030.7422 3730.8181 11271.192 0
-7971.9688 3734.6672 11282.82 0
-7902.5933 3733.5718 11279.511 0
-7838.0381 3734.7549 11283.085 0
-7772.8545 3735.6565 11285.809 256
-7708.5391 3736.9944 11289.852 256
-7649.9453 3741.1541 11302.418 256
-7588.3193 3743.8914 11310.688 0
-7525.0859 3745.8779 11316.688 0
-7458.9482 3746.4409 11318.39 0
-7397.4224 3749.3518 11327.184 0
-7336.0967 3752.4182 11336.448 0
-7273.4419 3754.856 11343.812 0
-7212.125 3758.0364 11353.421 0
-7149.2563 3760.4602 11360.744 0
-7087.063 3763.2893 11369.29 0
-7022.626 3764.97 11374.368 0
-6957.3999 3766.2556 11378.253 0
-6906.0547 3775.155 11405.139 0
-6844.3105 3778.4897 11415.213 0
-6784.4175 3782.9233 11428.607 0
-6725.0254 3787.729 11443.126 0
-6665.4478 3792.5276 11457.622 0
-6606.6162 3797.853 11473.712 0
-6547.9058 3803.3608 11490.351 0
-6486.6646 3807.4988 11502.853 0
-6439.3896 3820.0103 11540.65 0
-6375.0518 3822.5601 11548.354 0
-6302.0957 3819.9412 11540.442 0
-6241.6479 3824.9302 11555.515 0
-6173.376 3825.1816 11556.274 0
-6113.2935 3830.5708 11572.556 0
-6064.1582 3843.0203 11610.166 0
-6006.8486 3850.5164 11632.812 0
-5955.2676 3861.9011 11667.208 0
-5899.9976 3871.1345 11695.103 0
-5836.3589 3875.0312 11706.875 0
-5766.4888 3874.835 11706.282 0
-5699.9243 3876.8826 11712.468 0
-5633.1592 3878.842 11718.388 0
-5565.3066 3880.0928 11722.166 0
-5505.2524 3886.8811 11742.675 0
-5440.2104 3890.2769 11752.934 0
-5380.6187 3897.7095 11775.388 0
-5312.522 3899.0955 11779.575 0
-5245.375 3901.2246 11786.008 0
-5180.0347 3904.7734 11796.729 0
-5116.0415 3909.4495 11810.855 0
-5059.1206 3919.7351 11841.93 0
-5015.7886 3940.9871 11906.135 0
-4958.2642 3951.5374 11938.008 0
-4908.6782 3968.812 11990.196 0
-4846.4863 3976.2537 12012.679 0
-4802.3066 3998.916 12081.145 0
-4758.3848 4022.4851 12152.349 0
-4700.1953 4034.5334 12188.748 0
-4629.2119 4035.8049 12192.589 0
-4594.1519 4068.9336 12292.674 0
-4546.6025 4091.8926 12362.036 0
-4493.9668 4110.9531 12419.619 0
-4435.1196 4124.8726 12461.672 0
-4386.4565 4148.8975 12534.254 0
-4311.7974 4148.7402 12533.778 0
-4256.2041 4167.2446 12589.683 0
-4204.6411 4190.4277 12659.721 0
-4124.7256 4185.6841 12645.391 0
-4053.6934 4189.9463 12658.267 65536
-4001.9473 4214.6816 12732.993 65536
-3929.584 4218.2378 12743.738 65536
-3856.897 4221.5801 12753.835 65536
-3802.5945 4245.5825 12826.349 65536
-3751.3684 4274.0723 12912.419 131072
-3676.5308 4276.2886 12919.115 131072
-3611.5837 4290.3486 12961.592 131072
-3527.8369 4282.2017 12936.979 131072
-3476.6694 4314.1187 13033.404 131072
-3449.178 4377.5386 13225.003 196608
-3362.9592 4367.6455 13195.113 196608
-3270.2791 4348.687 13137.838 65536
-3188.4927 4343.6416 13122.596 65536
-3136.3311 4379.7119 13231.568 65536
-3100.1396 4440.5132 13415.256 65536
-3045.6448 4477.6157 13527.346 0
-2963.7642 4475.3765 13520.58 0
-2887.2886 4481.4019 13538.783 0
-2809.698 4485.9922 13552.651 0
-2738.2031 4500.873 13597.608 0
-2666.9404 4517.0522 13646.487 0
-2595.4771 4533.8965 13697.375 0
-2521.7244 4547.7021 13739.083 0
-2443.8586 4554.7666 13760.427 0
-2375.1455 4579.9688 13836.564 0
-2287.0461 4568.2563 13801.18 0
-2213.136 4585.0679 13851.971 0
-2154.9602 4637.0366 14008.974 0
-2076.2808 4647.29 14039.949 0
-1985.3175 4629.7559 13986.977 0
-1903.7786 4633.6265 13998.671 0
-1829.5913 4656.5625 14067.963 0
-1761.808 4698.7749 14195.49 0
-1672.4652 4684.8418 14153.397 0
-1591.8228 4695.0942 14184.371 0
-1512.4434 4710.4272 14230.694 0
-1448.4138 4778.2153 14435.488 0
-1546.8087 5424.103 16386.783 0
-1450.6403 5428.6826 16400.619 0
-1195.4672 4796.0215 14489.283 0
-1113.0889 4812.1758 14538.087 0
-1029.0255 4823.1509 14571.243 0
-931.92542 4769.4229 14408.926 0
-849.53534 4787.7227 14464.212 0
-761.8623 4777.0181 14431.871 0
-673.15845 4756.314 14369.322 0
-582.23425 4711.625 14234.312 0
-497.358 4709.0044 14226.395 0
-412.10788 4701.0444 14202.348 0
-329.83017 4731.626 14294.737 0
-246.48839 4762.8672 14389.119 0
-161.58734 4781.166 14444.402 0
-75.546043 4768.9673 14407.55 0
10.031132 4744.4365 14333.439 0
96.443481 4805.4126 14517.654 256
184.85277 4861.3193 14686.554 0
270.19592 4826.5913 14581.637 263172
351.92654 4759.8706 14380.066 0
434.00867 4723.0488 14268.825 0
515.60913 4693.8804 14180.704 263428
597.61255 4676.0605 14126.868 263685
668.33624 4585.2446 13852.504 396041
722.43384 4412.7935 13331.511 725264
790.52856 4351.4785 13146.271 726034
840.24347 4209.1216 12716.196 923670
918.56531 4221.7383 12754.312 1186586
974.98669 4139.4492 12505.71 1449758
1040.1311 4103.2295 12396.286 1449759
1061.7662 3911.5146 11817.096 1252894
1093.3341 3777.9109 11413.465 1384482
1154.071 3754.8201 11343.704 1384481
1170.6761 3598.6182 10871.802 1252124
1232.5488 3590.6294 10847.668 1514269
1274.7645 3529.0173 10661.531 259
1331.4269 3511.3401 10608.126 66308
1412.1023 3555.7275 10742.226 2041126
1589.3971 3829.042 11567.937 1516837
1700.5135 3926.8706 11863.486 2041893
1868.9818 4144.0747 12519.684 1052684
2103.7588 4486.043 13552.806 327680
2212.4192 4543.7769 13727.227 393216
2321.3525 4597.9453 13890.874 327680
2441.1606 4669.1929 14106.12 328708
2561.8398 4737.3198 14311.939 1514008
2571.2273 4601.8828 13902.77 1909025
2651.6736 4598.0977 13891.335 258
2754.2571 4631.7695 13993.06 263686
2762.0198 4508.6826 13621.202 725008
2852.4727 4523.7441 13666.705 1976362
2873.4519 4430.8447 13386.045 1779496
2946.4436 4420.9922 13356.28 2042667
3000.0127 4383.2788 13242.345 1977390
3024.3711 4305.9053 13008.591 1713962
3059.8984 4247.8945 12833.334 1910570
3132.9714 4243.5601 12820.239 2830130
3152.4802 4168.6025 12593.784 1
3377.356 4362.3853 13179.222 65536
3348.8762 4227.5527 12771.879 1315345
3310.585 4086.5852 12346.002 1315602
3315.1997 4003.5459 12095.132 723208
3625.1548 4284.9453 12945.268 196608
3690.4053 4271.4175 12904.399 459266
3751.9763 4254.2686 12852.591 458752
3829.4387 4255.4634 12856.199 458752
3916.2126 4266.7559 12890.316 524290
3955.6553 4227.0371 12770.321 524290
4030.4961 4225.9282 12766.971 458754
4142.7983 4263.4126 12880.215 458754
4210.1245 4254.0908 12852.053 393218
4339.541 4306.7222 13011.058 393216
4415.2437 4305.1362 13006.267 196608
4486.7954 4299.627 12989.623 328708
4475.832 4216.5688 12738.695 723467
4505.6006 4174.0073 12610.113 1118224
4644.396 4232.1899 12785.89 65536
4771.5679 4278.0771 12924.52 2
4874.1206 4300.7881 12993.132 460552
4897.168 4253.7305 12850.966 2434859
4994.3018 4271.4829 12904.597 1645854
5211.5693 4389.8911 13262.32 197638
5532.105 4590.4609 13868.263 1
5619.5103 4594.5337 13880.567 1
5782.2998 4659.2314 14076.025 65536
5786.604 4596.2017 13885.606 196608
5685.4185 4452.334 13450.967 196608
5700.6567 4402.3643 13300.004 65536
5474.0088 4169.5186 12596.553 0
5557.2036 4175.7773 12615.461 256
5566.8115 4127.3115 12469.039 258
5134.2666 3756.6069 11349.103 258
5511.5801 3980.3843 12025.158 2
5572.7534 3973.0439 12002.981 0
5591.7227 3936.1804 11891.613 65536
5601.6377 3893.9426 11764.008 131072
5637.6289 3870.6499 11693.638 131072
5644.6025 3828.2441 11565.525 65536
5627.5815 3770.7808 11391.924 0
5595.519 3704.7251 11192.362 0
5559.1768 3637.4214 10989.031 0
5582.1929 3610.0686 10906.396 0
5582.5269 3568.843 10781.849 0
5583.1455 3528.7332 10660.673 65536
5666.8696 3541.4595 10699.12 65536
5297.2529 3273.7363 9890.2998 65536
5726.1143 3499.9377 10573.678 65536
4780.3667 2890.1553 8731.4619 0
4787.3989 2863.3235 8650.4004 196608
4665.6475 2760.8552 8340.833 196608
0 0 0 0
3710.8938 2150.1968 6495.9697 196608
5245.1426 3007.8904 9087.1514 262144
5313.2437 3015.8896 9111.3184 196608
5363.4961 3013.6987 9104.6992 196608
5453.4692 3033.6472 9164.9658 196608
5494.9067 3026.469 9143.2793 196608
5544.5386 3023.9004 9135.5195 196608
5649.1851 3051.0945 9217.6758 65536
5652.4214 3023.5212 9134.374 65536
5824.939 3086.1614 9323.6162 65536
5675.7739 2978.7932 8999.2461 65536
5771.3105 3000.6567 9065.2979 65536
5985.5405 3083.2566 9314.8408 65536
6028.3613 3076.856 9295.5039 0
6131.5239 3101.0901 9368.7178 0
6218.623 3116.8369 9416.29 0
6301.6475 3130.2791 9456.9004 65536
6397.7773 3149.9355 9516.2852 65536
6489.3535 3167.0249 9567.9141 65536
6473.4243 3131.8076 9461.5186 65536
6573.3804 3152.7783 9524.873 65536
6730.4829 3200.5662 9669.2451 0
6818.8828 3215.1504 9713.3066 196608
7009.4829 3277.2739 9900.9883 196608
7087.7656 3286.2869 9928.2158 196608
7161.813 3293.2029 9949.1104 196608
7183.7114 3276.2224 9897.8105 196608
7386.3638 3341.2834 10094.367 196608
7475.1958 3354.2234 10133.46 196608
7529.9067 3351.7678 10126.042 196608
7686.7368 3394.447 10254.98 196608
7761.5605 3400.5264 10273.346 196608
7697.1069 3345.9661 10108.514 196608
7886.7207 3401.8391 10277.312 196608
8051.4189 3446.1899 10411.3 65536
8164.9443 3468.1272 10477.575 65536
8226.3047 3467.7429 10476.415 0
8307.7471 3475.7666 10500.654 0
8452.4951 3509.9583 10603.951 0
8538.582 3519.4651 10632.672 0
8659.1465 3542.9385 10703.588 0
8851.7129 3595.3149 10861.823 0
9134.8848 3683.4678 11128.142 0
9337.2344 3737.9978 11292.882 0
9658.0039 3838.8179 11597.471 0
9888.7832 3902.6941 11790.447 0
10107.737 3961.0374 11966.708 0
10250.838 3989.0469 12051.328 0
10530.682 4069.512 12294.421 0
11169.106 4286.4839 12949.916 0
11502.446 4384.2021 13245.133 0
11647.973 4409.4917 13321.536 0
12058.393 4534.0425 13697.817 0
12057.737 4503.3921 13605.219 0
12413.083 4605.2251 13912.868 0
12306.89 4535.6143 13702.565 65536
11535.733 4223.4619 12759.521 65536
12308.884 4477.0962 13525.776 65536
12885.432 4656.3931 14067.45 65536
12957.174 4652.1328 14054.58 0
13090.052 4669.7368 14107.764 0
13054.88 4627.5479 13980.307 0
13137.843 4627.5029 13980.171 0
13913.648 4869.9634 14712.669 0
14097.951 4903.6538 14814.452 0
14301.379 4943.5371 14934.943 0
14448.264 4963.5044 14995.266 0
14332.654 4893.6025 14784.085 65536
0 0 0 0
0 0 0 0
0 0 0 0
-8698.0547 3225.5007 9572.6934 0
-8277.917 3089.9121 9170.291 0
-8211.2119 3085.3269 9156.6826 0
-8747.7207 3308.8477 9820.0518 0
-8689.8467 3309.0342 9820.6055 0
-8667.3086 3322.77 9861.3701 0
-8754.3613 3378.9924 10028.229 0
-8680.4453 3373.4297 10011.719 0
-8561.3281 3350.1023 9942.4873 0
-8500.9307 3349.5874 9940.96 0
-8489.2246 3368.3855 9996.749 0
-8360.7256 3340.781 9914.8232 0
-8303.9443 3341.6443 9917.3857 0
-8255.1777 3345.7686 9929.626 0
-8213.7354 3352.9417 9950.915 0
-8408.1582 3457.2007 10260.336 0
-8451.7236 3500.5012 10388.844 0
-8383.2695 3497.7017 10380.535 0
-8211.5303 3451.4485 10243.265 0
-8156.2432 3453.8162 10250.292 0
-8107.8638 3459.1672 10266.172 0
-8067.2617 3467.9424 10292.216 0
-8236.3584 3567.686 10588.235 0
-8231.1729 3592.8906 10663.039 0
-8329.8857 3664.1907 10874.644 0
-8311.0527 3684.4941 10934.901 0
-8393.2969 3750.2808 11130.144 0
-8331.4941 3752.239 11135.955 0
-8269.0303 3753.928 11140.968 0
-8211.4453 3757.8774 11152.689 0
-8144.3477 3757.502 11151.575 0
-8083.8984 3760.2131 11159.621 0
-8030.25 3766.1587 11177.267 0
-7971.2974 3769.6951 11187.762 0
-7910.7441 3772.5273 11196.168 0
-7842.4858 3771.7024 11193.719 0
-7774.2095 3770.8542 11191.202 0
-7707.4849 3770.751 11190.896 0
-7645.2173 3772.845 11197.11 0
-7589.2295 3778.1023 11212.713 0
-7528.3198 3780.9807 11221.256 0
-7465.8403 3783.1155 11227.591 0
-7400.7432 3783.9497 11230.067 0
-7340.4609 3787.2839 11239.963 0
-7279.2222 3790.1814 11248.562 0
-7217.5273 3792.8923 11256.607 0
-7154.7085 3795.0583 11263.035 0
-7092.6978 3797.6975 11270.868 0
-7029.7817 3799.8979 11277.398 0
-6965.2271 3801.2463 11281.4 0
-6899.9224 3802.2078 11284.254 0
-6840.5918 3806.5122 11297.028 0
-6787.5532 3814.438 11320.551 0
-6728.2051 3818.9417 11333.916 0
-6668.8823 3823.5503 11347.595 0
-6608.4009 3827.582 11359.56 0
-6550.5176 3833.2175 11376.285 0
-6491.457 3838.2749 11391.294 0
-6433.2803 3843.9663 11408.186 0
-6384.584 3855.5044 11442.428 0
-6325.0371 3860.6675 11457.752 0
-6248.4946 3855.457 11442.288 0
-6184.9907 3858.2649 11450.621 0
-6121.1084 3860.8972 11458.433 0
-6063.3691 3867.5066 11478.048 0
-6003.9834 3873.2043 11494.958 0
-5948.2739 3881.4321 11519.377 0
-5898.1309 3893.5261 11555.27 0
-5848.9663 3906.5581 11593.946 0
-5787.75 3911.7561 11609.373 0
-5716.2451 3910.042 11604.285 0
-5647.144 3909.9497 11604.012 0
-5580.0039 3911.2297 11607.812 0
-5522.5415 3919.4109 11632.091 0
-5465.0869 3927.8047 11657.002 0
-5399.8672 3930.7615 11665.777 0
-5334.3594 3933.5823 11674.149 0
-5269.5752 3937.019 11684.349 0
-5204.2729 3940.1545 11693.654 0
-5136.9937 3941.8582 11698.71 0
-5072.8286 3946.031 11711.095 0
-5017.8809 3957.5898 11745.398 0
-4966.1699 3972.0632 11788.354 0
-4913.7627 3986.386 11830.861 0
-4858.1685 3998.5022 11866.819 0
-4798.3755 4007.4683 11893.429 0
-4738.9761 4017.0359 11921.824 0
-4689.9502 4035.8213 11977.575 0
-4644.2139 4058.0593 12043.574 0
-4593.2778 4076.3794 12097.944 0
-4534.0435 4087.8003 12131.84 0
-4478.0513 4102.5615 12175.647 0
-4430.2612 4125.4438 12243.56 0
-4383.041 4149.6313 12315.344 0
-4333.042 4171.9644 12381.623 0
-4257.6235 4170.1719 12376.303 0
-4198.1968 4184.2549 12418.099 0
-4139.519 4199.6016 12463.646 0
-4063.5967 4197.6943 12457.984 0
-3982.8772 4190.668 12437.133 0
-3927.1621 4210.1836 12495.05 65536
-3867.5615 4226.2046 12542.598 65536
-3800.5854 4234.6382 12567.627 65536
-3737.9824 4248.3799 12608.41 65536
-3672.5654 4259.4199 12641.176 65536
-3598.49 4260.6694 12644.884 65536
-3543.8018 4285.4175 12718.33 65536
-3469.0549 4286.458 12721.42 131072
-3417.6804 4317.0684 12812.265 196608
-3395.1023 4386.2773 13017.664 196608
-3310.3713 4376.5435 12988.776 196608
-3217.9309 4355.9092 12927.537 196608
-3132.7271 4344.3008 12893.085 65536
-3067.8076 4360.9448 12942.482 65536
-3023.0024 4407.7729 13081.46 65536
-2973.3794 4449.8628 13206.375 65536
-2898.9646 4456.1274 13224.967 65536
-2831.5369 4473.7803 13277.357 65536
-2753.3372 4474.938 13280.793 65536
-2681.5054 4486.8188 13316.053 65536
-2600.1113 4482.9355 13304.528 65536
-2519.4785 4480.1626 13296.299 65536
-2442.1782 4483.3281 13305.693 0
-2374.8972 4505.7144 13372.132 0
-2301.5725 4517.7866 13407.961 0
-2227.6687 4529.5483 13442.866 0
-2152.4265 4539.3623 13471.992 0
-2091.656 4581.6338 13597.446 0
-2001.3629 4560.0366 13533.35 0
-1918.6254 4554.5664 13517.116 0
-1838.3097 4554.6187 13517.271 0
-1766.3798 4576.4028 13581.922 0
-1706.6763 4633.4663 13751.275 0
-1621.9734 4624.9849 13726.104 0
-1541.7164 4628.9541 13737.885 0
-1464.9476 4644.4263 13783.803 0
-1388.3048 4662.1538 13836.416 0
-1312.4158 4684.8052 13903.641 0
-1231.1132 4689.877 13918.693 0
-1139.3972 4653.1538 13809.705 0
-1064.0997 4682.9849 13898.238 0
-982.00085 4685.3857 13905.363 0
-888.28497 4627.7061 13734.181 0
-809.68494 4645.0713 13785.718 0
-726.73401 4638.5762 13766.44 0
-641.49854 4614.0005 13693.505 0
-555.39941 4575.1694 13578.262 0
-473.66263 4565.1792 13548.613 132100
-394.32349 4578.9395 13589.45 264199
-303.93729 4438.4653 13172.548 922129
-229.92694 4522.6255 13422.32 725521
-149.72714 4509.7842 13384.21 857878
-68.877579 4426.0801 13135.792 1252637
8.9742126 4320.7573 12823.213 1450272
84.229332 4272.1841 12679.057 1516065
158.47179 4242.3735 12590.584 1778466
226.28949 4114.8579 12212.143 1382681
297.90964 4101.6294 12172.882 257
378.35495 4191.334 12439.108 1844261
455.4498 4220.6636 12526.153 2240305
540.53961 4305.4316 12777.73 2109236
616.2536 4303.8364 12772.995 1977907
704.36005 4379.646 12997.984 1977907
793.13202 4444.1997 13189.567 1911601
889.05652 4533.6128 13454.93 1846065
902.93256 4224.4028 12537.251 1911857
1016.9443 4395.1108 13043.881 1780015
1064.2917 4273.9282 12684.233 1977651
1129.6 4236.1323 12572.062 1911602
1162.9026 4090.4485 12139.699 2241338
1184.1364 3921.8145 11639.225 2176059
1181.515 3697.1494 10972.46 2306873
1183.5951 3509.9292 10416.825 2831672
1172.3754 3303.8423 9805.1963 258
1272.1353 3415.2119 10135.722 260
1338.157 3430.0317 10179.704 3292482
1535.012 3764.4214 11172.11 3491144
1803.5203 4239.5161 12582.104 2700342
1883.4713 4251.188 12616.744 396043
2058.8022 4469.0059 13263.188 591877
2198.9866 4597.2803 13643.882 65536
2299.0417 4635.5186 13757.366 657929
2491.915 4851.8511 14399.402 1118736
2546.2544 4793.0425 14224.869 592906
2638.5818 4807.2246 14266.959 329479
2605.3599 4598.9072 13648.711 257
2723.5706 4662.4038 13837.157 263944
2809.0483 4667.7852 13853.128 1975848
2857.2949 4612.7554 13689.811 2173741
2954.531 4637.6709 13763.754 2107950
2966.8748 4531.5801 13448.896 1186848
3120.2717 4640.8462 13773.179 1515553
3045.1624 4413.3525 13098.02 1449761
3117.5386 4405.6226 13075.078 1251354
3161.5359 4359.1401 12937.127 986897
3193.8342 4299.1172 12758.989 65536
3327.9358 4375.7344 12986.374 262146
3406.0781 4376.9678 12990.035 262146
3424.1797 4302.7012 12769.626 262146
3496.51 4298.3193 12756.622 262146
3596.3667 4327.2451 12842.468 262144
3525.01 4153.2412 12326.056 196609
3522.1641 4065.3987 12065.356 262144
3789.1274 4286.2715 12720.866 196608
3839.0137 4257.7485 12636.214 1971737
3960.1921 4307.8711 12784.969 393216
4018.0725 4288.5474 12727.619 393216
4115.8052 4311.6855 12796.291 458752
4186.3188 4305.9888 12779.383 458753
4234.1333 4277.562 12695.018 393216
4310.5244 4278.4951 12697.787 262144
4318.6069 4212.7622 12502.703 328451
4642.0649 4451.6948 13211.812 1776411
4610.7949 4348.1562 12904.528 2368549
4514.582 4187.7642 12428.515 1118481
4633.8931 4229.2402 12551.607 2
4640.855 4168.4878 12371.306 394759
4877.6431 4312.8442 12799.729 1316634
4928.3457 4290.7563 12734.176 1383454
5103.3096 4375.8848 12986.822 1646114
5159.1816 4357.8823 12933.394 1119512
5246.6387 4366.6958 12959.551 1118996
5295.7227 4343.7793 12891.537 592136
5448.4424 4405.3096 13074.149 65536
5507.2437 4390.2407 13029.428 65536
5566.2422 4375.7451 12986.406 0
5629.6255 4365.0449 12954.651 0
5665.7832 4333.8096 12861.949 0
5665.7778 4276.1113 12690.713 0
5653.439 4210.7441 12496.714 65536
5606.9023 4121.9312 12233.134 65536
5562.584 4037.0015 11981.078 65536
5564.9287 3987.6567 11834.632 131072
5551.5762 3928.4355 11658.874 196608
5536.6006 3869.5403 11484.084 327680
5515.9116 3808.1348 11301.844 786432
5455.6621 3721.2234 11043.906 1114112
5434.7075 3662.8623 10870.702 1376256
5449.1162 3629.4265 10771.471 1179648
5445.3809 3584.8225 10639.094 917504
5431.4194 3534.5874 10490.006 655360
5431.2451 3494.3633 10370.628 393216
5213.998 3316.9485 9844.0928 196608
5257.7095 3307.6404 9816.4688 131072
5284.3296 3287.9031 9757.8916 0
5031.4888 3096.6011 9190.1426 131072
4636.5562 2822.8975 8377.8408 196608
5118.2686 3083.0715 9149.9893 196608
3919.9465 2336.4187 6934.0605 131328
3660.0325 2158.8052 6406.9365 657155
4829.562 2819.2993 8367.1621 196608
5206.8926 3008.5908 8928.9443 196608
5229.9805 2991.4426 8878.0518 196608
5275.0996 2987.113 8865.2021 196608
5357.8677 3003.9775 8915.2529 196608
5462.2114 3032.4897 8999.8721 196608
5598.8687 3078.2146 9135.5752 65536
5585.9966 3041.6411 9027.0312 65536
5650.9917 3047.7593 9045.1895 65536
5629.8003 3007.7175 8926.3525 65536
5710.9575 3022.5923 8970.498 65536
5866.1392 3076.0076 9129.0254 0
5846.4482 3037.5874 9015.001 0
6106.7803 3144.0325 9330.9102 0
6176.3711 3151.2439 9352.3125 0
6111.9346 3090.5544 9172.1973 0
6202.3135 3108.5298 9225.5449 65536
6347.0273 3153.1833 9358.0684 65536
6458.5732 3180.7271 9439.8125 65536
6565.0464 3205.3186 9512.7969 65536
6640.8745 3214.6567 9540.5107 65536
6707.0679 3219.2119 9554.0293 65536
6753.5239 3214.2974 9539.4434 65536
6869.0288 3242.0542 9621.8203 65536
6990.3335 3272.0669 9710.8926 0
7118.9126 3304.9656 9808.5303 131072
7248.9648 3338.0083 9906.5947 196608
7332.957 3349.4795 9940.6387 196608
7423.1514 3363.5776 9982.4805 196608
7563.5796 3400.0339 10090.675 196608
7527.3755 3357.1399 9963.374 131072
7659.8389 3389.5527 10059.569 196608
7610.251 3341.5283 9917.041 196608
7885.5332 3435.79 10196.793 0
8052.7012 3481.8669 10333.541 65536
8012.6162 3438.312 10204.277 65536
8132.6348 3463.5972 10279.319 0
8367.9648 3537.2493 10497.905 0
8463.834 3551.2949 10539.591 0
8523.2705 3549.9609 10535.632 0
8672.3066 3585.6924 10641.676 0
8878.8369 3644.5056 10816.223 0
9173.7109 3738.4761 11095.109 0
9430.2227 3815.5828 11323.948 0
9909.2705 3980.999 11814.874 0
10160.049 4053.0273 12028.64 0
10304.129 4081.7822 12113.979 0
10618.019 4176.9385 12396.386 0
10302.514 4024.8967 11945.153 0
10656.563 4134.7217 12271.094 0
10772.275 4151.2075 12320.021 0
11017.376 4216.9956 12515.268 0
11514.037 4377.542 12991.74 0
11676.594 4409.7725 13087.394 0
11879.302 4456.6396 13226.487 0
11977.357 4463.8872 13247.996 65536
12091.732 4477.082 13287.156 65536
12457.832 4582.7051 13600.625 65536
13672.13 4996.9702 14830.089 65536
12772.818 4638.3823 13765.865 65536
13107.778 4729.7256 14036.955 0
13911.233 4987.8926 14803.147 0
14794.559 5271.272 15644.167 0
15071.689 5336.4761 15837.679 65536
14611.621 5141.4673 15258.93 65536
15312.926 5355.0024 15892.663 65536
15565.638 5410.0068 16055.904 196608
0 0 0 0
0 0 0 0
0 0 0 0
-8595.8779 3243.8357 9460.2412 0
-8156.646 3098.3486 9035.9463 0
-8108.5679 3100.4998 9042.2197 0
-8686.332 3343.5818 9751.1377 0
-8631.0186 3344.605 9754.1221 0
-8605.3164 3357.1946 9790.8379 0
-8639.9922 3393.6711 9897.2168 0
-8455.0566 3343.7961 9751.7627 0
-8493.3359 3382.1187 9863.5264 0
-8460.9932 3392.6562 9894.2578 0
-8329.085 3363.1382 9808.1719 0
-8205.002 3336.3862 9730.1533 0
-8237.2803 3373.2869 9837.7695 0
-8187.7964 3376.9929 9848.5771 0
-8134.2109 3379.0486 9854.5723 0
-8310.1504 3477.1729 10140.739 0
-8351.79 3520.125 10266.005 0
-8298.0146 3523.199 10274.969 0
-8146.8848 3484.6763 10162.623 0
-8085.2754 3484.1555 10161.104 0
-8034.25 3488.2219 10172.963 0
-7977.2808 3489.7493 10177.418 0
-8160.1504 3597.0222 10490.266 0
-8131.1021 3611.8135 10533.402 0
-8251.2852 3693.637 10772.03 0
-7996 3607.3496 10520.384 0
-8286.5654 3767.9006 10988.61 0
-8268.3447 3789.4814 11051.549 0
-8206.6602 3791.3289 11056.937 0
-8146.5576 3793.9429 11064.56 0
-8079.6602 3793.4089 11063.003 0
-8019.5991 3796.1025 11070.857 0
-7965.7085 3801.7854 11087.432 0
-7906.2358 3804.8767 11096.447 0
-7843.4878 3806.4309 11100.979 0
-7778.4951 3806.9124 11102.384 0
-7713.7803 3807.5396 11104.213 0
-7646.168 3806.7351 11101.866 0
-7582.7036 3807.9995 11105.554 0
-7527.7129 3813.5789 11121.825 0
-7467.4097 3816.542 11130.467 0
-7404.2734 3818.0972 11135.003 0
-7343.2798 3820.7952 11142.871 0
-7279.3198 3821.9849 11146.341 0
-7219.7837 3825.5405 11156.711 0
-7156.9395 3827.3931 11162.113 0
-7095.6206 3830.1035 11170.018 0
-7032.7095 3831.9976 11175.542 0
-6969.2998 3833.6536 11180.371 0
-6905.5317 3835.1423 11184.713 0
-6841.2476 3836.3708 11188.296 0
-6777.2139 3837.7654 11192.362 0
-6720.8608 3843.5793 11209.318 0
-6663.7007 3849.0442 11225.256 0
-6608.562 3855.7988 11244.955 0
-6550.2661 3860.8303 11259.629 0
-6490.7871 3865.2615 11272.552 0
-6433.4531 3871.0754 11289.508 0
-6375.2959 3876.5117 11305.361 0
-6332.4697 3891.4849 11349.029 0
-6272.9658 3896.4216 11363.426 0
-6198.1079 3891.824 11350.019 0
-6125.1494 3888.332 11339.834 0
-6067.6509 3894.6851 11358.362 0
-6009.6519 3900.8564 11376.36 0
-5951.8262 3907.282 11395.1 0
-5899.9316 3917.7947 11425.758 0
-5842.5767 3924.8833 11446.431 0
-5778.272 3927.4155 11453.815 0
-5721.9414 3935.4924 11477.371 0
-5658.7021 3938.9551 11487.47 0
-5599.8174 3945.5706 11506.763 0
-5532.6592 3946.4482 11509.322 0
-5468.2529 3949.3357 11517.743 0
-5420.1187 3964.197 11561.085 0
-5355.2217 3967.0227 11569.325 0
-5284.9712 3965.9045 11566.064 0
-5227.5815 3974.5349 11591.234 0
-5159.2095 3974.9348 11592.399 0
-5091.5352 3975.8896 11595.186 0
-5039.644 3989.3655 11634.485 0
-4988.9673 4004.1904 11677.721 0
-4928.9922 4011.8655 11700.104 0
-4867.4321 4018.4514 11719.312 0
-4805.0571 4024.5469 11737.087 0
-4752.3574 4039.0442 11779.367 0
-4684.8589 4041.2092 11785.682 0
-4632.2573 4056.4858 11830.233 0
-4578.7896 4071.4631 11873.913 0
-4536.6489 4097.1387 11948.793 0
-4475.9678 4106.6211 11976.446 0
-4421.6733 4122.3633 12022.357 0
-4371.1924 4142.2373 12080.316 0
-4323.2095 4165.1812 12147.229 0
-4274.1729 4187.8721 12213.405 0
-4201.3115 4187.6001 12212.612 0
-4140.2832 4199.3203 12246.793 0
-4078.7048 4210.8921 12280.54 0
-3999.7742 4204.6445 12262.32 0
-3921.6511 4199.0298 12245.945 0
-3873.4766 4225.8755 12324.238 0
-3818.8027 4246.5298 12384.473 65536
-3726.8271 4225.7002 12323.726 65536
-3670.6277 4245.4141 12381.219 65536
-3607.5759 4257.8467 12417.477 65536
-3535.0967 4259.4395 12422.123 65536
-3476.8503 4278.6157 12478.048 65536
-3407.1956 4284.2822 12494.573 131072
-3351.8152 4308.5508 12565.349 65536
-3330.2856 4378.4297 12769.142 65536
-3253.1523 4376.7583 12764.269 65536
-3148.4224 4336.9927 12648.297 65536
-3073.7751 4337.7349 12650.462 65536
-3007.697 4350.9106 12688.887 65536
-2956.3328 4386.5962 12792.96 65536
-2909.0896 4430.4419 12920.83 0
-2843.2566 4447.5864 12970.829 0
-2764.9766 4445.6729 12965.249 0
-2687.6746 4445.2676 12964.067 0
-2617.0718 4456.2461 12996.084 0
-2547.022 4468.8618 13032.876 0
-2463.9392 4458.6846 13003.196 0
-2378.0691 4442.6416 12956.409 0
-2303.3909 4447.1328 12969.506 0
-2228.8003 4452.1104 12984.022 0
-2157.8735 4465.0254 13021.688 0
-2096.0427 4498.4229 13119.088 0
-2022.1263 4507.4614 13145.447 0
-1932.9403 4481.8213 13070.671 0
-1852.4366 4475.0083 13050.803 0
-1778.3595 4483.8037 13076.452 0
-1702.8473 4489.6191 13093.412 0
-1642.2351 4537.1567 13232.051 0
-1567.5302 4548.583 13265.373 0
-1492.724 4560.9102 13301.324 0
-1419.8202 4580.7534 13359.195 0
-1345.9708 4599.7168 13414.499 0
-1267.2085 4603.2207 13424.718 0
-1185.2706 4594.8853 13400.408 0
-1095.3955 4552.3628 13276.396 256
-1022.9698 4581.3857 13361.039 256
-952.02338 4622.4761 13480.874 0
-864.37408 4582.5674 13364.484 513
-756.22241 4414.8862 12875.464 462607
-652.02252 4235.1167 12351.188 792085
-582.30927 4262.1558 12430.044 1055516
-517.23303 4335.9233 12645.179 1713447
-439.94839 4315.0327 12584.254 1582119
-374.71802 4428.0288 12913.793 1582633
-294.86105 4381.8735 12779.187 1385253
-216.93271 4342.2964 12663.764 1188132
-143.37349 4394.584 12816.254 1912883
-67.236832 4396.8564 12822.882 2110005
8.8355532 4329.0327 12625.083 1846834
84.221512 4347.1367 12677.88 662560
157.55478 4292.2222 12517.729 2437431
217.97707 4033.6196 11763.547 264204
293.02579 4105.5503 11973.324 518
358.72766 4044.0015 11793.825 2042417
465.63705 4391.1816 12806.332 2701632
539.79938 4375.3745 12760.232 2570304
620.92059 4412.9194 12869.728 2505281
691.48578 4375.4346 12760.407 2636610
765.50586 4365.0596 12730.15 2702405
827.92645 4296.3584 12529.791 2899785
934.4126 4448.7944 12974.353 2965833
1009.3057 4439.0396 12945.903 3031627
1062.5508 4342.2002 12663.484 2900043
1117.5002 4264.6763 12437.396 2768200
1138.2339 4074.2979 11882.18 2570822
1170.0142 3943.3938 11500.414 2702408
1204.869 3836.7305 11189.344 2570563
1221.5117 3686.2649 10750.53 2897985
1178.1309 3378.6238 9853.333 1317664
1236.8667 3379.0991 9854.7197 264
1286.9399 3356.9358 9790.083 1514530
1514.5751 3779.8184 11023.367 2963262
1706.0786 4081.2007 11902.311 2832448
1893.7109 4349.6929 12685.336 2108208
2029.1655 4482.3667 13072.262 395787
2171.9951 4620.9453 13476.409 2
2264.9983 4647.4312 13553.652 65539
2320.8948 4598.5757 13411.17 131075
2403.9565 4605.0015 13429.91 131075
2482.7224 4603.0498 13424.219 65537
2560.2854 4599.0591 13412.58 0
2681.5178 4671.3838 13623.507 66051
2794.3794 4725.3145 13780.788 1712164
2804.6768 4607.6748 13437.707 1712935
2884.5596 4607.7031 13437.79 1581349
2983.2671 4636.9902 13523.202 1450276
3067.1094 4642.2412 13538.516 1516068
3122.0566 4604.6074 13428.761 1647141
3236.4387 4654.3228 13573.751 1909285
3199.9507 4489.9307 13094.321 394759
3231.6699 4426.7759 12910.139 2
3323.4084 4446.8584 12968.707 329479
3314.4514 4334.3501 12640.59 2171940
3431.2847 4387.6807 12796.122 1184788
3531.3364 4417.7051 12883.684 256
3602.2974 4410.834 12863.646 197378
3439.5232 4123.9995 12027.129 2695970
3639.5808 4275.0244 12467.573 262144
3799.199 4373.4702 12754.679 327680
3783.6467 4270.3604 12453.973 327680
3970.0503 4394.769 12816.794 327680
4023.8525 4370.4697 12745.928 393216
4148.3755 4422.4609 12897.555 393216
4187.1733 4382.8354 12781.991 393216
4192.0859 4309.7852 12568.949 393216
4233.5723 4276.2354 12471.105 393216
4309.5479 4278.0767 12476.477 262144
4451.6479 4344.3877 12669.864 394245
4512.9365 4330.9409 12630.646 1709849
4583.5356 4326.7217 12618.343 2236962
4440.7974 4124.4966 12028.578 65539
4599.4956 4204.21 12261.053 2
4744.5889 4269.1953 12450.574 394760
4628.0171 4100.3535 11958.168 922132
4800.4775 4188.8237 12216.181 1382942
4825.8818 4148.2505 12097.854 1119769
5186.2075 4392.5356 12810.28 526346
5150.2388 4298.9604 12537.381 65794
5365.5591 4414.8169 12875.262 2
5216.1987 4231.5728 12340.853 1316119
5338.0078 4270.3433 12453.921 1975589
5397.7065 4259.0439 12420.97 2501933
5422.3428 4220.7578 12309.312 1778209
5586.3208 4290.5107 12512.738 659471
5648.292 4281.1152 12485.337 197636
5724.0483 4282.2759 12488.722 65793
5656.3804 4177.4819 12183.104 0
5673.272 4136.9985 12065.039 65536
5734.0435 4129.1245 12042.074 131072
5646.082 4015.6604 11711.171 196608
5649.2754 3969.0029 11575.101 393216
5661.2061 3929.5327 11459.99 589824
5550.0762 3806.5977 11101.466 1048576
5448.6138 3693.1047 10770.478 1245184
5379.4873 3603.9094 10510.352 1441792
5313.8379 3519.0652 10262.914 1376256
5247.5757 3435.7458 10019.923 1441792
5251.7837 3399.9167 9915.4326 1245184
5244.8521 3357.7522 9792.4639 1114112
5278.4785 3342.1929 9747.0869 917504
5222.0605 3270.5762 9538.2266 720896
4972.1172 3080.595 8984.1699 458752
4739.1646 2905.0657 8472.2607 327680
3919.9814 2377.6514 6934.1226 262144
3686.1687 2212.5715 6452.688 788481
4580.7451 2721.217 7936.0894 196608
4745.3726 2790.2839 8137.5142 196608
5138.9673 2991.2322 8723.5547 196608
5171.5532 2980.1328 8691.1846 196608
5215.499 2975.7346 8678.3574 196608
5323.2358 3007.4624 8770.8877 0
5496.7139 3075.3562 8968.8916 65536
5501.916 3048.7014 8891.1562 65536
5558.4907 3050.7495 8897.1289 65536
5579.5371 3033.4431 8846.6572 65536
5701.978 3071.0706 8956.3936 0
5740.1362 3063.0273 8932.9365 0
5787.3501 3059.9199 8923.874 0
6005.9307 3146.6519 9176.8164 0
6011.1431 3121.0403 9102.123 65536
6111.1113 3144.6443 9170.9619 65536
6206.9697 3165.7354 9232.4707 65536
6295.833 3182.9197 9282.5869 65536
6325.1484 3169.9624 9244.7988 65536
6487.0122 3223.0857 9399.7256 65536
6614.4897 3258.3621 9502.6055 65536
6693.1343 3269.1892 9534.1816 65536
6778.8833 3283.2761 9575.2637 65536
6886.2104 3307.4919 9645.8867 65536
6943.043 3307.2556 9645.1973 65536
6990.2139 3302.4585 9631.207 65536
7107.2822 3330.4934 9712.9678 131072
7198.6812 3346.1453 9758.6133 196608
7310.6069 3371.0115 9831.1328 196608
7423.3945 3395.8777 9903.6523 196608
7508.8599 3407.9521 9938.8662 65536
7530.1548 3390.9417 9889.2568 65536
7644.2305 3415.6514 9961.3203 65536
7707.1187 3417.2847 9966.084 65536
7826.626 3443.8069 10043.433 65536
7936.1958 3465.5881 10106.954 65536
8076.354 3500.2983 10208.183 0
8232.1943 3541.2373 10327.576 0
8373.8193 3575.5007 10427.501 0
8427.3779 3571.9338 10417.099 0
8566.1641 3604.2791 10511.429 0
8824.832 3686.2319 10750.435 0
9118.457 3781.5034 11028.281 0
9341.793 3846.4741 11217.761 0
10011.337 4092.9473 11936.568 0
10030.971 4072.1177 11875.822 0
10065.854 4057.7273 11833.854 0
10681.538 4276.0425 12470.543 0
10683.808 4247.4785 12387.24 0
10508.066 4149.02 12100.098 0
10721.669 4204.5835 12262.143 0
10930.345 4257.4785 12416.403 0
10986.34 4250.5918 12396.319 0
11123.099 4274.8359 12467.024 0
11101.289 4238.2212 12360.242 0
11564.978 4386.2222 12791.867 0
11840.298 4461.3145 13010.865 0
12146.18 4546.8721 13260.384 0
12196.524 4536.2847 13229.507 65536
12349.571 4563.7866 13309.712 65536
12519.362 4597.0859 13406.826 65536
13129.395 4790.5986 13971.182 65536
13020.944 4721.1694 13768.699 65536
13632.354 4911.9858 14325.192 0
14031.389 5024.3862 14652.993 65536
14241.643 5068.2173 14780.821 196608
14372.033 5083.2642 14824.704 196608
0 0 0 0
0 0 0 0
0 0 0 0
-8459.541 3247.72 9310.1953 0
-8039.5962 3106.8196 8906.2783 0
-7986.54 3106.772 8906.1416 0
-8641.0225 3383.7932 9700.2744 0
-8548.5107 3370.0503 9660.8779 0
-8520.8115 3381.8457 9694.6914 0
-8547.6494 3415.594 9791.4375 0
-8306.1885 3341.8594 9580.0635 0
-8350.6934 3382.9553 9697.8721 0
-8330.0654 3398.052 9741.1504 0
-8318.459 3417.0667 9795.6592 0
-8120.0728 3359.0828 9629.4375 0
-8136.5068 3389.7727 9717.416 0
-8095.5601 3396.8247 9737.6318 0
-8040.7051 3398.1008 9741.29 0
-8119.4678 3456.2732 9908.0518 0
-8256.5186 3540.2891 10148.898 0
-8229.6436 3554.7346 10190.31 0
-8035.2354 3496.4932 10023.35 0
-7981.1616 3498.9036 10030.26 0
-7950.9751 3511.9009 10067.52 0
-7892.3774 3512.4514 10069.098 0
-8120.6982 3641.6775 10439.548 0
-8049.5869 3637.5808 10427.804 0
-8064.0996 3672.4141 10527.66 0
-7933.0156 3640.968 10437.515 0
-8203.0088 3794.5576 10877.808 0
-8194.0449 3820.5222 10952.239 0
-8135.1494 3823.4348 10960.589 0
-8075.5 3826.0371 10968.05 0
-8010.7324 3826.2378 10968.624 0
-7947.873 3827.3599 10971.842 0
-7892.7339 3832.2495 10985.858 0
-7835.813 3836.3486 10997.608 0
-7778.8481 3840.4944 11009.494 0
-7713.4565 3840.5149 11009.553 0
-7648.3286 3840.6687 11009.993 0
-7581.4155 3839.9204 11007.849 0
-7516.3657 3840.1113 11008.396 0
-7467.3472 3848.5676 11032.638 0
-7403.2705 3849.3447 11034.865 0
-7345.8027 3853.6028 11047.071 0
-7283.5273 3855.3926 11052.202 0
-7221.2314 3857.2036 11057.395 0
-7161.2861 3860.3159 11066.315 0
-7098.5898 3861.9885 11071.11 0
-7036.5078 3864.0295 11076.962 0
-6974.3066 3866.0435 11082.734 0
-6910.9058 3867.4243 11086.693 0
-6846.728 3868.3933 11089.471 0
-6781.3125 3868.6743 11090.276 0
-6719.8882 3871.2605 11097.69 0
-6661.3843 3875.5969 11110.121 0
-6601.8149 3879.394 11121.007 0
-6545.0884 3884.9558 11136.95 0
-6483.4849 3887.7061 11144.835 0
-6432.312 3896.8328 11170.998 0
-6373.0229 3901.1812 11183.464 0
-6311.6392 3904.3259 11192.479 0
-6262.7534 3915.3508 11224.084 0
-6207.5854 3922.6433 11244.989 0
-6135.6699 3919.3972 11235.683 0
-6078.7334 3925.7524 11253.901 0
-6019.8374 3930.97 11268.858 0
-5962.8794 3937.5842 11287.819 0
-5897.1343 3938.4807 11290.39 0
-5846.6353 3949.697 11322.544 0
-5791.2456 3957.8328 11345.866 0
-5727.9653 3960.7039 11354.097 0
-5666.1499 3964.6682 11365.461 0
-5611.8149 3974.0256 11392.286 0
-5545.4907 3975.0176 11395.13 0
-5486.063 3981.0388 11412.391 0
-5420.1631 3982.4553 11416.451 0
-5368.25 3994.3149 11450.448 0
-5305.5889 3998.3789 11462.1 0
-5234.6226 3996.209 11455.878 0
-5176.3892 4003.8298 11477.725 0
-5112.3643 4007.1145 11487.142 0
-5044.4766 4007.4199 11488.017 0
-4988.0776 4016.9854 11515.438 0
-4937.5957 4031.6492 11557.475 0
-4879.0967 4040.0874 11581.665 0
-4822.9194 4050.7175 11612.138 0
-4765.8306 4060.8799 11641.27 0
-4704.6201 4067.7778 11661.044 0
-4638.7568 4070.7983 11669.703 0
-4588.9976 4088.2576 11719.753 0
-4534.0967 4101.6035 11758.013 0
-4493.5771 4128.5815 11835.35 0
-4431.9287 4136.6958 11858.61 0
-4371.1953 4145.9395 11885.109 0
-4312.1455 4157.1108 11917.134 0
-4263.5762 4178.9272 11979.674 0
-4204.125 4190.6377 12013.244 0
-4136.5146 4194.4795 12024.257 0
-4068.6077 4198.1494 12034.779 0
-4004.4146 4205.8521 12056.86 256
-3901.1028 4172.001 11959.818 1382422
-3883.2151 4229.9434 12125.923 329221
-3819.9939 4239.7632 12154.072 0
-3766.811 4261.3174 12215.861 0
-3685.7268 4251.5342 12187.816 0
-3620.0657 4259.5068 12210.671 65536
-3552.824 4265.9067 12229.018 65536
-3485.4866 4272.4575 12247.796 65536
-3420.9158 4282.751 12277.305 65536
-3360.679 4299.0371 12323.992 65536
-3299.3206 4314.582 12368.555 65536
-3278.6108 4385.2046 12571.007 65536
-3182.8127 4356.3462 12488.279 65536
-3096.6589 4339.6255 12440.346 65536
-3024.2393 4341.8042 12446.592 0
-2948.1335 4338.668 12437.601 0
-2884.8826 4354.7744 12483.772 0
-2848.4451 4413.2749 12651.476 0
-2788.8972 4438.1704 12722.844 0
-2707.6355 4428.936 12696.371 0
-2630.9458 4426.8652 12690.435 0
-2557.873 4430.9375 12702.108 0
-2471.1194 4410.8379 12644.489 0
-2391.1584 4401.9824 12619.104 0
-2313.2764 4396.5039 12603.398 0
-2245.1069 4409.7363 12641.332 0
-2170.1206 4410.0322 12642.18 256
-2096.7668 4413.7852 12652.938 256
-2023.6293 4418.29 12665.853 0
-1940.7863 4401.1338 12616.671 0
-1861.6432 4391.3262 12588.556 0
-1794.422 4409.9966 12642.077 0
-1720.9617 4414.2949 12654.4 0
-1649.5839 4424.5728 12683.863 0
-1588.0956 4463.6304 12795.829 0
-1527.7234 4509.9121 12928.505 256
-1457.3245 4529.9292 12985.887 256
-1382.4976 4537.6509 13008.023 256
-1315.9583 4575.1011 13115.381 66049
-1240.1127 4582.875 13137.666 256
-1160.1945 4575.6318 13116.902 198150
-1068.0338 4515.5854 12944.769 264714
-920.69775 4194.8291 12025.261 659471
-835.96515 4129.3188 11837.463 725778
-790.8288 4265.3311 12227.367 1252381
-709.33685 4212.9434 12077.188 1187358
-655.5531 4331.854 12418.068 1910825
-583.84698 4347.4819 12462.869 989724
-516.14374 4401.7891 12618.55 1713447
-448.24539 4472.6138 12821.581 923419
-370.80792 4457.7739 12779.04 1253412
-292.95508 4429.0098 12696.583 1516841
-214.76054 4373.3281 12536.96 1583149
-141.51932 4412.9375 12650.508 1452333
-66.319412 4412.0342 12647.919 1714738
8.77209 4372.4351 12534.4 1517872
82.305817 4321.8921 12389.51 2109750
151.50757 4199.0215 12037.278 2437688
218.05698 4105.0386 11767.859 776
286.18405 4079.1914 11693.763 198926
373.02618 4278.0806 12263.916 2635067
461.18698 4424.6001 12683.941 1846580
531.60736 4383.6611 12566.583 2109752
602.63379 4357.1904 12490.7 2307132
677.85547 4363.5322 12508.879 2307388
752.78418 4366.9204 12518.593 2373441
823.53357 4347.6357 12463.31 2570563
895.54193 4337.6318 12434.631 2570564
961.16425 4300.5801 12328.415 2570563
1010.6323 4201.6167 12044.719 2702664
1082.0033 4200.7827 12042.327 2702664
1102.1049 4013.3525 11505.023 2636871
1150.309 3944.1794 11306.726 2900043
1171.5736 3795.3699 10880.136 3031884
1217.7567 3738.6306 10717.482 2965577
1248.8783 3643.5903 10445.031 3358792
1209.5156 3361.6514 9636.8008 263
1247.7128 3311.0251 9491.6719 263946
1454.8706 3693.7512 10588.827 2963263
1624.6486 3953.7708 11334.222 2569534
1776.8684 4152.0576 11902.647 2108726
2014.3636 4526.7959 12976.905 2569788
2147.8042 4648.6821 13326.315 2174770
2207.4622 4607.8838 13209.358 2568756
2279.4319 4594.7051 13171.579 2370349
2330.0693 4540.8291 13017.134 724496
2433.9502 4590.8418 13160.504 259
2516.5073 4598.7725 13183.239 2
2611.5554 4628.3613 13268.062 4
2679.7913 4610.0903 13215.684 3
2718.5432 4543.582 13025.025 3
2841.2288 4617.1538 13235.933 131845
2878.689 4551.9966 13049.147 592910
2973.2844 4578.2344 13124.363 856338
3080.7546 4622.4487 13251.111 1777700
3138.354 4591.4956 13162.38 1711136
3148.8718 4494.8428 12885.305 1
3264.1672 4548.792 13039.96 2
3293.8525 4483.7036 12853.373 65794
3283.7876 4368.6826 12523.645 1513500
3335.5259 4339.1606 12439.014 517
3495.1289 4448.1963 12751.584 257
3493.7341 4352.0527 12475.971 526601
3410.0747 4159.5601 11924.155 591883
3418.9536 4085.4851 11711.805 131072
3735.2173 4374.3462 12539.879 131072
3805.0664 4368.9727 12524.476 1
3803.5776 4283.4673 12279.358 1579034
3817.1204 4217.7905 12091.084 526602
3972.5859 4308.4634 12351.014 1578777
4069.1125 4333.0835 12421.593 131072
4087.8706 4275.4883 12256.484 327680
4124.8589 4238.6431 12150.861 393216
4230.8555 4272.7578 12248.656 393216
4339.0806 4307.9297 12349.485 262144
4063.1411 3966.8706 11371.774 262146
0 0 0 0
4423.6416 4179.7764 11982.109 196609
4618.4795 4294.7344 12311.658 196611
4665.3774 4270.6831 12242.71 4
4685.7251 4223.4399 12107.277 4
4647.3096 4125.46 11826.4 5
4682.624 4094.876 11738.726 921619
4867.1597 4193.7651 12022.211 1382683
4969.2085 4219.7476 12096.693 395016
5271.2393 4412.3872 12648.931 2
5193.0049 4285.7769 12285.979 1381912
5581.9341 4542.8813 13023.017 1580320
5774.1235 4635.0254 13287.165 2041646
6008.8936 4758.4019 13640.848 1779244
5934.917 4637.2544 13293.555 1845296
6003.2812 4629.0474 13270.027 2174517
5855.9819 4456.9136 12776.574 2108980
5747.3579 4318.2461 12379.058 2240051
5419.7974 4020.6658 11525.988 2305585
5187.9526 3800.6345 10895.229 1976360
5191.1304 3756.0803 10767.505 1252123
5306.0747 3792.4963 10871.898 1383451
5341.2695 3771.7209 10812.342 1053972
4960.2612 3461.033 9921.6973 658699
5224.3325 3602.4626 10327.132 328708
4751.6025 3238.4431 9283.6016 196608
5006.0332 3372.6858 9668.4336 393216
4954.0596 3299.7927 9459.4717 655360
4786.6851 3152.5322 9037.3213 851968
4601.6753 2997.0532 8591.6123 917504
4631.8057 2983.5696 8552.959 1048576
4829.0845 3076.8782 8820.4453 1114112
4683.4854 2952.0625 8462.6377 917504
4534.3438 2827.6899 8106.1006 1377792
4140.3486 2554.8428 7323.9336 524288
3678.4695 2246.2205 6439.2104 524800
3727.2068 2252.5464 6457.3442 196608
4979.8516 2978.9119 8539.6064 196608
5030.48 2978.8379 8539.3945 196608
5131.3721 3008.2317 8623.6572 196608
5148.228 2988.2659 8566.4219 196608
5262.3481 3024.5947 8670.5654 0
5358.5874 3050.0415 8743.5127 65536
5424.0459 3057.6475 8765.3174 65536
5567.2261 3108.5056 8911.1113 65536
5632.8604 3115.5149 8931.2041 65536
5649.0132 3095.2808 8873.1992 0
5701.9233 3095.3745 8873.4688 0
5816.5923 3128.6868 8968.9639 0
5971.0552 3182.604 9123.5283 0
5918.6309 3126.2715 8962.04 0
6076.9229 3181.2529 9119.6553 0
6047.3906 3137.8059 8995.1064 0
6167.6963 3172.186 9093.6631 65536
6301.3818 3212.7898 9210.0615 65536
6360.0664 3214.7842 9215.7793 65536
6417.7925 3216.2649 9220.0234 65536
6606.2388 3282.6755 9410.4014 65536
6728.6436 3315.4299 9504.2988 65536
6805.9834 3325.6194 9533.5088 65536
6908.5737 3347.877 9597.3135 65536
6999.0645 3363.9541 9643.4014 65536
7006.4814 3340.1665 9575.2109 0
7090.8198 3353.1379 9612.3955 131072
7180.8926 3368.5918 9656.6963 196608
7275.3345 3385.8337 9706.124 196608
7365.0464 3400.6204 9748.5127 65536
7441.8232 3409.25 9773.252 65536
7519.7441 3418.2668 9799.0996 65536
7634.9243 3443.9514 9872.7295 65536
7698.0259 3445.9324 9878.4082 65536
7805.6108 3467.6445 9940.6504 0
7953.876 3506.9673 10053.376 0
8059.6035 3527.0881 10111.056 0
8233.0439 3576.3242 10252.2 0
8393.4375 3619.2114 10375.145 0
8562.2158 3665.0625 10506.585 0
8758.541 3721.9551 10669.679 0
8962.6123 3781.2983 10839.797 0
9150.376 3832.9631 10987.903 0
9733.0166 4048.1321 11604.727 0
9865.6016 4074.4043 11680.04 0
10154.919 4164.5859 11938.562 0
10147.941 4132.8472 11847.577 0
10272.975 4154.938 11910.905 0
10268.082 4124.5371 11823.755 0
10386.051 4143.5654 11878.304 0
10507.027 4163.5288 11935.532 0
10630.093 4184.0474 11994.352 0
10836.517 4236.8833 12145.816 0
11193.162 4347.3657 12462.535 0
11394.364 4396.4185 12603.154 0
12308.691 4718.188 13525.565 0
12269.971 4672.8271 13395.531 0
12661.329 4790.7847 13733.679 65536
12626.125 4746.8628 13607.768 65536
12524.244 4678.5913 13412.055 65536
12610.104 4680.8735 13418.597 65536
12427.428 4584.0723 13141.099 65536
13395.124 4910.165 14075.904 65536
13736.267 5003.9639 14344.796 196608
13812.442 5000.6768 14335.372 196608
14594.284 5251.3433 15053.956 196608
0 0 0 0
0 0 0 0
0 0 0 0
-8596.6904 3356.604 9461.1357 0
-7942.002 3121.396 8798.1641 0
-7849.6079 3105.53 8753.4424 0
-8482.335 3378.2449 9522.1338 0
-8439.5889 3383.7969 9537.7832 0
-8292.4932 3347.3027 9434.918 0
-8425.3379 3424.0803 9651.3281 0
-8188.5415 3350.6572 9444.374 0
-8227.0928 3389.668 9554.3311 0
-8193.0225 3399.0911 9580.8926 0
-8175.2227 3415.4441 9626.9863 0
-8121.4292 3416.8843 9631.0459 0
-8074.9473 3421.4434 9643.8955 0
-7969.7783 3401.0227 9586.3369 0
-8103.2085 3482.8613 9817.0127 0
-8072.2466 3494.7166 9850.4287 0
-8149.1943 3553.8037 10016.976 0
-8132.749 3572.7329 10070.33 0
-7999.5244 3540.2612 9978.8027 0
-7939.0601 3539.7451 9977.3486 0
-7888.6396 3543.7334 9988.5908 0
-7875.7026 3564.7485 10047.824 0
-8035.0532 3664.6621 10329.447 0
-8049.2861 3699.4182 10427.414 0
-8054.7188 3730.6387 10515.413 0
-8071.0713 3767.4441 10619.155 0
-8095.4521 3808.6069 10735.18 0
-8073.8394 3828.6135 10791.571 0
-8010.7344 3829.1074 10792.963 0
-7896.0088 3804.7351 10724.267 0
