# .PCD v0.7 - Point Cloud Data file format
VERSION 0.7
FIELDS x y z rgb
SIZE 4 4 4 4
TYPE F F F U
COUNT 1 1 1 1
WIDTH 1410
HEIGHT 1
VIEWPOINT 0 0 0 1 0 0 0
POINTS 1410
DATA ascii
-7350.3413 2892.0806 12259.19 0
-7296.5293 2899.6509 12291.279 0
-7214.0684 2895.8738 12275.269 0
-7146.0708 2897.8843 12283.791 0
-7078.1538 2899.97 12292.632 0
-7009.876 2901.9495 12301.022 0
-6940.9243 2903.6885 12308.395 0
-6874.8018 2906.6609 12320.994 0
-6810.8208 2910.6128 12337.745 0
-6753.5098 2917.532 12367.075 0
-6696.3335 2924.6621 12397.299 0
-6626.6641 2926.4338 12404.809 0
-6561.7705 2930.3784 12421.53 0
-6507.7827 2939.3386 12459.511 0
-6441.4336 2942.8572 12474.426 0
-6362.8203 2940.7896 12465.661 0
-6295.751 2944.0715 12479.573 0
-6231.0605 2948.5574 12498.589 0
-6160.9458 2950.554 12507.052 0
-6089.6128 2952.0088 12513.218 0
-6016.5957 2952.6726 12516.032 0
-5944.0293 2953.5774 12519.867 0
-5875.7368 2956.6558 12532.916 0
-5805.9624 2959.0579 12543.099 0
-5737.7422 2962.3247 12556.946 0
-5671.7866 2966.8621 12576.18 0
-5599.855 2968.3533 12582.501 0
-5527.7017 2969.7656 12588.487 0
-5480.394 2984.7483 12651.997 0
-5419.7407 2992.7783 12686.035 0
-5353.1504 2997.7102 12706.941 0
-5292.1216 3005.9424 12741.836 0
-5236.522 3017.542 12791.006 0
-5185.4077 3032.106 12852.741 0
-5138.7573 3049.7546 12927.552 0
-5087.1904 3064.9773 12992.079 0
-5033.3569 3079.2822 13052.716 65536
-4982.1743 3095.6829 13122.235 65536
-4928.5527 3111.0649 13187.438 65536
-4870.9673 3124.4016 13243.971 65536
-4812.6172 3137.678 13300.247 0
-4750.3936 3148.8293 13347.519 0
-4689.6011 3161.3254 13400.487 0
-4628.8198 3174.2607 13455.317 0
-4573.0186 3191.1257 13526.807 0
-4508.7085 3202.5503 13575.234 0
-4440.9688 3211.9114 13614.914 0
-4380.2212 3226.7698 13677.898 0
-4267.9268 3203.5 13579.26 256
-4099.5835 3136.4517 13295.051 256
-4141.6641 3230.9204 13695.492 1
-4211.0503 3350.905 14204.093 2
-4250.7661 3451.7056 14631.374 2
-4166.9717 3454.3289 14642.494 2
-4125.855 3493.198 14807.256 2
-3918.572 3390.0088 14369.85 2
-3914.4158 3461.8643 14674.437 2
-3908.6021 3535.4954 14986.55 0
-3876.8665 3588.5664 15211.512 0
-3794.844 3596.5129 15245.195 65536
-3729.8772 3621.4077 15350.723 65536
-3606.7483 3589.6648 15216.167 65536
-3522.2698 3595.7456 15241.942 0
-3450.365 3615.3218 15324.925 0
-3362.2312 3618.4941 15338.372 0
-3281.4629 3629.9912 15387.106 0
-3204.9373 3646.9746 15459.097 0
-3114.4792 3648.6392 15466.152 0
-3034.2881 3662.7981 15526.171 0
-2936.9626 3656.5134 15499.53 0
-2837.7517 3647.3982 15460.892 0
-2762.3533 3669.3035 15553.746 0
-2678.3967 3680.9644 15603.175 0
-2597.3994 3697.6738 15674.006 0
-2521.9082 3723.7573 15784.57 0
-2442.9041 3746.4685 15880.84 0
-2373.7927 3786.7869 16051.745 0
-2329.0505 3870.9841 16408.646 0
-2232.3701 3872.4446 16414.838 0
-2141.7893 3885.1028 16468.494 0
-2050.5864 3897.7908 16522.277 256
-1943.2067 3879.4592 16444.572 256
-1826.1234 3838.7878 16272.171 256
-1736.4841 3854.4854 16338.71 256
-1649.9801 3879.4136 16444.379 256
-1560.2399 3899.3936 16529.072 256
-1470.48 3922.0063 16624.924 256
-1294.2886 3700.7441 15687.019 257
-1311.6467 4041.5032 17131.457 2
-1223.0383 4085.6311 17318.51 2
-1177.0465 4293.3145 18198.855 65794
-1074.8446 4317.2539 18300.332 4
-948.40881 4238.2871 17965.602 4
-846.91968 4264.9097 18078.451 4
-762.54041 4397.9492 18642.391 4
-647.40387 4368.6743 18518.297 4
-541.66284 4403.793 18667.162 2
-431.34244 4410.1831 18694.248 65538
-314.81686 4335.5513 18377.893 65538
-206.01138 4344.4224 18415.496 196609
-96.317307 4333.4258 18368.883 196608
12.868028 4337.7163 18387.068 196608
120.30247 4272.1523 18109.152 196608
229.73619 4305.98 18252.543 196608
333.77557 4249.4302 18012.834 196608
445.09372 4290.5103 18186.969 262144
541.46582 4199.6152 17801.676 262144
634.87292 4119.1978 17460.795 196608
733.86407 4092.5168 17347.697 196608
829.19702 4054.5217 17186.641 131328
916.86877 3991.5088 16919.537 328706
1032.317 4049.9226 17167.146 263170
1095.1976 3910.1482 16574.658 328963
1153.5292 3778.5417 16016.795 328963
1225.2101 3707.3948 15715.211 328963
1296.5381 3645.3347 15452.146 328963
1341.5258 3522.3257 14930.724 131584
1352.3253 3330.3845 14117.109 526086
1374.7003 3187.7117 13512.334 591366
1332.1388 2918.5212 12371.269 394245
1754.6827 3643.1702 15442.97 65536
1403.0229 2768.2354 11734.225 0
1539.718 2894.0842 12267.684 592138
1681.1492 3017.0535 12788.935 329735
1860.6852 3194.8098 13542.423 66050
1988.5887 3272.8481 13873.219 263684
2426.613 3834.7539 16255.07 263426
2367.5442 3598.1555 15252.159 0
2609.5938 3819.7673 16191.545 0
2758.0386 3893.4751 16503.984 0
2800.5596 3817.7251 16182.888 65536
2882.0317 3798.3406 16100.719 196608
2963.6038 3780.3291 16024.371 393216
2996.7083 3703.5396 15698.87 458752
3066.1196 3674.9036 15577.484 655360
3091.2405 3596.4172 15244.79 917504
3141.8638 3551.2266 15053.231 917504
3199.3621 3516.0928 14904.305 851968
3255.6326 3481.54 14757.839 786432
3302.0337 3438.5225 14575.493 458752
3348.0066 3397.2705 14400.63 262144
3396.7698 3360.8352 14246.186 196608
3449.8606 3330.3499 14116.963 393216
3477.9575 3277.7573 13894.027 524288
3231.6646 2975.0061 12610.701 524288
3546.9978 3191.2825 13527.472 458752
3632.845 3196.0762 13547.791 393216
3686.668 3173.0986 13450.393 262144
3791.4053 3193.9885 13538.942 262144
3819.9666 3151.1704 13357.441 262144
3890.1628 3143.7427 13325.956 196608
3975.4023 3148.5251 13346.229 65538
4031.1887 3130.2505 13268.764 5332831
4297.3057 3272.8662 13873.295 4479065
4504.5771 3366.1389 14268.667 5596776
4385.2339 3216.405 13633.962 6187885
4641.3267 3342.4763 14168.364 460552
4603.5303 3256.1804 13802.565 327680
4734.6738 3290.3088 13947.232 589824
4817.8691 3290.5151 13948.107 458752
4902.8398 3291.9065 13954.005 393216
5044.4766 3330.666 14118.302 327680
5119.8242 3325.105 14094.729 262144
5129.3027 3277.6328 13893.5 262144
5164.6396 3247.9265 13767.579 196608
5366.623 3322.3127 14082.893 131072
5596.2471 3411.2629 14459.942 394757
5706.2881 3425.7314 14521.272 263171
5858.4287 3464.6663 14686.313 262657
5359.7466 3123.2134 13238.935 196608
5707.5596 3277.7708 13894.084 196608
5758.6523 3259.9473 13818.533 196608
5782.6309 3227.4919 13680.958 196608
5784.5674 3183.8044 13495.773 131072
5833.6577 3166.9106 13424.162 0
5753.2729 3081.1328 13060.561 65536
5761.9468 3044.6987 12906.12 65536
5768.2622 3007.9924 12750.526 65536
5765.3862 2967.5068 12578.913 65536
5805.5 2949.9019 12504.287 65536
5836.3892 2928.114 12411.932 65536
5857.5728 2902.0615 12301.498 65536
5877.5317 2876.0522 12191.247 65536
5883.1084 2843.7244 12054.213 65536
5917.3374 2825.8572 11978.477 65536
5928.833 2797.688 11859.07 65536
5945.584 2772.6309 11752.856 65536
5973.5439 2753.3223 11671.01 65536
5990.7466 2729.5557 11570.266 65536
6036.5215 2719.1995 11526.366 65536
6088.688 2711.9219 11495.519 65536
6143.6602 2706.042 11470.594 131072
6211.2266 2705.7773 11469.473 196608
5737.6084 2472.3232 10479.888 196608
6300.6602 2685.7852 11384.728 262144
6136.7642 2588.127 10970.767 1511175
0 0 0 0
0 0 0 0
4283.2842 1750.6364 7420.7422 327680
4306.6343 1742.2405 7385.1523 262144
4607.2383 1845.0448 7820.9282 196608
5052.3633 2003.0934 8490.877 131072
5741.2578 2253.7063 9553.1963 262657
0 0 0 0
5572.6973 2145.1106 9092.8721 460548
5891.3086 2245.9736 9520.4189 394756
6005.4023 2267.6902 9612.4727 1052686
6071.3755 2270.998 9626.4932 1250576
6087.8696 2255.9089 9562.5332 1710871
6202.769 2277.2268 9652.8965 1776920
6290.6367 2288.3208 9699.9229 1710358
6322.5801 2279.0544 9660.6436 1644564
6339.0557 2264.4294 9598.6504 1447186
6423.7671 2274.2231 9640.165 1447185
6415.1196 2251.0837 9542.0801 789513
6468.5815 2249.9534 9537.2881 460292
6528.0669 2250.9197 9541.3838 197378
7788.4541 2662.3816 11285.523 131329
7876.0093 2669.3232 11314.948 0
8020.7153 2695.353 11425.284 0
8198.7314 2732.0452 11580.818 0
8425.709 2784.3059 11802.346 0
8583.3496 2812.9805 11923.894 0
8666.4727 2816.9639 11940.778 0
8910.4961 2872.7571 12177.279 65536
9025.7412 2886.4675 12235.396 65536
8778.4619 2784.9487 11805.07 65536
8864.457 2789.9319 11826.193 65536
8975.1533 2802.55 11879.681 65536
9128.126 2828.0688 11987.852 65536
9298.4893 2858.5391 12117.011 65536
9598.6279 2928.1294 12411.997 0
9700.248 2936.5608 12447.736 0
9590.3271 2881.3096 12213.533 0
9918.9707 2957.6606 12537.176 0
10008.299 2962.0452 12555.762 0
10112.044 2970.6003 12592.026 0
10192.658 2972.2847 12599.165 0
10287.172 2977.9675 12623.255 0
10375.918 2981.9114 12639.972 0
10500.038 2995.8911 12699.23 0
10573.05 2995.1929 12696.271 0
10704.241 3010.8694 12762.722 0
10811.486 3019.6372 12799.888 0
11028.075 3058.6086 12965.083 0
11281.856 3107.2827 13171.406 0
11480.946 3140.3267 13311.476 0
11655.782 3166.3301 13421.7 0
15655.267 4223.8945 17904.594 0
11320.81 3033.8079 12859.955 0
10892.093 2899.3435 12289.977 0
11069.031 2926.8147 12406.424 0
11240.504 2952.4871 12515.245 0
11496.303 2999.8254 12715.907 0
13640.332 3536.0396 14988.855 0
11888.921 3062.0161 12979.526 0
13175.407 3371.4773 14291.296 0
14064.103 3575.8347 15157.543 0
9585.124 2421.5315 10264.588 0
14739.864 3700.2451 15684.905 0
12249.647 3055.7839 12953.109 0
13823.127 3426.7664 14525.659 0
10165.191 2504.3203 10615.52 65536
0 0 0 0
13363.008 3251.7764 13783.898 196608
0 0 0 0
0 0 0 0
-10183.391 2692.9436 11134.557 0
-8763.6807 2332.6675 9644.918 0
-9694.1826 2597.3325 10739.232 0
-9640.0449 2599.9458 10750.037 0
-9592.1533 2604.2898 10767.999 0
-9320.748 2547.5999 10533.603 0
-8695.8145 2392.8618 9893.8037 0
-8649.293 2396.2639 9907.8711 0
-9113.1211 2542.0732 10510.751 0
-9251.6562 2598.5298 10744.183 0
-8765.1162 2478.9849 10249.898 0
-9147.3477 2605.1953 10771.743 0
-9099.957 2609.9648 10791.464 0
-8906.0664 2572.4863 10636.5 0
-8771.9131 2551.8499 10551.174 0
-8955.7197 2624.0803 10849.827 0
-8893.8613 2624.8552 10853.031 0
-8828.0283 2624.4602 10851.397 0
-8809.9971 2638.3743 10908.929 0
-8791.3535 2652.3103 10966.55 0
-8784.3564 2669.9941 11039.668 0
-8675.1582 2656.6467 10984.479 0
-8688.7217 2680.9761 11085.074 0
-8631.6006 2683.7002 11096.338 0
-8566.7549 2684.0457 11097.767 0
-8501.1855 2684.1685 11098.274 0
-8418.7646 2678.9307 11076.617 0
-8487.3896 2722.0535 11254.918 0
-8358.4307 2701.9895 11171.959 0
-8548.8721 2785.6819 11518.003 0
-8550.29 2808.6338 11612.903 0
-8474.1475 2806.2751 11603.15 0
-8406.1562 2806.5991 11604.49 0
-8343.3184 2808.6633 11613.024 0
-8315.1299 2822.5232 11670.332 0
-8315.9121 2846.5334 11769.607 0
-8296.2178 2863.8821 11841.339 0
-8237.3789 2867.8992 11857.948 0
-8174.1929 2870.459 11868.532 0
-8106.3218 2871.4041 11872.44 65536
-8038.9229 2872.5344 11877.113 0
-7969.377 2872.9104 11878.669 0
-7913.0703 2878.1089 11900.163 0
-7848.6475 2880.4224 11909.729 0
-7784.8794 2883.0205 11920.471 0
-7719.5591 2885.0862 11929.012 0
-7652.2993 2886.4587 11934.688 0
-7586.5952 2888.449 11942.916 0
-7571.7314 2910.0161 12032.091 0
-7505.2969 2911.9858 12040.234 0
-7441.1104 2914.874 12052.176 0
-7369.8857 2915.0344 12052.84 0
-7291.936 2912.5117 12042.409 0
-7232.292 2917.3232 12062.304 0
-7163.5762 2918.5352 12067.314 0
-7096.2402 2920.3398 12074.775 0
-7030.2676 2922.7473 12084.73 0
-6970.4673 2927.7979 12105.612 0
-6904.9849 2930.5417 12116.958 0
-6842.0947 2934.4553 12133.139 0
-6780 2938.7971 12151.091 0
-6719.8193 2944.0708 12172.896 0
-6665.0586 2951.8599 12205.103 0
-6610.1733 2959.7646 12237.786 0
-6536.9951 2959.563 12236.953 0
-6469.7119 2962.0564 12247.262 0
-6397.9766 2962.5447 12249.28 0
-6326.1558 2963.0037 12251.179 0
-6259.5933 2965.9653 12263.425 0
-6194.2886 2969.5999 12278.452 0
-6129.9907 2973.8096 12295.857 0
-6068.0015 2979.2539 12318.369 65536
-6001.4175 2982.5481 12331.989 0
-5931.832 2984.4136 12339.702 0
-5861.9351 2986.167 12346.952 0
-5795.7393 2989.8743 12362.281 0
-5724.4795 2991.0308 12367.063 0
-5657.4653 2994.4646 12381.261 0
-5592.7104 2999.2004 12400.843 0
-5521.7622 3000.6975 12407.032 0
-5450.0303 3001.803 12411.603 0
-5398.2007 3014.0513 12462.246 0
-5326.2056 3015.2244 12467.097 0
-5288.8628 3036.3245 12554.34 0
-5221.5132 3040.5552 12571.832 0
-5175.9409 3057.7742 12643.027 0
-5151.604 3088.23 12768.954 0
-5104.1099 3105.5071 12840.39 0
-5053.8525 3121.6018 12906.938 0
-4999.7964 3135.8105 12965.687 65536
-4941.2109 3147.5784 13014.343 65536
-4889.6763 3164.2839 13083.415 65536
-4832.061 3177.5305 13138.187 65536
-4776.9072 3192.8574 13201.559 0
-4712.9702 3202.7273 13242.368 0
-4628.0518 3198.4329 13224.611 0
-4557.2378 3203.9053 13247.238 0
-4486.6108 3209.7046 13271.217 0
-4443.3218 3235.6182 13378.362 0
-4379.0664 3246.9307 13425.137 0
-4344.2778 3280.9172 13565.661 0
-4269.4834 3285.4038 13584.212 0
-4176.4136 3275.73 13544.213 65536
-4142.8823 3313.2915 13699.52 65536
-4083.0835 3330.9309 13772.453 65536
-4016.7893 3343.8845 13826.013 65536
-3980.386 3382.7817 13986.843 65536
-3953.5449 3431.6392 14188.854 65536
-3877.5913 3439.0679 14219.568 65536
-3810.2605 3454.6453 14283.978 65536
-3743.9138 3471.845 14355.094 65536
-3701.7229 3512.7703 14524.307 65536
-3665.2415 3561.197 14724.538 65536
-3583.9934 3567.4326 14750.321 65536
-3503.6177 3574.8718 14781.079 65536
-3416.4363 3575.5706 14783.969 65536
-3353.0198 3601.8345 14892.562 0
-3280.678 3619.6753 14966.329 0
-3208.8484 3639.0911 15046.608 0
-3134.3823 3656.5444 15118.773 0
-3057.7336 3672.407 15184.36 0
-2975.3 3682.0752 15224.335 0
-2887.9966 3686.1338 15241.117 0
-2802.1765 3692.4099 15267.067 0
-2727.3503 3714.0784 15356.659 0
-2649.0283 3732.321 15432.088 0
-2565.2068 3743.8459 15479.74 0
-2486.3635 3763.7646 15562.098 0
-2401.8516 3776.3093 15613.967 0
-2339.2825 3825.7485 15818.384 0
-2286.8267 3896.5605 16111.172 0
-2190.645 3895.8005 16108.028 0
-2096.127 3898.0647 16117.39 0
-2008.9083 3914.7698 16186.462 0
-1911.3624 3912.0193 16175.088 256
-1794.8812 3868.1689 15993.779 256
-1704.118 3877.9385 16034.175 256
-1616.8239 3897.228 16113.931 256
-1525.7788 3909.3357 16163.993 256
-1439.3933 3935.812 16273.464 0
-1365.5911 4002.9875 16551.217 0
-1276.2692 4031.5681 16669.389 0
-1176.3855 4028.7881 16657.895 65536
-1071.4886 4006.751 16566.777 262144
-974.57959 4013.146 16593.219 196610
-885.23755 4055.6487 16768.955 196610
-789.06689 4073.6819 16843.518 196610
-685.76239 4054.7747 16765.342 131074
-588.40247 4070.564 16830.625 65538
-497.27664 4144.7812 17137.494 65536
-399.21536 4184.5366 17301.869 65536
-298.29675 4211.5366 17413.508 65536
-194.97673 4215.3081 17429.102 196608
-91.024101 4198.4512 17359.404 196608
12.151127 4199.2466 17362.691 196608
116.20305 4230.5366 17492.066 196608
222.25974 4270.7983 17658.539 196608
325.9437 4254.2637 17590.172 262144
426.51779 4215.0264 17427.938 393216
519.00323 4126.8076 17063.178 393216
608.52649 4047.7251 16736.193 393216
700.16492 4002.9565 16551.088 327680
796.69952 3993.7617 16513.07 196608
890.38135 3973.8516 16430.748 196608
958.24512 3854.0378 15935.352 0
1034.3948 3786.1057 15654.472 0
1131.0345 3798.1946 15704.455 0
1225.6267 3802.0876 15720.554 0
1312.5332 3783.2766 15642.775 0
1340.1461 3607.3503 14915.369 0
1370.8965 3461.1753 14310.977 0
1414.1331 3361.762 13899.931 196865
1387.4717 3116.3284 12885.133 328451
1663.4175 3540.689 14639.744 0
1459.1542 2951.5159 12203.68 0
1521.3761 2931.6511 12121.545 394502
1691.0258 3111.2336 12864.067 328963
1759.108 3096.4944 12803.125 65792
2036.5353 3436.2007 14207.713 592135
2260.5591 3662.3381 15142.729 328963
2506.9229 3905.967 16150.064 131585
2546.1838 3820.8452 15798.11 0
2647.7776 3831.9895 15844.188 0
2717.4807 3797.7988 15702.82 65536
2763.5593 3733.96 15438.863 196608
2850.2368 3727.3152 15411.39 393216
2913.8333 3691.8406 15264.713 458752
2977.1255 3658.1348 15125.348 655360
3028.5552 3612.2559 14935.651 851968
3099.6633 3591.7922 14851.04 851968
3167.613 3568.9036 14756.402 655360
3091.6277 3389.4473 14014.402 459008
3262.1831 3482.6067 14399.59 262144
3316.7812 3450.3755 14266.322 196608
3377.5442 3426.0037 14165.553 262144
3426.322 3390.9565 14020.642 262144
3459.7214 3342.7148 13821.177 262144
3523.6299 3325.5046 13750.017 393216
3566.1377 3289.3352 13600.467 327680
3627.749 3271.999 13528.787 262144
3691.4888 3257.293 13467.981 196608
3759.438 3246.8464 13424.787 65536
3817.9241 3228.8313 13350.301 197122
3867.5317 3204.1938 13248.432 2
3908.8948 3173.8457 13122.95 592909
3782.0898 3010.8108 12448.848 5727591
4322.4004 3374.9138 13954.311 5464935
4312.6147 3303.8806 13660.608 5333350
4580.8867 3444.5554 14242.259 5924200
4808.939 3550.4316 14680.026 1
4583.7827 3323.894 13743.357 196608
4730.2695 3370.0642 13934.258 458752
4845.5874 3392.8215 14028.354 393216
4936.0967 3397.7319 14048.657 196608
5064.3496 3428.0278 14173.921 196608
5143.5781 3424.6904 14160.123 196608
5168.249 3385.7205 13998.992 0
5316.4346 3427.6172 14172.225 196608
5430.4409 3446.5151 14250.361 65536
5907.9741 3692.0073 15265.402 65536
5787.5557 3562.054 14728.081 65536
5681.0659 3444.4177 14241.688 65536
5772.4697 3448.4565 14258.388 196608
5579.4722 3284.9358 13582.276 196608
5549.542 3220.7168 13316.75 196608
5600.5386 3204.6099 13250.151 196608
5622.7993 3172.7351 13118.358 196608
5699.5605 3172.0642 13115.584 0
5729.3862 3145.6416 13006.335 65536
5751.2637 3115.6172 12882.192 65536
5752.731 3075.47 12716.195 65536
5774.7539 3047.2107 12599.351 65536
5841.8877 3043.1743 12582.662 65536
5899.0859 3034.1299 12545.266 65536
5910.3643 3001.9873 12412.365 65536
5923.0259 2971.3315 12285.611 65536
5916.8232 2932.0742 12123.294 65536
5944.7939 2910.4919 12034.058 65536
5955.167 2880.9099 11911.744 65536
5981.1543 2859.4878 11823.17 65536
6017.3408 2843.3826 11756.579 65536
5997.8311 2801.6311 11583.949 65536
6030.7637 2785.0454 11515.372 65536
6174.7974 2819.5632 11658.094 65536
6137.5967 2771.4778 11459.273 0
6205.814 2771.5271 11459.478 196608
5313.5928 2347.2983 9705.4121 196608
0 0 0 0
0 0 0 0
5443.8125 2328.9756 9629.6533 393216
5014.3496 2122.9236 8777.6865 393216
5154.7056 2159.875 8930.4697 393216
5382.0581 2232.1541 9229.3232 327680
5613.2329 2304.5439 9528.6348 393216
5647.5127 2295.4587 9491.0703 393216
5674.771 2283.7278 9442.5654 393216
5667.4224 2258.4353 9337.9893 327680
5167.9443 2039.425 8432.4434 393216
5487.5161 2144.7388 8867.8857 458752
5475.8428 2119.8167 8764.8398 393216
5445.7461 2088.2993 8634.5244 393216
5481.6729 2082.4521 8610.3486 196608
5696.9458 2144.2156 8865.7227 196608
5755.6016 2146.4395 8874.918 196608
5876.6978 2171.6978 8979.3535 196608
6034.3726 2209.897 9137.2969 196608
5956.7588 2162.0166 8939.3242 196608
6201.0474 2230.7847 9223.6611 131328
6301.9263 2247.209 9291.5713 328193
6497.4595 2296.8076 9496.6475 394242
6608.5381 2315.9553 9575.8174 525826
6714.8403 2333.1162 9646.7725 591619
6759.4316 2328.7258 9628.6201 591618
6763.1025 2310.4302 9552.9727 591874
6848.7988 2320.2275 9593.4824 591874
6986.1211 2347.2085 9705.041 921093
7066.7817 2354.8665 9736.7041 1118472
7198.7397 2379.3547 9837.9561 1315340
7248.481 2376.4929 9826.123 855303
7358.0229 2393.126 9894.8965 723463
7482.0503 2414.1694 9981.9053 328963
7594.2949 2431.1101 10051.949 131329
8688.8115 2759.78 11410.906 65536
9403.8857 2963.7717 12254.354 65536
9463.8066 2959.7339 12237.659 65536
9601.4375 2979.8755 12320.939 0
9431.3594 2904.9358 12011.084 0
9667.8682 2955.4126 12219.792 0
9750.1338 2958.3372 12231.885 0
9939.5918 2993.502 12377.28 0
10046.214 3003.3855 12418.146 0
10156.09 3014.0901 12462.406 0
10243.582 3018.0452 12478.76 0
10319.127 3018.4487 12480.429 0
10453.585 3035.9561 12552.816 0
10596.534 3055.6641 12634.303 0
10658.697 3051.9624 12618.998 0
10848.091 3084.4888 12753.485 0
11738.009 3314.365 13703.958 0
11685.494 3276.7998 13548.637 0
11464.438 3192.8105 13201.365 0
13335.923 3688.7683 15252.009 0
13305.164 3655.4133 15114.097 0
13247.083 3615.05 14947.205 0
15031.091 4074.5703 16847.191 0
15003.651 4040.2188 16705.156 0
15158.199 4055.0024 16766.283 0
14657.18 3895.366 16106.231 0
15287.488 4036.5173 16689.854 0
15587.575 4089.2197 16907.762 0
15629.623 4073.9866 16844.777 0
15880.006 4112.9058 17005.697 0
15760.484 4056.1343 16770.963 0
16103.274 4118.3096 17028.039 0
16076.871 4085.8784 16893.947 0
15973.394 4034.3833 16681.029 65536
17665.764 4434.3018 18334.578 65536
13800.282 3442.7866 14234.945 196608
0 0 0 0
0 0 0 0
-10130.63 2744.825 11076.868 0
-8706.0293 2374.2683 9581.4697 0
-9650.8076 2649.2527 10691.182 0
-9575.0938 2645.8889 10677.607 0
-9523.7441 2649.2578 10691.203 0
-9122.583 2554.7102 10309.651 0
-8653.3418 2439.6897 9845.4805 0
-8610.5342 2444.1482 9863.4736 0
-9024.6621 2579.261 10408.727 0
-9191.583 2645.0986 10674.418 0
-8694.5664 2519.4597 10167.396 0
-9068.5234 2646.2146 10678.921 0
-8840.1357 2597.7515 10483.347 0
-8804.0488 2605.5107 10514.659 0
-8727.9883 2601.4668 10498.34 0
-8881.7734 2666.3655 10760.241 0
-8840.6455 2673.2668 10788.093 0
-8596.6992 2618.4924 10567.048 0
-8700.6729 2669.6655 10773.559 0
-8661.876 2677.4656 10805.036 0
-8728.6768 2718.2671 10969.692 0
-8675.1641 2721.9331 10984.487 0
-8545.3779 2701.5417 10902.196 0
-8473.4404 2699.2666 10893.015 0
-8419.3145 2702.6741 10906.767 0
-8350.3057 2701.3198 10901.302 0
-8384.9854 2733.7498 11032.174 0
-8406.3213 2762.3062 11147.415 0
-8455.9062 2800.6729 11302.245 0
-8508.0205 2840.4983 11462.963 0
-8479.3301 2853.7715 11516.527 0
-8413.5986 2854.6926 11520.244 0
-8347.1875 2855.397 11523.086 0
-8285.5947 2857.7739 11532.68 0
-8220.6514 2859.0259 11537.731 0
-8157.666 2860.9854 11545.639 0
-8096.7168 2863.6982 11556.587 0
-8038.9097 2867.5784 11572.246 0
-7979.5029 2870.9502 11585.853 0
-7913.0571 2871.8259 11589.387 0
-7846.335 2872.6157 11592.574 0
-7843.4331 2896.9917 11690.944 0
-7779.5337 2899.0728 11699.343 0
-7765.1934 2919.8259 11783.093 0
-7703.0786 2922.8296 11795.215 0
-7639.7354 2925.418 11805.66 0
-7572.5757 2926.5796 11810.348 0
-7506.6572 2928.2473 11817.077 0
-7442.666 2930.7048 11826.995 0
-7421.4004 2950.1943 11905.646 0
-7357.6738 2953.0168 11917.036 0
-7273.6729 2947.678 11895.491 0
-7183.2305 2939.5984 11862.886 0
-7118.9126 2942.1555 11873.205 0
-7052.2871 2943.8005 11879.844 0
-7019.895 2959.9136 11944.868 0
-6954.1079 2962.1306 11953.815 0
-6890.0371 2965.1323 11965.929 0
-6825.7095 2968.0852 11977.845 0
-6768.7314 2974.3291 12003.043 0
-6708.7197 2979.3594 12023.343 0
-6649.5615 2984.8809 12045.625 0
-6596.5205 2993.2983 12079.595 0
-6543.188 3001.7676 12113.772 0
-6469.7178 3001.084 12111.014 0
-6400.7344 3002.4895 12116.686 0
-6331.854 3003.9761 12122.685 0
-6260.0151 3004.0771 12123.092 0
-6191.875 3005.9761 12130.756 0
-6128.0747 3010.0513 12147.201 0
-6037.6616 3000.9961 12110.659 0
-5977.1514 3006.7646 12133.938 65536
-5912.7183 3010.677 12149.727 0
-5843.9106 3012.4309 12156.804 0
-5788.5425 3021.2434 12192.367 0
-5722.3472 3024.5562 12205.736 0
-5654.6411 3027.1455 12216.187 0
-5588.1196 3030.4448 12229.5 0
-5520.8179 3033.4021 12241.435 0
-5470.2539 3045.7576 12291.296 0
-5399.5005 3047.0544 12296.529 0
-5345.4634 3057.9495 12340.497 0
-5255.605 3048.3708 12301.842 0
-5205.5635 3061.9421 12356.609 0
-5159.0107 3077.9836 12421.346 0
-5113.4316 3095.0801 12490.339 0
-5088.7686 3125.5264 12613.207 0
-5042.022 3143.1174 12684.196 0
-4991.5859 3158.9072 12747.916 0
-4937.6597 3172.9409 12804.55 65536
-4877.5347 3183.3682 12846.63 65536
-4812.5283 3190.8914 12876.989 65536
-4759.5581 3206.7659 12941.053 65536
-4708.9087 3224.752 13013.636 0
-4646.8813 3235.4165 13056.674 0
-4574.5972 3239.1809 13071.864 0
-4505.6602 3245.4863 13097.311 0
-4446.5474 3259.2141 13152.71 0
-4404.3208 3286.032 13260.935 0
-4352.7817 3306.7527 13344.554 0
-4293.5977 3322.3269 13407.404 0
-4219.4556 3326.6968 13425.039 65536
-4128.4819 3317.7095 13388.771 65536
-4076.749 3340.5227 13480.834 65536
-4025.2913 3364.4805 13577.517 65536
-3966.8994 3383.5044 13654.288 0
-3930.2705 3422.2732 13810.741 0
-3894.5896 3463.5386 13977.27 0
-3808.3811 3460.688 13965.767 0
-3745.7478 3479.6108 14042.13 65536
-3668.3083 3485.3284 14065.203 65536
-3613.4026 3513.2214 14177.768 65536
-3573.8157 3557.6968 14357.249 65536
-3493.5642 3562.876 14378.151 65536
-3416.5344 3571.6831 14413.692 0
-3336.5542 3577.7793 14438.294 0
-3270.6287 3599.666 14526.619 0
-3199.8643 3617.2698 14597.659 0
-3139.9597 3648.4731 14723.582 0
-3083.5432 3685.635 14873.551 0
-3007.8384 3701.2549 14936.586 0
-2926.8276 3711.0977 14976.307 0
-2844.335 3719.6196 15010.697 0
-2765.0598 3733.0376 15064.846 0
-2688.8835 3751.677 15140.066 0
-2609.084 3766.3772 15199.39 0
-2525.9351 3777.1228 15242.754 0
-2431.9812 3771.9104 15221.719 0
-2356.2102 3795.5857 15317.262 0
-2294.0059 3843.8962 15512.222 0
-2237.9094 3906.9153 15766.538 0
-2145.0942 3908.5386 15773.089 0
-2052.5405 3910.8083 15782.248 0
-1966.8219 3926.9421 15847.356 0
-1872.3802 3926.407 15845.196 256
-1762.0522 3890.7366 15701.247 256
-1668.0176 3889.0652 15694.503 0
-1583.5405 3910.8005 15782.217 0
-1494.9087 3924.3655 15836.958 0
-1406.4167 3940.145 15900.638 0
-1319.4893 3962.8967 15992.454 0
-1226.2703 3968.8191 16016.353 65536
-1133.1978 3976.2512 16046.346 196608
-1039.4917 3982.6223 16072.057 196608
-944.18958 3983.5493 16075.797 196608
-849.75873 3988.7744 16096.884 196608
-757.38623 4006.2131 16167.258 196608
-663.06628 4016.9219 16210.474 196608
-567.23499 4020.5588 16225.151 196608
-474.66003 4053.4946 16358.064 196608
-379.92929 4080.2449 16466.018 196608
-288.95483 4179.895 16868.16 196608
-188.24962 4169.8848 16827.762 196608
-88.344254 4174.98 16848.324 262144
11.644373 4123.0093 16638.594 262144
110.46932 4120.6235 16628.967 262144
214.11758 4215.4502 17011.645 458752
315.6727 4221.4551 17035.877 458752
407.09903 4121.9868 16634.469 393216
500.15741 4074.6863 16443.586 393216
585.12665 3987.7207 16092.631 262144
672.69238 3940.4009 15901.67 262144
763.82385 3923.0527 15831.661 262144
838.17212 3832.7646 15467.3 262144
924.74695 3810.7075 15378.286 196608
1001.1002 3754.2854 15150.593 196608
1096.183 3771.6182 15220.54 196608
1181.5183 3755.3269 15154.796 131072
1261.4668 3725.4353 15034.166 131072
1293.7896 3568.1506 14399.437 131072
1362.9867 3525.7693 14228.405 196608
1444.5758 3518.5227 14199.161 196608
1526.8235 3513.5916 14179.261 262144
1605.8705 3502.1956 14133.272 262144
1551.1178 3214.6379 12972.819 262144
1543.6523 3047.6741 12299.03 196608
1856.3743 3499.3813 14121.916 196608
1660.8588 2995.3931 12088.048 131328
1864.1273 3222.593 13004.924 263170
2101.925 3489.0176 14080.093 65792
2315.1511 3695.8154 14914.635 0
2941.9351 4523.2036 18253.598 131072
2833.4436 4201.4644 16955.205 196608
2625.0979 3758.8447 15168.991 131072
2713.0723 3755.8267 15156.812 196608
2782.2146 3727.7703 15043.59 327680
2847.4827 3696.4314 14917.12 458752
2935.8403 3696.054 14915.598 589824
2997.7166 3663.3369 14783.566 655360
3067.3069 3641.6418 14696.015 655360
3136.0308 3620.1482 14609.275 589824
2974.9775 3341.71 13485.625 524288
3235.1079 3538.5735 14280.077 458752
3279.6494 3495.5884 14106.608 393216
3334.3008 3465.2527 13984.188 327680
3360.6406 3407.6851 13751.871 262144
3469.2527 3434.2939 13859.252 196608
3529.3376 3412.7449 13772.29 458752
3574.9729 3378.5171 13634.162 327680
3623.9805 3348.9226 13514.732 196608
3681.2739 3328.1025 13430.713 196865
3731.7546 3302.1379 13325.932 196864
3777.3582 3273.0269 13208.451 65537
3849.6794 3267.7803 13187.278 3
3877.395 3225.635 13017.199 2240561
4202.8071 3427.9497 13833.649 5136484
4210.9756 3368.7112 13594.591 5137001
4265.9067 3348.4082 13512.656 5136486
4284.6353 3300.9646 13321.195 6122350
4847.4009 3666.7742 14797.437 0
4592.3574 3411.946 13769.066 196608
4746.5234 3464.7449 13982.139 393216
4825.52 3461.8005 13970.256 196608
4983.9258 3514.96 14184.783 2763048
5166.8872 3583.3809 14460.899 526857
5340.8203 3643.4038 14703.125 987407
5294.5854 3553.718 14341.193 0
5333.0254 3522.8069 14216.451 257
5396.79 3509.3279 14162.056 921613
5611.7891 3593.095 14500.101 1054225
6022.8291 3797.9497 15326.802 256
5620.7695 3491.6047 14090.533 66049
5746.9507 3517.5793 14195.354 0
5714.0586 3446.8455 13909.904 196608
5549.4297 3299.7959 13316.479 196608
5410.4409 3171.9138 12800.404 196608
5682.5581 3285.25 13257.778 196608
5948.167 3391.7749 13687.665 65536
5984.8467 3366.6467 13586.259 65536
5985.4595 3322.1687 13406.765 65536
6096.1392 3339.1479 13475.286 65536
6143.9839 3321.7153 13404.937 65536
6461.3423 3448.5754 13916.886 65536
6264.7114 3301.3677 13322.821 65536
6114.9062 3182.2024 12841.925 65536
5993.856 3080.7546 12432.528 65536
5894.0854 2992.5823 12076.704 65536
5861.4121 2940.1887 11865.268 65536
5871.9717 2910.4695 11745.334 65536
5867.6797 2874.1736 11598.86 65536
5866.6987 2840.3235 11462.258 65536
5856.4688 2802.8245 11310.928 65536
5874.4434 2779.5215 11216.888 65536
5863.999 2743.4458 11071.303 65536
5826.627 2695.7126 10878.673 65536
5913.9839 2706.1001 10920.593 65536
5291.2266 2394.8579 9664.5605 196608
0 0 0 0
5807.5942 2572.7136 10382.306 262144
5402.2485 2367.989 9556.1299 262144
5285.373 2292.6555 9252.1172 262144
5122.0986 2198.9534 8873.9785 196608
5384.1997 2287.9172 9232.9961 262144
5637.7275 2371.4792 9570.2148 262144
5645.7085 2351.1162 9488.0381 196608
5665.1401 2335.877 9426.54 196608
5766.9146 2354.5559 9501.9189 196608
5825.4521 2355.3906 9505.2881 196608
5883.0894 2355.8486 9507.1367 65536
5896.9429 2338.9319 9438.8682 0
5928.1265 2329.1431 9399.3643 65536
5929.9077 2308.0925 9314.4141 65536
5942.5186 2291.6077 9247.8887 131072
5735.769 2191.6086 8844.3379 65536
5685.3984 2152.6345 8687.0566 131072
5705.5879 2140.8374 8639.4482 196608
5664.8784 2106.604 8501.2988 196608
5659.0112 2085.8184 8417.417 196608
5915.3545 2161.1968 8721.6094 196608
5794.8999 2098.7966 8469.791 196608
5879.3843 2111.0569 8519.2686 262144
5972.6167 2126.2222 8580.4678 262144
6131.6343 2164.3516 8734.3408 327680
6210.6333 2173.8325 8772.6025 262144
6298.2148 2186.135 8822.249 393216
6074.1025 2090.9375 8438.0752 393216
6455.3188 2203.9697 8894.2217 524288
7008.4614 2373.3879 9577.917 524288
7147.8579 2401.0916 9689.7168 589824
6743.6206 2247.196 9068.6631 524288
7378.8267 2439.3708 9844.1943 393216
7470.3442 2450.1978 9887.8867 327680
7789.8706 2535.0566 10230.339 525569
9108.4111 2941.1921 11869.317 196608
9491.2393 3041.2568 12273.133 0
9616.2471 3057.8125 12339.944 0
9766.0176 3081.9319 12437.279 0
9788.0596 3065.6838 12371.709 0
10071.354 3130.8936 12634.865 0
10191.235 3144.7141 12690.639 0
10303.36 3155.9551 12736.004 0
10398.598 3161.8977 12759.984 0
10512.045 3173.251 12805.802 0
10635.095 3187.3193 12862.574 0
10747.862 3198.127 12906.188 0
10877.116 3213.6521 12968.842 0
10973.613 3219.3486 12991.831 0
11036.062 3215.0469 12974.471 0
11219.148 3245.7056 13098.195 0
11380.084 3269.5779 13194.532 0
11472.48 3273.5657 13210.626 0
11672.582 3308.0237 13349.683 0
12003.657 3378.8833 13635.641 0
11549.791 3229.3232 13032.083 0
11279.404 3132.7144 12642.215 0
12159.923 3354.9189 13538.932 0
12767.734 3499.457 14122.221 0
16786.301 4570.8418 18445.844 0
16899.609 4571.8369 18449.859 0
17381.834 4671.9785 18853.984 0
17585.729 4696.5049 18952.963 0
17776.217 4717.1621 19036.326 0
18132.453 4781.2637 19295.01 0
18378.982 4815.812 19434.434 0
18626.178 4850.1035 19572.816 0
18822.006 4870.6758 19655.838 65536
19088.447 4909.1553 19811.123 65536
12618.302 3225.2727 13015.737 196608
0 0 0 0
0 0 0 0
-10074.61 2795.1165 11015.616 0
0 0 0 0
-9578.0713 2692.3481 10610.604 0
-9489.043 2685.001 10581.648 0
-9432.0195 2686.6724 10588.235 0
-8989.7822 2577.9023 10159.57 0
-8575.7803 2475.8125 9757.2324 0
-8538.4355 2481.8137 9780.8828 0
-8923.5918 2611.5447 10292.155 0
-8845.3936 2606.5266 10272.379 0
-8647.04 2565.7861 10111.82 0
-8939.1943 2671.0391 10526.625 0
-8933.8594 2688.2595 10594.491 0
-8895.2148 2695.6304 10623.539 0
-8665.3594 2644.7471 10423.007 0
-8807.6367 2707.5271 10670.425 0
-8496.2949 2630.761 10367.888 0
-8474.6992 2643.2446 10417.086 0
-8420.8027 2645.7632 10427.012 0
-8360.8447 2646.4001 10429.522 0
-8630.5391 2752.1689 10846.359 0
-8513.4609 2735.2644 10779.738 0
-8517.2988 2757.2473 10866.373 0
-8522.7383 2780.0886 10956.391 0
-8482.4336 2788.2444 10988.533 0
-8416.248 2787.9541 10987.389 0
-8378.5439 2797.1677 11023.7 0
-8333.3389 2804.0024 11050.636 0
-8360.7285 2835.5664 11175.03 0
-8426.248 2880.6711 11352.789 0
-8418.96 2901.4131 11434.533 0
-8351.9824 2901.7542 11435.878 0
-8284.877 2902.0559 11437.067 0
-8224.415 2904.7092 11447.523 0
-8159.3501 2905.7673 11451.694 0
-8096.0527 2907.4783 11458.437 0
-8036.666 2910.6348 11470.876 0
-7974.6035 2912.8674 11479.675 0
-7918.2651 2917.2476 11496.938 0
-7850.3652 2917.4077 11497.568 0
-7785.4736 2918.698 11502.654 0
-7718.8135 2919.3428 11505.195 0
-7652.481 2920.1235 11508.272 0
-7591.8579 2923.1172 11520.07 0
-7531.4614 2926.2534 11532.43 0
-7480.5449 2933.1638 11559.664 0
-7414.8013 2934.3352 11564.28 0
-7349.5933 2935.7422 11569.825 0
-7286.6309 2938.0811 11579.043 0
-7236.2729 2945.5955 11608.657 0
-7175.0713 2948.7981 11621.279 0
-7114.5747 2952.3557 11635.3 0
-7049.6958 2954.1465 11642.357 0
-6986.6011 2956.728 11652.53 0
-6925.2671 2960.1138 11665.874 0
-6864.5796 2963.8472 11680.588 0
-6805.2007 2968.2275 11697.851 0
-6773.3145 2984.8135 11763.217 0
-6709.3691 2987.4709 11773.689 0
-6615.5112 2976.7244 11731.337 0
-6543.7842 2975.813 11727.746 0
-6476.9155 2977.1152 11732.878 0
-6424.2969 2985.0676 11764.218 0
-6433.5098 3022.241 11910.719 0
-6362.5259 3022.1487 11910.355 0
-6297.4351 3024.885 11921.139 0
-6232.3447 3027.6833 11932.168 0
-6166.0156 3029.938 11941.054 0
-6099.0586 3031.9329 11948.915 0
-5987.2227 3011.4019 11868.002 0
-5929.563 3017.9553 11893.829 0
-5872.6489 3025.051 11921.793 65536
-5812.374 3030.5674 11943.534 0
-5747.9595 3034.0354 11957.201 0
-5679.2046 3035.2703 11962.068 0
-5612.7036 3037.7566 11971.867 0
-5547.6963 3041.1255 11985.144 0
-5481.6401 3044 11996.472 0
-5415.1572 3046.7097 12007.15 0
-5355.1816 3053.2017 12032.736 0
-5290.9238 3057.3953 12049.263 0
-5226.9229 3061.8542 12066.836 0
-5157.9146 3063.4631 12073.177 0
-5096.8364 3069.8943 12098.521 0
-5044.6094 3081.9165 12145.901 0
-4997.5 3097.4597 12207.157 0
-4988.8599 3137.6555 12365.571 0
-4950.3809 3160.0063 12453.655 0
-4899.8164 3175.2034 12513.548 0
-4824.2437 3174.4136 12510.436 65536
-4767.7393 3186.3428 12557.448 65536
-4713.3169 3200.0647 12611.526 65536
-4663.6445 3217.5071 12680.268 65536
-4609.4966 3232.3843 12738.899 0
-4555.3999 3247.7947 12799.632 0
-4489.8872 3255.4517 12829.807 0
-4427.3599 3265.5745 12869.702 0
-4374.0215 3282.9502 12938.181 0
-4312.2363 3294.4954 12983.679 0
-4261.9609 3315.4141 13066.12 0
-4205.9287 3332.5476 13133.645 0
-4137.5938 3340.3967 13164.579 65536
-4039.0737 3323.7102 13098.816 65536
-3993.8921 3351.1221 13206.846 65536
-3937.7454 3370.2476 13282.221 0
-3876.686 3385.865 13343.77 196608
-3835.1985 3419.5857 13476.663 196608
-3779.9199 3442.1858 13565.731 196608
-3701.98 3444.6851 13575.581 196608
-3630.5542 3453.4924 13610.29 196608
-3587.3782 3490.1851 13754.897 131072
-3538.6174 3523.0291 13884.337 65536
-3478.0176 3545.3735 13972.396 65536
-3398.5908 3549.1494 13987.276 0
-3315.541 3549.2363 13987.62 0
-3230.0066 3546.6001 13977.23 0
-3182.1191 3586.2527 14133.501 0
-3133.0825 3626.7253 14293.005 0
-3077.1885 3661.2939 14429.241 0
-3009.8699 3683.8628 14518.185 0
-2929.2493 3691.0022 14546.321 0
-2843.9446 3692.4939 14552.201 0
-2767.8457 3706.407 14607.032 0
-2697.8308 3729.6321 14698.562 0
-2623.9958 3748.9536 14774.709 0
-2544.3696 3761.0522 14822.392 0
-2447.7532 3748.0037 14770.967 0
-2372.9492 3768.626 14852.238 0
-2296.6509 3788.3767 14930.077 0
-2230.0549 3826.363 15079.781 0
-2164.0676 3868.6174 15246.309 0
-2070.4163 3862.9507 15223.974 0
-1985.6753 3874.1504 15268.113 0
-1907.3422 3899.5232 15368.108 0
-1813.3472 3893.8181 15345.624 0
-1712.3986 3871.7856 15258.794 0
-1623.6854 3876.5015 15277.379 0
-1543.2244 3902.6443 15380.408 0
-1455.2708 3911.9385 15417.037 0
-1367.8838 3924.1069 15464.993 0
-1281.3944 3940.7891 15530.737 0
-1190.2472 3944.6248 15545.854 65536
-1098.7327 3947.7859 15558.312 65536
-1007.9134 3954.2559 15583.811 131072
-916.28467 3958.5381 15600.688 196608
-826.20007 3971.2068 15650.614 0
-732.31396 3966.4995 15632.063 0
-634.62476 3936.832 15515.143 0
-542.53522 3937.7197 15518.641 131072
-452.91678 3960.5796 15608.733 196608
-357.17941 3927.9263 15480.045 196608
-268.28696 3974.0049 15661.642 196608
-175.57993 3982.5222 15695.209 196608
-82.018448 3969 15641.917 196608
10.908694 3955.1626 15587.385 196608
102.51893 3915.7844 15432.193 196608
197.24631 3976.4353 15671.221 262144
293.24811 4015.6313 15825.692 262144
383.41632 3975.3062 15666.771 262144
468.10211 3905.0046 15389.71 262144
555.68158 3877.8792 15282.809 262144
635.16901 3809.8389 15014.66 262144
723.76013 3806.4404 15001.267 196608
808.80261 3787.1711 14925.325 196608
891.41101 3761.4397 14823.918 0
971.0354 3728.8787 14695.594 65536
1067.0001 3759.2622 14815.336 65536
1151.9603 3749.1973 14775.67 65536
1200.443 3630.2471 14306.885 65536
1241.5795 3506.2874 13818.356 65536
1319.6691 3495.592 13776.206 196608
1408.67 3513.3604 13846.232 196608
1958.9967 4616.2524 18192.754 196608
1514.3627 3381.8413 13327.912 196608
1633.4457 3466.4541 13661.372 196608
1551.8617 3137.3684 12364.438 262144
1663.4585 3210.9321 12654.355 394240
1768.0034 3265.1086 12867.866 131072
1957.6627 3465.4626 13657.466 65792
2005.5153 3408.8303 13434.276 196864
2232.1562 3648.7908 14379.966 394240
2343.4763 3689.4963 14540.387 327936
2431.4873 3691.9141 14549.916 393216
2514.814 3687.2976 14531.722 458752
2600.47 3686.2896 14527.749 458752
2668.5767 3661.269 14429.144 458752
2744.4263 3648.0991 14377.239 458752
2831.0503 3649.6138 14383.209 524288
2899.071 3627.7605 14297.085 458752
3008.6274 3657.6477 14414.871 458752
3088.4541 3650.7378 14387.639 393216
3167.0759 3642.814 14356.41 393216
3168.7507 3549.1223 13987.17 262144
3302.644 3604.5249 14205.514 196608
3339.0374 3553.4062 14004.054 196608
3377.7158 3507.1467 13821.743 196608
3432.0796 3478.9829 13710.75 262144
3493.4004 3459.0149 13632.055 196608
3538.6907 3424.4387 13495.789 393216
3580.5073 3388.1082 13352.609 393216
3607.2344 3339.3845 13160.589 393216
3690.2712 3343.7507 13177.796 458752
3743.9504 3321.8875 13091.633 393216
3807.8386 3309.7886 13043.95 262145
3863.7446 3291.3723 12971.372 131073
3702.2354 3092.0925 12186.005 65794
3946.8123 3233.1135 12741.772 921620
4471.686 3594.1138 14164.482 855828
4678.2456 3690.6548 14544.953 921107
4862.0103 3766.0366 14842.034 131074
4596.7153 3497.0957 13782.132 262144
4700.606 3513.5239 13846.876 196608
4752.1982 3490.9685 13757.984 131072
0 0 0 0
0 0 0 0
5358.3213 3743.0149 14751.306 1647138
5227.3164 3592.719 14158.985 771
5137.0356 3474.7312 13693.993 1647395
5629.2217 3748.2644 14771.994 1780009
6346.9937 4161.2983 16399.77 2965057
7132.6826 4605.6929 18151.139 3161408
6261.9297 3983.1892 15697.838 3028793
5959.4497 3735.1326 14720.24 1382681
5927.6626 3661.4583 14429.888 1
5822.0566 3544.9377 13970.679 131072
5593.8081 3358.0701 13234.229 196608
5587.6177 3307.8413 13036.277 0
5338.4688 3117.124 12284.654 65536
5329.2163 3069.7375 12097.904 0
5355.0605 3043.561 11994.741 0
5756.7422 3228.8733 12725.062 0
5616.0303 3109.104 12253.048 0
6108.3193 3338.3523 13156.521 0
5952.3794 3212.0098 12658.602 0
5910.4922 3149.5977 12412.635 65536
5873.4722 3091.2859 12182.826 65536
5861.3027 3047.3145 12009.534 65536
5744.9155 2950.8696 11629.443 65536
5720.7202 2903.5093 11442.795 65536
5692.8145 2855.4006 11253.197 65536
5698.5469 2825.0857 11133.726 65536
5703.082 2794.8799 11014.684 65536
5745.2129 2783.575 10970.131 65536
5795.7529 2776.552 10942.453 65536
5746.562 2722.4377 10729.188 65536
5903.3574 2766.0259 10900.97 65536
5525.71 2560.9727 10092.851 196608
0 0 0 0
0 0 0 0
0 0 0 0
0 0 0 0
5200.6685 2286.2344 9010.1006 262144
5201.6572 2263.3638 8919.9668 262144
5247.5723 2260.3057 8907.915 196608
5187.6523 2212.1775 8718.2402 196608
5295.0449 2235.6426 8810.7178 196608
5421.8062 2266.7463 8933.2979 65536
5423.8853 2245.625 8850.0576 65536
5537.9365 2270.8235 8949.3662 65536
5565.6387 2260.4719 8908.5703 65536
5552.6416 2233.9414 8804.0127 65536
5602.2021 2232.8394 8799.6699 65536
5637.6094 2226.1689 8773.3818 65536
5679.5522 2222.178 8757.6533 65536
5817.104 2255.3279 8888.2969 65536
5877.8481 2258.3699 8900.2861 65536
5941.1924 2262.3479 8915.9639 65536
6008.3086 2267.6794 8936.9746 65536
6143.207 2298.2756 9057.5557 65536
6245.3604 2316.1963 9128.1816 65536
6296.9541 2315.2188 9124.3291 196608
6373.2568 2323.2659 9156.042 196608
6600.667 2385.7932 9402.4648 196608
6378.6436 2286.1885 9009.9199 196608
6616.0381 2351.5322 9267.4414 196608
6543.3447 2306.4934 9089.9414 196608
6515.1943 2277.7642 8976.7188 196608
6551.959 2272.0122 8954.0508 196608
6615.7866 2275.6621 8968.4346 196608
6748.4126 2302.7292 9075.1074 262144
7506.2334 2541.0081 10014.169 393216
7297.4648 2450.9021 9659.0596 393216
7834.7959 2610.8296 10289.338 262400
8010.4121 2648.6775 10438.497 196608
8842.8467 2901.4541 11434.695 196608
8722.3174 2840.0801 11192.819 0
8894.5244 2874.2312 11327.409 0
8940.2158 2867.2937 11300.068 0
8963.9688 2853.4763 11245.613 0
9122.627 2882.4888 11359.953 0
9340.1084 2929.5259 11545.326 0
9502.5361 2958.7346 11660.439 0
9786.834 3025.1917 11922.348 0
9987.1006 3064.905 12078.859 0
10169.382 3098.572 12211.541 0
10392.249 3144.0403 12390.732 0
10524.004 3161.4978 12459.532 0
10739.205 3203.604 12625.475 0
10768.209 3189.9668 12571.73 0
11734.4 3452.2366 13605.341 0
12027.235 3514.1716 13849.43 0
12418.781 3603.9109 14203.094 0
12597.827 3631.188 14310.593 0
12440.235 3561.717 14036.807 0
10545.535 2999.1399 11819.678 0
14030.946 3963.9814 15622.14 0
14451.879 4056.062 15985.031 0
11237.901 3133.4287 12348.913 0
13532.949 3748.8667 14774.366 0
13240.997 3644.344 14362.44 0
10437.79 2854.4106 11249.296 0
11810.616 3209.2788 12647.84 0
11699.773 3159.0535 12449.9 0
12023.084 3225.9485 12713.534 0
10744.335 2864.8389 11290.395 0
14044.203 3721.4644 14666.374 65536
9863.7227 2597.5891 10237.156 65536
13583.922 3555.3643 14011.771 131072
0 0 0 0
0 0 0 0
-10016.932 2844.2087 10952.55 0
0 0 0 0
-9459.1006 2721.1851 10478.808 0
-9374.7324 2714.7886 10454.176 0
-9315.8721 2715.7424 10457.85 0
-9227.5752 2708.0703 10428.305 0
-8485.8076 2507.22 9654.8652 0
-8385.6221 2494.4871 9605.833 0
-8836.3496 2646.5842 10191.533 0
-8803.6426 2654.9878 10223.894 0
-8578.1465 2604.9629 10031.256 0
-8819.9453 2697.1362 10386.2 0
-8853.0391 2726.3374 10498.647 0
-8792.4658 2726.9031 10500.826 0
-8696.1787 2716.3213 10460.078 0
-8688.0498 2733.3225 10525.546 0
-8424.752 2669.7097 10280.585 0
-8382.7012 2675.7905 10304.001 0
-8328.5361 2678.0659 10312.763 0
-8265.5098 2677.5039 10310.599 0
-8516.4492 2779.3984 10702.978 0
-8439.6406 2775.0593 10686.268 0
-8427.4941 2792.0771 10751.801 0
-8354.0479 2788.8909 10739.53 0
-8301.7246 2792.7615 10754.436 0
-8240.8857 2793.8047 10758.453 0
-8301.8105 2836.4678 10922.74 0
-8239.9932 2837.5352 10926.852 0
-8289.1768 2877.1479 11079.394 0
-8261.54 2890.5171 11130.876 0
-8336.0576 2940.1323 11321.936 0
-8284.876 2945.8604 11343.992 0
-8221.0195 2947.1384 11348.914 0
-8162.6406 2950.4172 11361.54 0
-8097.8281 2951.4062 11365.349 0
-8035.3926 2953.2852 11372.584 0
-7976.8208 2956.6284 11385.458 0
-7915.9307 2959.1616 11395.214 0
-7858.8911 2963.1909 11410.729 0
-7793.2866 2964.033 11413.972 0
-7726.3032 2964.3604 11415.232 0
-7658.5229 2964.3853 11415.329 0
-7591.8335 2964.8367 11417.067 0
-7534.1118 2968.8298 11432.444 0
-7474.6587 2972.2075 11445.451 0
-7411.3564 2974.1021 11452.747 0
-7355.5674 2979.0752 11471.897 0
-7290.8608 2980.4958 11477.368 0
-7230.0767 2983.562 11489.175 0
-7167.6411 2985.9983 11498.557 0
-7107.5615 2989.4727 11511.936 0
-7039.8022 2989.7529 11513.015 0
-6977.1162 2992.2146 11522.494 0
-6917.9526 2996.2505 11538.036 0
-6853.8179 2998.1926 11545.515 0
-6793.4912 3001.8569 11559.625 0
-6733.7979 3005.8787 11575.112 0
-6676.1094 3010.8875 11594.4 0
-6625.8413 3019.3826 11627.113 0
-6565.5952 3023.4617 11642.821 0
-6501.2192 3025.7051 11651.461 0
-6434.4883 3026.8894 11656.021 0
-6378.1035 3033.0198 11679.629 0
-6334.9111 3045.627 11728.177 0
-6251.8062 3039.113 11703.093 0
-6190.1709 3043.0066 11718.086 0
-6134.4722 3049.9402 11744.786 0
-6068.2461 3051.7393 11751.714 0
-6006.1934 3055.7034 11766.979 0
-5943.0566 3059.2029 11780.455 0
-5882.4072 3064.0815 11799.242 0
-5828.7446 3072.7612 11832.665 65536
-5766.9102 3077.292 11850.113 0
-5702.877 3080.7473 11863.419 0
-5636.0132 3082.7405 11871.095 0
-5568.1436 3084.2275 11876.82 0
-5505.1748 3088.5022 11893.281 0
-5437.4736 3090.1985 11899.813 0
-5370.6499 3092.4448 11908.464 0
-5312.3467 3099.7227 11936.489 0
-5249.2002 3104.333 11954.243 0
-5183.5073 3107.5437 11966.606 0
-5116.2842 3109.9136 11975.732 0
-5052.5938 3114.5273 11993.5 0
-5000.7227 3126.6638 12040.235 0
-4952.9849 3141.7744 12098.423 0
-4898.2051 3152.7971 12140.87 0
-4856.4785 3172.6775 12217.426 0
-4812.0693 3191.3816 12289.452 65536
-4760.8115 3206.0508 12345.94 65536
-4707.769 3219.9583 12399.495 65536
-4648.6562 3230.0901 12438.513 65536
-4597.5952 3246.2349 12500.683 65536
-4542.1782 3259.7834 12552.856 0
-4495.7793 3280.3652 12632.112 0
-4436.3506 3291.9768 12676.826 0
-4380.1431 3306.4214 12732.449 0
-4326.3901 3323.2593 12797.29 0
-4257.6138 3328.9534 12819.216 0
-4206.3325 3348.783 12895.577 0
-4154.8525 3369.1875 12974.151 0
-4083.3308 3373.8047 12991.932 0
-3987.8247 3358.4011 12932.615 65536
-3948.0176 3390.2217 13055.15 65536
-3872.5674 3392.0969 13062.371 0
-3797.1738 3394.0999 13070.084 196608
-3746.9309 3419.1365 13166.496 196608
-3690.6355 3439.6006 13245.3 196608
-3616.4915 3443.9597 13262.086 196608
-3555.5278 3461.344 13329.029 196608
-3472.5894 3457.6404 13314.769 196608
-3422.7761 3487.5161 13429.814 196608
-3368.7275 3514.4001 13533.34 196608
-3270.2639 3495.1296 13459.133 65536
-3183.1384 3487.3152 13429.041 65536
-3109.4663 3494.2161 13455.615 65536
-3069.9922 3540.9255 13635.484 65536
-3023.8115 3582.2229 13794.514 0
-2960.3909 3604.8293 13881.566 65536
-2914.2368 3650.3594 14056.896 0
-2833.0601 3653.4138 14068.657 0
-2751.562 3656.2266 14079.488 0
-2679.2891 3671.8584 14139.684 0
-2612.7991 3696.6843 14235.285 0
-2546.7971 3723.8855 14340.032 0
-2422.2742 3664.4399 14111.116 0
-2377.7024 3726.0186 14348.245 0
-2299.1985 3737.0264 14390.635 0
-2224.5664 3755.4214 14461.471 0
-2162.1252 3796.7019 14620.435 0
-2089.9758 3823.6785 14724.316 0
-1999.4415 3817.9067 14702.091 0
-1912.9146 3819.6091 14708.646 0
-1861.0537 3894.009 14995.146 0
-1759.3413 3866.3386 14888.594 65536
-1655.676 3831.2188 14753.353 65536
-1588.0872 3880.3201 14942.433 65536
-1570.8617 4065.5845 15655.854 0
-1484.0631 4082.7771 15722.061 0
-1395.4092 4096.834 15776.189 0
-1254.1267 3947.2708 15200.249 0
-1102.8602 3740.6243 14404.489 0
-1020.7016 3753.3193 14453.375 0
-939.69727 3772.981 14529.09 0
-872.69354 3858.5249 14858.504 65536
-791.18604 3891.9839 14987.349 65536
-691.64685 3833.9778 14763.978 65536
-600.30676 3811.1687 14676.145 65536
-512.04517 3803.4719 14646.505 65536
-421.06116 3768.2578 14510.901 65536
-335.89322 3780.3608 14557.508 65536
-252.73529 3831.3323 14753.791 65536
-167.10593 3879.0942 14937.713 65536
-78.295708 3877.5962 14931.944 131072
10.389157 3855.0232 14845.021 131072
98.001472 3830.9138 14752.179 131072
189.30063 3905.6401 15039.937 196608
278.7052 3905.8787 15040.855 196608
366.77344 3891.8223 14986.726 196608
451.18503 3852.0393 14833.529 196608
533.70447 3811.7485 14678.377 196608
611.6908 3754.9519 14459.662 131072
693.6217 3733.3796 14376.592 0
769.18311 3686.0161 14194.203 0
845.97461 3653.3274 14068.324 0
895.68976 3520.1072 13555.317 0
965.22559 3480.343 13402.191 0
1050.5065 3499.0859 13474.367 0
1094.3719 3386.9961 13042.729 0
1150.1536 3324.1753 12800.816 0
1236.1375 3351.0242 12904.208 0
1304.2731 3329.1785 12820.084 65792
1408.2251 3396.1201 13077.864 197378
1378.8602 3151.365 12135.354 591877
1345.1908 2921.593 11250.543 65536
1446.5044 2992.8665 11525.005 65536
1601.3552 3163.457 12181.92 855562
1648.49 3115.7026 11998.025 921354
1737.4517 3147.6843 12121.182 658180
1882.9932 3275.5427 12613.542 526080
2094.3879 3503.7783 13492.437 196608
2200.2678 3545.1707 13651.832 393216
2379.6438 3697.8274 14239.687 458752
