# .PCD v0.7 - Point Cloud Data file format
VERSION 0.7
FIELDS x y z rgb
SIZE 4 4 4 4
TYPE F F F U
COUNT 1 1 1 1
WIDTH 1547
HEIGHT 1
VIEWPOINT 0 0 0 1 0 0 0
POINTS 1547
DATA ascii
10830.018 -1318.8458 12821.827 256
10873.031 -1314.8322 12782.807 258
10901.862 -1309.1709 12727.769 260
10920.034 -1302.3167 12661.131 260
10852.943 -1285.4575 12497.227 4
10459.277 -1230.4098 11962.052 4
10453.024 -1221.3722 11874.188 5
10294.542 -1194.788 11615.736 520
10727.138 -1236.7017 12023.222 264
11139.731 -1275.7701 12403.045 778
11278.855 -1283.2117 12475.392 1122598
12298.108 -1390.0356 13513.936 2374208
0 0 0 0
0 0 0 0
0 0 0 0
0 0 0 0
0 0 0 0
0 0 0 0
0 0 0 0
0 0 0 0
0 0 0 0
0 0 0 0
0 0 0 0
0 0 0 0
0 0 0 0
-9910.2227 -1057.0397 10906.752 0
-9840.0615 -1056.4664 10900.837 0
-9738.6777 -1052.5112 10860.026 0
-9395.6523 -1022.2136 10547.409 0
-9637.3574 -1055.5529 10891.41 0
-9641.7041 -1063.1699 10970.005 0
-9729.2305 -1080.1252 11144.953 0
-11709.74 -1308.9098 13505.6 0
-11287.113 -1270.3771 13108.011 0
-9803.0723 -1111.015 11463.681 0
-9728.6982 -1110.3026 11456.33 0
-9802.9111 -1126.6576 11625.084 0
-9628.7871 -1114.5004 11499.644 0
-9662.3164 -1126.3765 11622.184 0
-9593.4219 -1126.3976 11622.401 0
-9530.0049 -1127.0668 11629.307 0
-9474.6416 -1128.7053 11646.213 0
-9418.9404 -1130.3274 11662.949 0
-9377.167 -1133.6572 11697.308 0
-9322.1523 -1135.4241 11715.539 65536
-9252.3984 -1135.4088 11715.381 65536
-9187.8184 -1136.0331 11721.822 65536
-9122.8682 -1136.6207 11727.886 65536
-9065.2402 -1138.1366 11743.527 65536
-9013.8379 -1140.4639 11767.541 65536
-8947.5957 -1140.9353 11772.404 65536
-8881.5801 -1141.4431 11777.645 65536
-8815.1748 -1141.9084 11782.446 65536
-8769.1611 -1145.0442 11814.801 65536
-8683.0791 -1142.9562 11793.257 65536
-8647.8545 -1147.583 11840.997 0
-7949.0049 -1063.4994 10973.404 0
-7835.0068 -1056.9192 10905.509 0
-7806.6401 -1061.877 10956.664 0
-7744.4404 -1062.2775 10960.797 0
-7706.2256 -1066.0026 10999.232 0
-8257.1982 -1151.991 11886.479 0
-8187.4404 -1152.1158 11887.768 0
-7500.9775 -1064.7063 10985.858 0
-8029.248 -1149.6979 11862.819 65536
-7953.0225 -1148.8715 11854.292 65536
-7880.48 -1148.5671 11851.151 65536
-7819.4375 -1149.9485 11865.404 65536
-7766.1235 -1152.502 11891.752 65536
-7695.2788 -1152.4768 11891.492 0
-7625.2402 -1152.5731 11892.485 0
-7554.0068 -1152.4889 11891.616 0
-7480.2588 -1152.0157 11886.734 0
-7407.7324 -1151.7235 11883.719 0
-7334.3623 -1151.2931 11879.279 0
-7259.4727 -1150.6138 11872.269 0
-7184.2646 -1149.8699 11864.594 0
-7107.9673 -1148.9353 11854.95 0
-7035.0889 -1148.5402 11850.873 0
-6962.8545 -1148.2432 11847.809 0
-6889.9297 -1147.8252 11843.496 0
-6811.1611 -1146.415 11828.945 0
-6742.7617 -1146.7389 11832.287 0
-6668.9746 -1146.1436 11826.145 65536
-6602.8296 -1146.8629 11833.567 65536
-6534.502 -1147.2147 11837.196 65536
-6467.542 -1147.8167 11843.408 65536
-6401.8843 -1148.6658 11852.169 65536
-6336.1494 -1149.5197 11860.979 0
-6278.7173 -1151.9161 11885.706 0
-6213.0586 -1152.8405 11895.244 0
-6141.1558 -1152.6143 11892.91 0
-6061.1323 -1150.8409 11874.612 0
-5995.5176 -1151.7938 11884.444 0
-5924.248 -1151.67 11883.168 0
-5855.0635 -1151.9536 11886.094 0
-5786.6606 -1152.3998 11890.697 65536
-5726.0537 -1154.4286 11911.632 65536
-5650.7212 -1153.5024 11902.074 65536
-5586.8701 -1154.9261 11916.765 65536
-5527.0693 -1157.2345 11940.582 65536
-5442.1011 -1154.2648 11909.94 65536
-5280.1313 -1134.6696 11707.754 256
-5254.9897 -1144.3474 11807.611 4737608
-4991.3516 -1101.6483 11367.033 2172454
-5206.9478 -1165.0012 12020.722 768
-5264.2251 -1194.2019 12322.02 256
-5254.3315 -1208.7733 12472.372 256
-5207.6157 -1215.1698 12538.371 0
-5152.5132 -1219.7666 12585.802 0
-5232.2217 -1256.8829 12968.775 0
-5187.519 -1264.7762 13050.222 0
-5147.3667 -1274.0356 13145.762 0
-5055.1465 -1270.4945 13109.223 65536
-4996.5737 -1275.4312 13160.16 65536
-4893.3135 -1268.9364 13093.146 65536
-4691.8247 -1236.3477 12756.889 65536
-4535.3115 -1214.7345 12533.879 65536
-4477.0542 -1219.1556 12579.498 0
-4497.7432 -1245.5902 12852.255 0
-4760.1641 -1341.0391 13837.116 0
-5026.8447 -1441.0652 14869.206 0
-4976.5713 -1452.1827 14983.92 0
-4921.4556 -1462.2667 15087.968 0
-4852.8203 -1468.6334 15153.661 0
-4796.9883 -1479.1891 15262.576 0
-4750.9634 -1493.2339 15407.493 256
-4689.7773 -1502.9718 15507.972 256
-4632.9453 -1514.5237 15627.166 256
-4569.6606 -1524.3956 15729.026 256
-4506.2324 -1534.6309 15834.637 256
-4451.5972 -1548.3616 15976.312 256
-4396.0137 -1562.3533 16120.682 256
-4334.2031 -1574.7063 16248.144 0
-4304.1304 -1599.4161 16503.104 256
-4229.4409 -1608.3123 16594.895 256
-4158.1333 -1618.9497 16704.654 256
-4081.5464 -1628.0018 16798.057 256
-4022.5906 -1644.7169 16970.525 256
-3946.3135 -1655.0273 17076.91 256
-3872.8638 -1667.099 17201.469 256
-3798.5496 -1679.4432 17328.84 0
-3711.9087 -1686.8735 17405.508 0
-3626.2617 -1695.1948 17491.367 0
-3537.9976 -1702.7473 17569.297 0
-3452.1768 -1711.9711 17664.469 0
-3408.4092 -1743.2822 17987.543 0
-3282.3867 -1733.1884 17883.393 0
-3187.5471 -1739.4351 17947.848 0
-3089.019 -1744.032 17995.281 0
-3000.0498 -1754.5493 18103.801 0
-2907.1726 -1763.4783 18195.932 0
-2810.5637 -1770.7462 18270.924 0
-2708.8884 -1775.2781 18317.684 0
-2612.4656 -1783.7759 18405.365 0
-2516.3884 -1793.2626 18503.252 0
-2417.1841 -1801.2863 18586.041 0
-2318.5376 -1810.5135 18681.25 0
-2216.2488 -1817.6821 18755.217 0
-2111.8008 -1823.7452 18817.777 0
-2006.2946 -1829.5212 18877.377 0
-1908.7955 -1843.7161 19023.84 256
-1816.1168 -1864.6473 19239.814 256
-1716.4371 -1880.7206 19405.66 256
-1606.4893 -1887.0481 19470.949 256
-1510.8256 -1912.439 19732.938 256
-1410.2466 -1935.3582 19969.422 256
0 0 0 0
0 0 0 0
0 0 0 0
0 0 0 0
0 0 0 0
0 0 0 0
0 0 0 0
0 0 0 0
0 0 0 0
0 0 0 0
0 0 0 0
0 0 0 0
0 0 0 0
0 0 0 0
0 0 0 0
0 0 0 0
0 0 0 0
0 0 0 0
0 0 0 0
0 0 0 0
0 0 0 0
0 0 0 0
0 0 0 0
0 0 0 0
1439.9292 -1789.9735 18469.314 258
1676.7485 -1936.7222 19983.496 4213324
1352.1339 -1458.4696 15048.789 6911864
1529.5786 -1547.5056 15967.48 3753547
0 0 0 0
0 0 0 0
0 0 0 0
0 0 0 0
0 0 0 0
0 0 0 0
0 0 0 0
0 0 0 0
0 0 0 0
2998.3333 -1872.0138 19315.822 259
3172.4915 -1907.7069 19684.111 258
3289.7759 -1907.8779 19685.877 0
3360.8879 -1882.1797 19420.717 0
3454.3945 -1870.3131 19298.273 1052686
3531.6575 -1850.6969 19095.869 0
3744.2285 -1901 19614.908 0
3857.0134 -1899.1323 19595.637 65536
3983.4868 -1903.9164 19645 65536
4100.8291 -1904.1881 19647.803 592135
4188.667 -1891.124 19513.006 65536
4290.2046 -1884.7825 19447.572 0
4350.3438 -1861.0636 19202.836 0
4394.6675 -1831.9644 18902.584 263172
4506.7461 -1831.8563 18901.469 789515
4612.9424 -1829.4207 18876.338 328965
4729.9858 -1831.3004 18895.732 0
0 0 0 0
4999.5879 -1847.9308 19067.33 256
5026.1514 -1816.5735 18743.779 256
5300.1714 -1874.0739 19337.078 3750457
5007.1733 -1732.8979 17880.396 256
5483.8687 -1858.4318 19175.68 0
5600.3682 -1859.2723 19184.354 0
5940.3218 -1932.7839 19942.861 256
5759.2749 -1837.2192 18956.805 513
0 0 0 0
5844.3486 -1794.1606 18512.518 2964025
6290.1597 -1895.3389 19556.494 257
6393.9253 -1891.6508 19518.441 3358525
0 0 0 0
0 0 0 0
0 0 0 0
0 0 0 0
0 0 0 0
0 0 0 0
0 0 0 0
0 0 0 0
0 0 0 0
0 0 0 0
0 0 0 0
0 0 0 0
7703.1807 -1844.0583 19027.373 2436404
7410.8784 -1748.4169 18040.525 8
7444.0371 -1731.1927 17862.803 6
7567.9487 -1735.2618 17904.789 4
7727.1538 -1747.1985 18027.953 259
8016.0669 -1787.7362 18446.229 790801
8144.7578 -1791.9291 18489.492 256
8303.79 -1802.5972 18599.568 256
8424.4854 -1804.7719 18622.006 256
8574.1602 -1813.0181 18707.094 256
8716.373 -1819.4955 18773.928 256
8797.6074 -1813.241 18709.393 256
8871.6143 -1805.6718 18631.291 256
9008.9219 -1811.0143 18686.416 256
9204.9297 -1827.8828 18860.469 0
9437.7656 -1851.5707 19104.887 256
9537.5459 -1848.9022 19077.352 256
9467.8389 -1813.826 18715.43 460807
9812.5225 -1858.0308 19171.543 65793
9600.0039 -1796.9237 18541.027 256
9665.8799 -1788.722 18456.402 0
9883.9873 -1808.5597 18661.09 0
9957.8096 -1801.8489 18591.846 0
10056.43 -1799.7233 18569.914 0
8656.832 -1532.4297 15811.924 256
10510.798 -1840.6368 18992.068 1
9898.3965 -1714.9767 17695.48 3
10223.76 -1752.7258 18084.984 259
9943.6777 -1686.9739 17406.543 260
9615.8887 -1614.5657 16659.42 260
9717.5195 -1615.0009 16663.91 260
9662.833 -1589.7101 16402.955 132101
10137.54 -1651.1497 17036.9 790287
10152.648 -1637.2568 16893.553 6190713
8921.5928 -1424.6429 14699.759 6389380
10104.854 -1597.9438 16487.912 9482939
10607.999 -1661.3978 17142.643 9352124
10095.854 -1566.1448 16159.804 9416891
9415.4824 -1446.8364 14928.756 9350071
9305.2988 -1416.5563 14616.317 1249043
8430.0898 -1271.4524 13119.107 3
8445.3887 -1262.0865 13022.468 2
8671.3105 -1284.0807 13249.407 132107
9081.0576 -1332.6554 13750.612 5
8960.9561 -1303.3014 13447.731 261
9009.834 -1298.8259 13401.552 4
9176.9814 -1311.3286 13530.559 4
9189.8457 -1301.7598 13431.824 131845
9357.2861 -1314.0631 13558.772 66051
9387.8555 -1307.0994 13486.919 774
9284.6826 -1281.7899 13225.771 199437
9707.8164 -1328.9541 13712.421 3822421
9971.4834 -1353.6846 13967.595 9413796
9133.3457 -1229.6655 12687.941 131844
9921.6953 -1324.8661 13670.24 256
9998.1201 -1324.2274 13663.65 2
10055.175 -1321.0541 13630.907 257
10102.006 -1316.5992 13584.94 256
10133.512 -1310.2334 13519.257 256
10170.719 -1304.6991 13462.152 256
10213.051 -1299.9034 13412.67 256
11235.651 -1418.983 14641.358 256
10388.904 -1301.9614 13433.905 256
10333.941 -1285.196 13260.917 256
10365.842 -1279.4058 13201.171 256
10406.215 -1274.7402 13153.031 256
10470.655 -1273.0706 13135.804 256
10477.823 -1264.5138 13047.513 256
10558.955 -1264.9432 13051.944 256
10616.227 -1262.5292 13027.035 256
10655.076 -1257.9749 12980.043 256
10569.802 -1238.9369 12783.604 256
9815.7402 -1142.3385 11786.883 256
10620.212 -1227.2031 12662.533 256
10813.946 -1240.7971 12802.8 256
10856.25 -1236.9474 12763.077 1
10902.527 -1233.6007 12728.545 1
10956.89 -1231.2086 12703.863 1
10993.259 -1226.8412 12658.8 260
11046.814 -1224.4382 12634.005 260
11164.505 -1229.1284 12682.399 260
11235.477 -1228.6469 12677.43 260
11336.169 -1231.3999 12705.838 197638
11225.645 -1211.325 12498.7 329738
11567.986 -1240.0602 12795.195 517
14187.739 -1510.9585 15590.38 1519154
0 0 0 0
0 0 0 0
17920.664 -1871.8314 19313.941 6321020
0 0 0 0
0 0 0 0
0 0 0 0
0 0 0 0
0 0 0 0
0 0 0 0
0 0 0 0
0 0 0 0
0 0 0 0
0 0 0 0
-9952.1611 -996.41589 10952.907 0
-9898.3574 -997.55402 10965.418 0
-9793.9414 -993.57275 10921.654 0
-9446.7266 -964.74268 10604.745 0
-9512.8076 -978.0163 10750.653 0
-9686.248 -1002.5819 11020.686 0
-9731.7217 -1014.1465 11147.808 0
-11862.631 -1244.6833 13681.938 0
-9744.9561 -1029.5443 11317.064 0
-9852.501 -1048.1407 11521.482 0
-9791.5615 -1048.9481 11530.356 0
-9846.0166 -1062.2159 11676.201 0
-9765.624 -1061.0212 11663.068 0
-9728.6416 -1064.5594 11701.962 0
-9664.7432 -1065.1821 11708.807 0
-9596.0508 -1065.2817 11709.901 0
-9542.3623 -1067.0607 11729.455 0
-9488.7734 -1068.8768 11749.419 0
-9446.5957 -1072.0149 11783.914 0
-9395.5156 -1074.1823 11807.738 65536
-9324.8975 -1074.1315 11807.18 65536
-9261.001 -1074.8601 11815.188 65536
-9194.8438 -1075.3354 11820.414 65536
-9128.291 -1075.7715 11825.207 65536
-9084.1348 -1078.8741 11859.312 65536
-9018.6191 -1079.4689 11865.851 65536
-8951.666 -1079.8994 11870.584 65536
-8883.5088 -1080.1906 11873.783 65536
-8835.5996 -1082.968 11904.314 65536
-8785.4297 -1085.5111 11932.269 65536
-8615.3682 -1073.1613 11796.516 0
-8622.0488 -1082.8053 11902.525 0
-7942.6035 -1005.7284 11055.272 0
-7861.7578 -1003.7952 11034.022 0
-7815.1851 -1006.2423 11060.922 0
-7758.9932 -1007.4819 11074.548 0
-8306.0068 -1087.7374 11956.741 0
-8253.8965 -1090.2407 11984.258 0
-7577.7871 -1009.6475 11098.353 0
-8096.4932 -1088.2313 11962.171 65536
-8020.9097 -1087.6227 11955.48 65536
-7948.7573 -1087.4727 11953.831 65536
-7878.2065 -1087.5411 11954.583 65536
-7841.0889 -1092.2678 12006.541 65536
-7769.2705 -1092.2032 12005.831 0
-7697.6182 -1092.1611 12005.367 0
-7625.7988 -1092.0941 12004.632 0
-7552.9648 -1091.8793 12002.27 0
-7480.5786 -1091.7257 12000.581 0
-7407.2495 -1091.4301 11997.332 0
-7332.1768 -1090.8696 11991.17 0
-7257.5854 -1090.3701 11985.681 0
-7183.0161 -1089.8643 11980.119 0
-7110.2871 -1089.6302 11977.548 0
-7037.7842 -1089.4264 11975.308 0
-6965.1582 -1089.1993 11972.811 0
-6888.6792 -1088.3588 11963.571 0
-6812.8081 -1087.5977 11955.205 0
-6725.5903 -1084.99 11926.541 65536
-6655.2114 -1085.0723 11927.445 65536
-6593.041 -1086.509 11943.238 65536
-6536.3311 -1088.8868 11969.375 65536
-6468.3286 -1089.415 11975.182 65536
-6402.6548 -1090.3513 11985.474 0
-6338.1367 -1091.5079 11998.188 0
-6266.7964 -1091.5027 11998.129 0
-6201.9478 -1092.6406 12010.639 0
-6135.5254 -1093.5249 12020.358 0
-6079.4419 -1096.2943 12050.801 0
-6006.0586 -1095.9729 12047.269 0
-5942.2036 -1097.4034 12062.993 0
-5877.2944 -1098.6719 12076.936 65536
-5828.5112 -1103.0234 12124.77 65536
-5773.4517 -1106.2814 12160.581 65536
-5733.3438 -1112.5231 12229.192 65536
-5675.6719 -1115.4731 12261.62 131072
-5568.5703 -1108.6588 12186.716 65536
-5394.7085 -1088.1984 11961.809 0
-5283.5874 -1080.0164 11871.869 256
-5443.4448 -1127.7532 12396.605 256
-5678.8872 -1192.6742 13110.237 256
-5462.2935 -1163.1447 12785.64 256
-5557.3145 -1200.0734 13191.571 256
-5501.311 -1204.9796 13245.502 0
-5527.6318 -1228.3217 13502.086 0
-5456.1108 -1230.2893 13523.715 0
-5439.5444 -1244.8928 13684.241 0
-5382.8643 -1250.6199 13747.194 0
-5339.0703 -1259.5635 13845.505 65536
-5294.5669 -1268.6171 13945.025 65536
-5229.2329 -1272.8882 13991.975 65536
-5079.6309 -1256.4534 13811.318 65536
-4961.0049 -1247.2666 13710.335 65536
-5048.1929 -1290.3816 14184.268 0
-4885.8916 -1270.1055 13961.386 0
-5089.3696 -1345.8571 14794.07 0
-5039.2368 -1356.0269 14905.86 0
-4989.7153 -1366.7284 15023.494 0
-4935.895 -1376.6207 15132.234 0
-4871.7188 -1383.9386 15212.675 0
-4821.7812 -1395.6544 15341.458 0
-4765.6475 -1405.9939 15455.113 256
-4708.7827 -1416.5199 15570.818 256
-4652.6421 -1427.6901 15693.604 256
-4587.2373 -1436.4165 15789.527 256
-4517.5366 -1444.1339 15874.359 256
-4456.8115 -1455.1111 15995.024 256
-4399.4473 -1467.688 16133.272 256
-4335.2017 -1478.4785 16251.887 0
-4277.9868 -1492.2131 16402.861 256
-4215.1738 -1504.5902 16538.914 0
-4155.2417 -1518.6112 16693.037 0
-4075.7654 -1526.0006 16774.264 0
-4012.8621 -1540.1213 16929.482 0
-3940.5989 -1551.2836 17052.182 256
-3859.4358 -1559.439 17141.828 256
-3780.8738 -1569.1162 17248.203 0
-3709.8782 -1582.5604 17395.986 0
-3626.9827 -1591.5538 17494.844 0
-3539.1355 -1598.8409 17574.947 0
-3449.936 -1605.9421 17653.004 0
-3369.9412 -1617.9076 17784.533 0
-3286.3376 -1628.8593 17904.918 0
-3210.7131 -1644.6312 18078.287 0
-3090.1025 -1637.6542 18001.594 0
-2998.8413 -1646.2889 18096.508 0
-2904.8494 -1654.0107 18181.391 0
-2814.6174 -1664.5533 18297.277 0
-2713.1855 -1669.0533 18346.742 0
-2615.6509 -1676.428 18427.807 0
-2520.5498 -1686.0751 18533.852 0
-2423.2314 -1695.0531 18632.539 0
-2321.53 -1701.6781 18705.363 0
-2219.3127 -1708.5721 18781.146 0
-2116.3135 -1715.5629 18857.988 0
-2014.1687 -1724.0669 18951.467 0
-1917.8483 -1738.8588 19114.064 256
-1818.5856 -1752.6777 19265.967 256
-1715.5757 -1764.5 19395.922 256
-1607.2393 -1772.1522 19480.037 256
-1520.385 -1806.5177 19857.793 256
0 0 0 0
0 0 0 0
0 0 0 0
0 0 0 0
0 0 0 0
0 0 0 0
0 0 0 0
0 0 0 0
0 0 0 0
0 0 0 0
0 0 0 0
0 0 0 0
0 0 0 0
0 0 0 0
0 0 0 0
0 0 0 0
0 0 0 0
0 0 0 0
0 0 0 0
0 0 0 0
0 0 0 0
0 0 0 0
0 0 0 0
0 0 0 0
0 0 0 0
0 0 0 0
1556.4987 -1687.5768 18550.357 2502448
1618.8451 -1639.0732 18017.193 4410959
1780.5081 -1690.9072 18586.967 7897990
1875.9674 -1677.4858 18439.436 527118
2044.0291 -1726.8837 18982.43 2
2158.3796 -1728.11 18995.91 4213067
2262.4595 -1721.3994 18922.146 258
0 0 0 0
2437.7295 -1687.038 18544.436 3
2588.0593 -1713.598 18836.391 261
2735.6519 -1736.2183 19085.039 197894
2934.342 -1788.176 19656.176 2237992
3076.7344 -1803.1613 19820.896 258
3167.4243 -1787.8575 19652.674 1
3285.342 -1788.4645 19659.346 0
3366.7588 -1769.8422 19454.643 0
3483.3513 -1770.3334 19460.043 0
3638.1272 -1789.5753 19671.557 0
3744.1646 -1784.3912 19614.572 0
3852.2642 -1780.4736 19571.508 65536
3958.9683 -1776.1593 19524.084 65536
4124.7051 -1797.8213 19762.199 2302496
4171.8628 -1768.0299 19434.723 65536
4245.2183 -1750.6473 19243.648 0
4332.6455 -1739.8276 19124.715 1447448
4362.0947 -1706.8743 18762.48 0
4737.5098 -1807.5647 19869.301 9541013
4684.8408 -1743.9973 19170.549 1052944
4687.8423 -1703.6804 18727.373 0
4811.084 -1707.9185 18773.959 0
4993.5708 -1732.5195 19044.383 0
5102.1509 -1730.9565 19027.201 0
5154.8867 -1710.9263 18807.023 256
5220.5132 -1695.9341 18642.223 394758
5482.8662 -1744.1451 19172.174 256
5615.3545 -1749.9233 19235.689 0
5735.1382 -1751.5907 19254.018 256
5768.647 -1727.3588 18987.652 256
5970.8804 -1753.6099 19276.215 512
6105.5869 -1759.4142 19340.016 770
6220.5171 -1759.41 19339.971 2701626
6037.6909 -1676.7168 18430.98 923674
6557.1719 -1788.5315 19660.084 5334375
0 0 0 0
0 0 0 0
0 0 0 0
0 0 0 0
0 0 0 0
0 0 0 0
0 0 0 0
0 0 0 0
0 0 0 0
0 0 0 0
0 0 0 0
7197.8994 -1617.4312 17779.295 461323
7376.4829 -1633.5787 17956.795 2304556
7486.3271 -1634.2599 17964.283 263430
7742.7349 -1666.4668 18318.311 3
7780.189 -1651.3088 18151.689 3
7971.4146 -1668.7562 18343.477 3
8235.2871 -1700.7357 18695.004 2
8362.7051 -1704.0586 18731.531 258
8501.9023 -1709.6628 18793.135 256
8665.5732 -1719.9795 18906.539 256
8797.4863 -1723.8091 18948.635 256
8902.9941 -1722.4336 18933.514 256
8982.2266 -1716.0721 18863.588 256
9099.5889 -1717.0627 18874.477 256
9296.9775 -1732.946 19049.07 0
9411.4248 -1733.173 19051.564 256
9457.7676 -1721.0016 18917.773 256
9296.9199 -1671.8577 18377.568 256
9643.6885 -1714.0789 18841.678 256
9618.9375 -1690.0548 18577.596 256
9769.8789 -1697.0948 18654.982 0
9927.5898 -1705.1398 18743.414 0
9947.8125 -1689.6532 18573.182 0
9973.2402 -1675.381 18416.299 0
10029.852 -1666.6005 18319.779 256
10089.658 -1658.5337 18231.107 1
10055.066 -1635.2861 17975.562 1
10013.108 -1611.3418 17712.359 1
9962.1406 -1586.4609 17438.861 257
9994.2793 -1575.1907 17314.977 771
9359.9375 -1460.1776 16050.717 772
10494.905 -1620.7179 17815.424 4546400
9453.415 -1445.2997 15887.175 8495008
9677.4131 -1464.9143 16102.783 9022126
11021.459 -1652.0309 18159.627 9351350
11232.299 -1667.307 18327.545 9219250
10486.928 -1541.7141 16946.99 8891058
10019.969 -1459.0515 16038.339 8824237
9586.8447 -1382.8274 15200.46 8362918
9622.791 -1375.0546 15115.018 5926521
8367.5547 -1184.6276 13021.787 988184
8775.9883 -1231.0649 13532.24 7
8824.6221 -1226.6456 13483.662 6
8811.2881 -1213.7697 13342.126 65798
9122.5117 -1245.433 13690.178 5
9145.1855 -1237.4911 13602.878 4
9246.0439 -1240.1752 13632.384 4
9317.9873 -1238.968 13619.114 4
9414.1592 -1240.9755 13641.181 4
9398.1094 -1228.282 13501.649 4
9289.5869 -1203.8199 13232.756 260
9354.9512 -1202.1132 13213.994 4
9330.7852 -1189.026 13070.135 2
9360.8652 -1183.0103 13004.009 3
9931.8027 -1244.886 13684.166 258
10008.993 -1244.3715 13678.51 256
10058.935 -1240.5046 13636.005 256
10108.007 -1236.5933 13593.01 256
10146.616 -1231.4741 13536.739 256
10189.413 -1226.9398 13486.896 256
10249.921 -1224.5923 13461.091 256
11035.581 -1308.2465 14380.644 256
10319.851 -1213.9958 13344.611 256
10339.612 -1207.0439 13268.194 0
10368.348 -1201.2371 13204.363 0
10426.061 -1198.8492 13178.116 0
10482.614 -1196.3649 13150.807 256
10534.639 -1193.4042 13118.262 256
10584.289 -1190.22 13083.261 256
10615.387 -1185.0112 13026.004 256
10675.253 -1183.0662 13004.623 256
10601.871 -1166.488 12822.392 256
9970.0811 -1089.1454 11972.217 256
10818.242 -1173.425 12898.646 256
10853.7 -1168.9873 12849.864 256
10901.642 -1165.9468 12816.442 256
10956.049 -1163.635 12791.031 2
11037.073 -1164.1627 12796.831 2
11093.598 -1162.1167 12774.341 260
11144.976 -1159.5631 12746.271 260
11237.236 -1161.2687 12765.019 516
11339.067 -1163.9338 12794.315 517
11022.438 -1123.8955 12354.202 528657
11498.28 -1164.6561 12802.255 8823199
13454.805 -1353.8727 14882.181 8554894
14190.124 -1418.538 15593.001 1581861
13999.011 -1390.3528 15283.181 3689809
14129.72 -1394.2876 15326.435 5992309
16704.535 -1637.8059 18003.262 3097931
17124.752 -1668.3199 18338.682 2702403
18182.68 -1760.1821 19348.457 3621706
0 0 0 0
0 0 0 0
0 0 0 0
0 0 0 0
0 0 0 0
0 0 0 0
0 0 0 0
0 0 0 0
-9605.124 -898.84344 10570.974 0
-9933.6943 -935.71143 11004.564 0
-9828.4375 -931.93243 10960.122 0
-9494.5742 -906.28217 10658.458 0
-9525.8154 -915.37152 10765.354 0
-9728.5 -941.1698 11068.759 0
-9764.4287 -951.0769 11185.272 0
-11565.832 -1134.2599 13339.622 0
-9774.8057 -965.23059 11351.729 0
-9897.2891 -984.11798 11573.856 0
-9836.1426 -984.88312 11582.855 0
-9795.3486 -987.71118 11616.115 0
-9819.4854 -997.1731 11727.394 0
-9777.1348 -999.9704 11760.291 0
-9713.4258 -1000.6077 11767.786 0
-9649.5586 -1001.2378 11775.197 0
-9591.1309 -1002.4456 11789.401 0
-9537.9521 -1004.2239 11810.314 0
-9495.8096 -1007.1992 11845.306 0
-9444.8574 -1009.2775 11869.748 0
-9374.8359 -1009.3339 11870.412 0
-9309.2471 -1009.872 11876.74 65536
-9243.0527 -1010.3523 11882.389 65536
-9176.958 -1010.8509 11888.253 65536
-9125.96 -1013.033 11913.916 65536
-9069.793 -1014.671 11933.18 65536
-9005.3457 -1015.4012 11941.767 65536
-8937.5615 -1015.7638 11946.031 65536
-8884.4375 -1017.8116 11970.114 65536
-8833.6143 -1020.1581 11997.712 65536
-8756.4326 -1019.4741 11989.667 0
-8709.2373 -1022.2986 12022.886 0
-7994.7715 -946.19714 11127.884 0
-7926.1079 -945.89569 11124.338 0
-7896.1021 -950.24121 11175.444 0
-7821.4272 -949.23932 11163.661 0
-7766.269 -950.60913 11179.771 0
-8306.792 -1025.5446 12061.061 0
-7855.5024 -978.27106 11505.093 0
-8142.6865 -1022.9392 12030.419 65536
-8079.8086 -1024.0321 12043.272 65536
-8001.3135 -1023.1475 12032.868 65536
-7931.189 -1023.3269 12034.979 65536
-7878.0498 -1025.7212 12063.138 65536
-7824.5571 -1028.1129 12091.265 0
-7751.7153 -1027.983 12089.738 0
-7679.5259 -1027.9381 12089.209 0
-7604.8911 -1027.5618 12084.784 0
-7526.9009 -1026.7207 12074.893 0
-7446.647 -1025.5516 12061.144 0
-7368.4224 -1024.6421 12050.446 0
-7291.4844 -1023.8953 12041.663 0
-7215.2231 -1023.2297 12033.835 0
-7141.0093 -1022.844 12029.3 0
-7066.1318 -1022.3546 12023.544 0
-6993.2295 -1022.1437 12021.063 0
-6922.9595 -1022.3174 12023.105 0
-6831.3208 -1019.3062 11987.691 0
-6759.0615 -1019.1534 11985.896 65536
-6689.811 -1019.4561 11989.455 65536
-6635.2988 -1022.0353 12019.789 65536
-6576.2168 -1023.9591 12042.414 65536
-6516.958 -1025.8976 12065.211 65536
-6453.6626 -1027.2366 12080.959 0
-6409.5908 -1031.6998 12133.45 0
-6344.0112 -1032.7635 12145.96 0
-6252.5498 -1029.5898 12108.634 0
-6208.4131 -1034.2258 12163.156 0
-6144.4419 -1035.6278 12179.646 0
-6082.7949 -1037.4598 12201.19 0
-6010.4102 -1037.4823 12201.456 0
-5947.334 -1039.132 12220.856 65536
-5891.4971 -1042.1029 12255.796 65536
-5846.4058 -1047.0726 12314.244 65536
-5819.4795 -1055.4629 12412.919 65536
-5769.6641 -1059.8641 12464.68 65536
-5693.0952 -1059.4012 12459.236 65536
-5565.3599 -1049.2795 12340.198 0
-5388.0903 -1029.4237 12106.681 0
-5681.7183 -1100.2155 12939.237 256
-5668.3926 -1112.6954 13086.009 256
-5638.875 -1122.3 13198.966 256
-5596.6523 -1129.6112 13284.949 256
-5556.0874 -1137.4709 13377.386 256
-5513.0547 -1145.0465 13466.479 0
-5491.5132 -1157.3746 13611.466 0
-5442.3599 -1164.1649 13691.324 0
-5406.479 -1174.0437 13807.505 0
-5371.4497 -1184.4146 13929.473 65536
-5329.3438 -1193.5254 14036.621 65536
-5284.6206 -1202.3304 14140.176 65536
-5240.9858 -1211.6719 14250.036 65536
-5183.7788 -1218.1307 14325.997 65536
-5125.27 -1224.4943 14400.836 0
-5090.854 -1236.928 14547.063 0
-5052.7056 -1248.8685 14687.493 0
-5040.6187 -1267.7838 14909.948 0
-4998.1055 -1279.5865 15048.756 0
-4943.646 -1288.7053 15155.998 0
-4884.8721 -1297.0168 15253.747 0
-4833.1807 -1307.559 15377.729 0
-4779.3633 -1317.921 15499.594 256
-4719.9688 -1327.1223 15607.807 256
-4666.6084 -1338.4233 15740.714 256
-4599.5317 -1346.1721 15831.845 256
-4528.9585 -1353.1998 15914.495 256
-4459.7524 -1360.9447 16005.58 256
-4397.2803 -1371.1267 16125.327 256
-4335.7192 -1382.0529 16253.826 0
-4269.7998 -1392.0563 16371.472 0
-4206.8193 -1403.5066 16506.135 0
-4136.4746 -1412.9882 16617.645 256
-4065.167 -1422.5966 16730.645 0
-4007.8564 -1437.7079 16908.363 0
-3993.5969 -1469.437 17281.52 0
-3865.0188 -1459.6677 17166.625 0
-3781.9124 -1467.0071 17252.941 0
-3701.9016 -1475.9897 17358.584 0
-3625.2034 -1486.8462 17486.262 0
-3531.1455 -1491.0133 17535.27 0
-3442.3003 -1497.7018 17613.932 0
-3351.6494 -1503.9999 17688 0
-3284.6465 -1521.6608 17895.703 0
-3204.155 -1534.0459 18041.361 0
-3090.6721 -1530.9467 18004.912 0
-2997.9351 -1538.27 18091.039 0
-2902.6243 -1544.7683 18167.463 0
-2813.1733 -1555.0081 18287.889 0
-2715.1138 -1561.121 18359.781 0
-2614.2764 -1566.0818 18418.123 0
-2521.1785 -1576.3151 18538.473 0
-2421.5859 -1583.2377 18619.887 0
-2323.0518 -1591.5481 18717.623 0
-2221.9312 -1598.8335 18803.305 0
-2116.5369 -1603.6526 18859.98 0
-2012.3484 -1609.9752 18934.338 0
-1907.7332 -1616.6853 19013.252 256
-1804.3824 -1625.3793 19115.5 256
-1698.672 -1632.9736 19204.812 256
-1600.1577 -1649.0778 19394.209 256
-1490.657 -1655.4808 19469.514 256
-1397.0842 -1682.1399 19783.041 256
-1280.3823 -1683.291 19796.578 256
-1168.2263 -1691.2561 19890.252 0
-1050.6941 -1692.3552 19903.18 0
0 0 0 0
0 0 0 0
0 0 0 0
0 0 0 0
-441.00134 -1625.1549 19112.861 0
0 0 0 0
-214.77113 -1632.4399 19198.537 256
0 0 0 0
0 0 0 0
0 0 0 0
0 0 0 0
0 0 0 0
0 0 0 0
0 0 0 0
0 0 0 0
0 0 0 0
0 0 0 0
0 0 0 0
0 0 0 0
0 0 0 0
0 0 0 0
0 0 0 0
1519.3866 -1539.7168 18108.055 4805202
1653.788 -1565.0592 18406.096 3752771
1785.4733 -1584.8458 18638.801 199180
1971.9816 -1648.1406 19383.188 592653
2098.0073 -1656.6882 19483.713 4
2189.7712 -1638.7023 19272.186 2
2259.5015 -1606.8351 18897.408 1
2371.9216 -1606.9072 18898.256 2
2521.2803 -1630.8661 19180.027 2
2600.1079 -1609.1033 18924.082 2
2766.469 -1641.0701 19300.033 2960944
2856.2874 -1626.894 19133.314 460809
0 0 0 0
3169.0007 -1671.8865 19662.455 0
3283.0127 -1670.4371 19645.408 262914
3395.5579 -1668.3663 19621.055 0
3539.3303 -1681.2667 19772.773 0
3633.9673 -1670.748 19649.064 131329
3732.5767 -1662.6533 19553.867 0
3848.7415 -1662.6316 19553.611 65536
3923.4224 -1645.2153 19348.785 131072
4038.5791 -1645.2808 19349.553 65536
4166.4155 -1650.3649 19409.348 65536
4238.2686 -1633.5969 19212.145 0
4201.146 -1576.8073 18544.262 1907995
4365.0757 -1596.4526 18775.305 256
4444.9663 -1585.1488 18642.363 1579544
4780.9839 -1663.5123 19563.969 263429
4656.9839 -1581.8951 18604.098 256
4646.9917 -1541.8918 18133.635 789773
4766.4736 -1545.6884 18178.283 66049
5095.7539 -1615.8428 19003.346 0
5218.4346 -1618.8635 19038.871 0
5214.6333 -1583.3514 18621.227 0
5473.9048 -1627.5339 19140.84 65536
5581.7939 -1625.8237 19120.727 0
5715.2231 -1631.4723 19187.158 0
5754.0498 -1610.4231 18939.605 0
5895.5454 -1618.3649 19033.006 256
6002.9834 -1616.8346 19015.008 256
6247.2432 -1651.5311 19423.062 923672
6053.0332 -1571.1572 18477.814 516
6608.6978 -1684.821 19814.572 2177078
0 0 0 0
0 0 0 0
0 0 0 0
0 0 0 0
0 0 0 0
0 0 0 0
0 0 0 0
0 0 0 0
0 0 0 0
0 0 0 0
0 0 0 0
7784.6108 -1634.9885 19228.512 4937049
7560.708 -1564.988 18405.26 3
7319.8198 -1493.5183 17564.73 3
7787.5083 -1566.6018 18424.24 259
7926.9683 -1572.545 18494.135 259
8103.0107 -1585.4835 18646.299 2
8278.4297 -1597.9524 18792.941 257
8406.1084 -1600.9969 18828.748 257
8565.1836 -1609.8627 18933.016 256
8713.6885 -1616.5376 19011.516 256
8845.2041 -1619.9299 19051.412 256
8981.7783 -1624.1514 19101.059 256
9056.8594 -1617.2865 19020.324 256
9195.2803 -1621.7622 19072.961 256
9384.6445 -1635.0042 19228.695 0
9493.0557 -1633.9937 19216.811 256
9571.6719 -1627.9397 19145.611 256
9609.6924 -1615.2042 18995.836 256
9675.4316 -1607.3699 18903.697 256
9671.4355 -1588.2629 18678.988 256
9823.5039 -1594.9282 18757.375 256
9959.1436 -1598.8064 18802.986 256
10016.444 -1590.1617 18701.32 256
10034.532 -1575.5503 18529.479 256
10056.829 -1561.9095 18369.055 256
10094.51 -1550.9253 18239.873 1
10089.066 -1533.6194 18036.344 2
10034.245 -1509.2502 17749.748 2
10033.756 -1493.4753 17564.225 514
9825.3145 -1447.3914 17022.248 1286
10616.801 -1548.0472 18206.025 6915720
10387.757 -1499.3688 17633.535 4084562
9543.8564 -1363.8009 16039.17 2572609
9647.7969 -1365.0195 16053.503 9547698
11084.57 -1552.944 18263.613 7244690
11379.326 -1578.7788 18567.447 5205363
11182.924 -1536.6278 18071.727 5863039
9822.6973 -1336.8813 15722.579 8297123
9326.7021 -1257.4137 14787.989 6189437
8808.332 -1176.4415 13835.705 2766914
8401.5146 -1111.7284 13074.637 1648173
8831.8496 -1157.9623 13618.377 5265762
8830.9844 -1147.3341 13493.383 5
9048.4336 -1165.0057 13701.213 460812
9170.3945 -1170.1776 13762.037 4
9278.5098 -1173.5067 13801.189 4
9364.5264 -1174.0072 13807.075 197639
9423.043 -1171.0812 13772.664 4
9522.6611 -1173.2697 13798.401 260
9588.2227 -1171.2605 13774.773 4
9628.7236 -1166.2501 13715.847 4
9669.4209 -1161.3473 13658.187 4
9736.5889 -1159.679 13638.565 2
9876.4062 -1166.6196 13720.192 258
9948.2637 -1165.4849 13706.847 258
10040.409 -1166.726 13721.443 256
10077.525 -1161.6041 13661.207 256
10132.984 -1158.6615 13626.601 256
10196.696 -1156.7017 13603.552 256
10250.11 -1153.6139 13567.236 0
10333.717 -1153.9457 13571.14 0
11684.317 -1294.6594 15226.022 0
10390.585 -1142.4615 13436.078 256
10407.029 -1135.5426 13354.707 256
10436.916 -1130.184 13291.686 256
10479.964 -1126.3204 13246.248 1
10499.612 -1120.0182 13172.131 197380
10553.925 -1117.4799 13142.277 131588
10590.406 -1113.1046 13090.822 1
10632.403 -1109.3687 13046.885 0
10681.695 -1106.4424 13012.47 0
10744.851 -1104.9839 12995.317 0
10741.968 -1096.8035 12899.109 0
10858.365 -1100.8318 12946.485 0
10934.312 -1100.7312 12945.302 1
10959.775 -1095.5856 12884.786 0
11017.247 -1093.6887 12862.479 256
11096.748 -1093.9899 12866.021 256
11155.51 -1092.2563 12845.633 2
11241.481 -1093.1923 12856.641 257
11363.664 -1097.6134 12908.636 772
11366.167 -1090.4929 12824.894 1285
10113.928 -963.8866 11335.922 3622214
11543.956 -1092.8922 12853.11 3555139
11747.53 -1104.8538 12993.787 66308
13677.438 -1277.9603 15029.63 6
13949.788 -1294.9502 15229.442 5
14325.436 -1321.2485 15538.727 774
14695.971 -1346.7412 15838.537 3489861
17199.721 -1566.1533 18418.965 3950928
0 0 0 0
0 0 0 0
0 0 0 0
0 0 0 0
0 0 0 0
0 0 0 0
0 0 0 0
0 0 0 0
0 0 0 0
-9662.3359 -840.99609 10633.938 0
-9961.5791 -872.75049 11035.455 0
-9949.2461 -877.44714 11094.842 0
-9545.9521 -847.49664 10716.134 0
-9589.1484 -857.04987 10836.929 0
-9770.4805 -879.16174 11116.522 0
-9811.584 -888.87097 11239.29 0
-12026.84 -1097.0287 13871.331 0
-9831.8955 -903.00677 11418.029 0
-9869.2021 -912.73297 11541.012 0
-9897.9785 -921.80103 11655.672 0
-9835.2314 -922.41309 11663.411 0
-9883.7354 -933.54181 11804.128 0
-9827.6621 -934.88147 11821.067 0
-9773.3564 -936.40967 11840.391 0
-9709.5381 -937.04224 11848.389 0
-9648.5244 -937.95648 11859.949 0
-9600.1689 -940.12384 11887.354 0
-9534.4619 -940.61157 11893.521 0
-9497.3525 -943.94897 11935.721 0
-9444.3896 -945.74896 11958.48 65536
-9374.4971 -945.8681 11959.987 65536
-9307.4658 -946.27985 11965.194 65536
-9239.4824 -946.60052 11969.249 65536
-9172.5361 -947.03326 11974.721 65536
-9139.4883 -951.00012 12024.879 65536
-9075.4873 -951.78314 12034.779 65536
-9008.0859 -952.21924 12040.294 65536
-8951.1348 -953.77582 12059.977 65536
-8900.668 -956.05408 12088.783 65536
-8836.0234 -956.83417 12098.646 0
-8785.7588 -959.1969 12128.522 0
-8641.5117 -951.25323 12028.079 0
-8174.2754 -907.32587 11472.643 0
-7983.6255 -893.61829 11299.317 0
-7894.4062 -891.12775 11267.826 0
-7834.1738 -891.89471 11277.523 0
-8355.4854 -959.45294 12131.76 0
-8232.1191 -953.51514 12056.681 0
-8192.5928 -957.26959 12104.152 65536
-8141.3862 -959.71362 12135.056 65536
-8068.709 -959.64758 12134.222 65536
-8000.4971 -960.11633 12140.148 65536
-7934.9087 -960.91138 12150.201 65536
-7884.4019 -963.56403 12183.743 0
-7805.9126 -962.81451 12174.266 0
-7723.3345 -961.54181 12158.173 0
-7640.4624 -960.20819 12141.311 0
-7561.6479 -959.36395 12130.635 0
-7486.7017 -958.99884 12126.019 0
-7410.2344 -958.42999 12118.826 0
-7334.4121 -957.93433 12112.558 0
-7260.0693 -957.62378 12108.632 0
-7184.0488 -957.08368 12101.802 0
-7110.0859 -956.80933 12098.334 0
-7036.2676 -956.54926 12095.045 0
-6971.7217 -957.55725 12107.791 0
-6898.9834 -957.44946 12106.427 0
-6809.3311 -954.9671 12075.039 65536
-6740.5146 -955.38525 12080.326 65536
-6676.814 -956.54517 12094.993 65536
-6621.6528 -958.96716 12125.617 65536
-6568.5854 -961.7489 12160.792 65536
-6514.5488 -964.44916 12194.935 0
-6459.7324 -967.09338 12228.369 0
-6409.2075 -970.44757 12270.781 0
-6351.459 -972.77271 12300.182 0
-6275.6411 -972.35223 12294.864 0
-6209.1738 -973.38776 12307.958 0
-6145.9634 -974.9646 12327.896 0
-6090.4204 -977.81042 12363.881 0
-6017.5669 -977.91266 12365.174 65536
-5969.856 -982.15393 12418.802 65536
-5911.9067 -984.7959 12452.208 65536
-5889.4795 -993.49707 12562.229 65536
-5857.4756 -1000.7853 12654.386 65536
-5805.9517 -1004.8848 12706.221 0
-5758.8833 -1009.8736 12769.302 0
-5730.6665 -1018.3456 12876.426 0
-5699.7925 -1026.5684 12980.398 256
-5670.2896 -1035.2671 13090.389 256
-5642.6094 -1044.5453 13207.706 256
-5600.9468 -1051.4603 13295.144 0
-5557.5542 -1058.2439 13380.918 0
-5504.0029 -1063.2618 13444.368 0
-5473.7168 -1072.9884 13567.355 0
-5442.085 -1082.738 13690.633 0
-5398.0679 -1090.2821 13786.023 0
-5370.2358 -1101.3779 13926.325 65536
-5327.6353 -1109.7451 14032.122 65536
-5295.0454 -1120.4967 14168.07 65536
-5251.9893 -1129.3451 14279.954 65536
-5202.4839 -1137.0747 14377.69 65536
-5178.71 -1150.7804 14550.991 0
-5121.627 -1157.4241 14634.997 0
-5095.6885 -1171.4572 14812.438 0
-5053.1807 -1182.1077 14947.107 0
-5003.8647 -1191.5179 15066.097 0
-4951.3574 -1200.4977 15179.64 0
-4902.1562 -1210.6271 15307.721 0
-4859.9468 -1222.8988 15462.89 0
-4787.1763 -1227.8054 15524.932 256
-4718.2988 -1233.9231 15602.286 256
-4659.0645 -1242.8584 15715.268 256
-4601.8789 -1252.7169 15839.923 256
-4534.0869 -1260.0397 15932.516 256
-4470.0464 -1268.7397 16042.523 0
-4404.5444 -1277.395 16151.965 0
-4334.9155 -1285.2125 16250.812 0
-4273.9297 -1296.0073 16387.307 0
-4211.2334 -1306.7748 16523.455 0
-4136.374 -1314.1917 16617.238 0
-4058.8613 -1321.1082 16704.693 0
-4053.8174 -1352.5504 17102.264 0
-3875.8977 -1326.4469 16772.199 0
-3918.2661 -1376.3444 17403.125 0
-3828.4658 -1381.2628 17465.316 0
-3742.9626 -1388.0488 17551.123 0
-3619.2686 -1380.6553 17457.635 0
-3534.5645 -1388.1378 17552.248 0
-3449.342 -1395.866 17649.965 0
-3355.6838 -1400.5577 17709.291 0
-3281.5325 -1413.9587 17878.738 0
-3188.9548 -1420.0513 17955.775 0
-3098.3215 -1427.4615 18049.475 0
-3000.0017 -1431.735 18103.51 0
-2904.1943 -1437.5701 18177.291 0
-2814.8828 -1447.1957 18299.002 0
-2725.2539 -1457.4253 18428.35 0
-2621.7722 -1460.793 18470.932 0
-2525.3728 -1468.5737 18569.314 0
-2424.8259 -1474.5435 18644.799 0
-2323.7698 -1480.7604 18723.408 0
-2224.3853 -1488.7214 18824.072 0
-2117.9236 -1492.5385 18872.336 0
-2015.5237 -1499.8048 18964.215 0
-1910.8881 -1506.1696 19044.695 256
-1807.6052 -1514.4695 19149.643 256
-1705.7759 -1525.1844 19285.127 256
-1596.3607 -1530.1716 19348.188 256
-1497.3069 -1546.6359 19556.369 256
-1385.4088 -1551.4875 19617.715 0
-1277.4147 -1562.0043 19750.693 0
0 0 0 0
0 0 0 0
0 0 0 0
0 0 0 0
-656.68481 -1485.5338 18783.768 256
-542.90509 -1479.6978 18709.973 329478
-438.43771 -1502.7737 19001.756 256
0 0 0 0
0 0 0 0
0 0 0 0
13.403533 -1514.6755 19152.248 3619385
127.48095 -1517.6399 19189.73 658956
0 0 0 0
0 0 0 0
0 0 0 0
0 0 0 0
0 0 0 0
0 0 0 0
0 0 0 0
0 0 0 0
0 0 0 0
0 0 0 0
0 0 0 0
0 0 0 0
1617.7979 -1524.8517 19280.92 7965576
0 0 0 0
0 0 0 0
0 0 0 0
2112.981 -1551.8875 19622.771 394761
2191.7461 -1525.5355 19289.566 328967
2293.6467 -1517.1062 19182.982 2
2439.459 -1537.1447 19436.357 2
2553.0083 -1535.9611 19421.391 2
2610.4531 -1502.5856 18999.377 1
2763.9827 -1524.9916 19282.688 3882302
2898.9636 -1535.7867 19419.188 197638
3072.0376 -1565.1633 19790.639 257
3180.0142 -1560.4301 19730.789 1
3177.9277 -1503.9463 19016.582 1447959
3260.4536 -1490.0096 18840.361 0
3453.073 -1525.6403 19290.891 0
3480.8618 -1488.4954 18821.215 394756
3682.3508 -1525.6292 19290.75 0
3841.1255 -1543.3577 19514.918 65536
3975.5918 -1550.5662 19606.064 131329
4083.0181 -1547.1183 19562.469 65536
4185.3701 -1541.9917 19497.646 65536
4237.6895 -1519.205 19209.52 0
4244.6748 -1481.788 18736.402 1184272
4376.1421 -1488.6289 18822.902 0
4487.8779 -1488.584 18822.334 0
4594.3291 -1486.8313 18800.172 0
4674.4253 -1476.835 18673.773 0
4775.1494 -1473.6686 18633.736 0
4837.4028 -1459.042 18448.793 256
4999.9683 -1474.6492 18646.137 0
4976.3271 -1435.8522 18155.568 789772
5039.793 -1423.302 17996.879 460807
5366.4624 -1484.0608 18765.141 921102
5497.063 -1489.2279 18830.477 4934731
5643.499 -1498.3932 18946.367 256
5878.5054 -1530.2561 19349.256 256
6007.0127 -1533.7048 19392.863 256
6002.1118 -1503.6035 19012.248 256
6235.4048 -1533.1823 19386.256 770
6399.4863 -1544.9789 19535.416 771
6592.5181 -1563.2195 19766.061 3363665
0 0 0 0
0 0 0 0
0 0 0 0
0 0 0 0
0 0 0 0
0 0 0 0
0 0 0 0
0 0 0 0
6937.3755 -1417.6359 17925.234 264974
6992.7354 -1407.3365 17795.004 3952981
0 0 0 0
7692.3032 -1502.6748 19000.506 3819081
7391.7969 -1423.08 17994.072 263688
7790.9473 -1478.5337 18695.254 260
7914.9062 -1480.9374 18725.646 3
7945.9956 -1466.1388 18538.527 2
8128.8979 -1479.3732 18705.869 2
8328.6104 -1495.2688 18906.859 256
8461.0059 -1498.816 18951.713 1
8611.5156 -1505.4368 19035.43 256
8758.499 -1511.2775 19109.281 256
8886.1807 -1513.6808 19139.67 256
9037.9111 -1520.0682 19220.436 256
9091.9258 -1510.0665 19093.969 256
9255.4336 -1518.2728 19197.732 256
9467.1006 -1534.083 19397.645 0
9592.9209 -1535.7693 19418.967 256
9677.0273 -1530.8169 19356.346 256
9679.2949 -1513.1866 19133.422 256
9707.3779 -1499.955 18966.113 256
9706.3027 -1482.573 18746.328 256
9755.3252 -1473.1511 18627.193 256
9805.5635 -1464.1219 18513.025 256
9956.8682 -1470.2167 18590.09 256
10070.459 -1470.6699 18595.82 0
10182.813 -1470.9347 18599.168 256
10157.034 -1451.4542 18352.85 256
10114.479 -1430.0161 18081.775 256
10058.569 -1407.1603 17792.775 256
10132.313 -1402.7296 17736.752 256
10688.065 -1464.4327 18516.955 257
10418.498 -1412.9489 17865.969 4
10241.246 -1374.8973 17384.828 516
10636.281 -1413.6688 17875.072 66568
9971.5205 -1312.2086 16592.164 67335
11043.217 -1439.0083 18195.477 5467247
11179.678 -1442.6626 18241.684 7179664
11237.289 -1436.1696 18159.582 9286324
10026.93 -1269.2899 16049.48 8759466
9512.791 -1192.8582 15083.043 9742509
8999.4775 -1117.9562 14135.947 66311
8353.7197 -1028.1389 13000.258 262
8521.8721 -1039.2224 13140.402 131846
8541.3809 -1032.1426 13050.881 329480
8979.2988 -1075.2957 13596.528 6188655
8962.8994 -1063.7585 13450.647 3161922
9042.2852 -1063.6931 13449.82 5001045
8940.2568 -1042.4751 13181.531 461068
9473.5859 -1095.0677 13846.536 4
9582.4922 -1098.1174 13885.097 658960
9676.3232 -1099.4022 13901.342 66052
9708.3867 -1093.7065 13829.324 395016
9740.7578 -1088.141 13758.951 2
9833.0029 -1089.301 13773.618 2
9908.9766 -1088.6541 13765.438 2
9999.7979 -1089.6357 13777.852 1
10074.754 -1088.8867 13768.38 256
10115.282 -1084.4587 13712.391 256
10172.401 -1081.866 13679.606 256
10249.828 -1081.457 13674.436 256
10339.609 -1082.3478 13685.699 256
10404.669 -1080.657 13664.319 256
10456.765 -1077.6564 13626.379 256
10469.024 -1070.6279 13537.508 256
10505.512 -1066.1656 13481.084 256
10549.305 -1062.5065 13434.815 197893
10535.058 -1053.1006 13315.885 514
10133.93 -1005.4501 12713.37 2899001
10460.929 -1030.2124 13026.475 3618613
10503.564 -1026.8118 12983.477 0
10632.734 -1031.8585 13047.29 256
10671.961 -1028.1669 13000.611 0
10722.266 -1025.588 12968.003 256
10261.551 -974.51556 12322.219 131842
10536.643 -993.5495 12562.894 328965
10723.729 -1004.0756 12695.989 2171682
10975.635 -1020.4813 12903.431 0
11063.285 -1021.4933 12916.228 256
11144.84 -1021.9326 12921.78 256
11036.217 -1005.0464 12708.266 1514267
11316.244 -1023.5432 12942.146 132099
11535.027 -1036.288 13103.297 258
11276.387 -1006.2584 12723.591 263687
11308.982 -1002.4446 12675.367 259
10714.284 -943.44501 11929.349 131847
0 0 0 0
13255.087 -1151.9297 14565.524 5
13612.088 -1175.2791 14860.764 258
14803.394 -1269.8976 16057.164 775
16186.294 -1379.6346 17444.729 5331809
0 0 0 0
0 0 0 0
0 0 0 0
0 0 0 0
0 0 0 0
0 0 0 0
0 0 0 0
0 0 0 0
0 0 0 0
0 0 0 0
-10084.923 -811.81213 11099.019 0
-10080.473 -816.79669 11167.166 0
-10006.145 -816.14764 11158.292 0
-9951.5264 -817.10815 11171.425 0
-9664.1309 -798.84027 10921.667 0
-9842.5518 -819.09015 11198.522 0
-9865.4463 -826.5849 11300.989 0
-12144.912 -1024.5472 14007.512 0
-9874.0908 -838.72968 11467.032 0
-9906.0029 -847.28845 11584.047 0
-9950.7451 -857.07214 11717.809 0
-9890.8926 -857.92126 11729.418 0
-9929.4258 -867.37708 11858.696 0
-9886.0967 -869.76581 11891.354 0
-9831.8027 -871.21729 11911.199 0
-9767.2969 -871.77838 11918.87 0
-9707.4639 -872.76782 11932.398 0
-9654.0254 -874.35089 11954.042 0
-9602.5557 -876.13715 11978.464 0
-9551.9111 -878.02594 12004.286 0
-9503.4072 -880.1413 12033.208 65536
-9435.1777 -880.44824 12037.403 65536
-9368.4658 -880.9024 12043.613 65536
-9300.1357 -881.21027 12047.822 65536
-9233.9727 -881.72986 12054.927 65536
-9181.0859 -883.53516 12079.608 65536
-9149.0986 -887.396 12132.394 65536
-9079.5176 -887.64294 12135.77 65536
-9011.1357 -888.01208 12140.815 65536
-8955.4795 -889.65131 12163.228 65536
-8892.1514 -890.54895 12175.5 0
-8845.4072 -893.13568 12210.865 0
-8769.0439 -892.74982 12205.59 0
-8653.2305 -888.30786 12144.859 0
-8187.4829 -847.56586 11587.839 0
-8060.8047 -841.53094 11505.33 0
-7984.7456 -840.72235 11494.275 0
-8389.3975 -890.95123 12181 0
-8343.2598 -893.76422 12219.458 0
-7710.875 -833.27368 11392.438 65536
-8180.6304 -891.8692 12193.551 65536
-8118.7168 -893.03046 12209.427 65536
-8046.0898 -893.02362 12209.333 65536
-7979.459 -893.68805 12218.418 65536
-7938.9844 -897.32111 12268.089 0
-7855.2563 -896.08759 12251.224 0
-7773.231 -895.02679 12236.721 0
-7693.1548 -894.17261 12225.043 0
-7616.5288 -893.70697 12218.677 0
-7539.0723 -893.13403 12210.843 0
-7462.5127 -892.65717 12204.323 0
-7388.2002 -892.44244 12201.388 0
-7314.8896 -892.3457 12200.064 0
-7239.8135 -892.0293 12195.739 0
-7167.6309 -892.06683 12196.252 0
-7094.2319 -891.95203 12194.683 0
-7028.6304 -892.82544 12206.624 0
-6955.3945 -892.73718 12205.418 0
-6873.1768 -891.48206 12188.257 65536
-6797.4839 -891.05554 12182.426 65536
-6738.9238 -892.88989 12207.505 65536
-6682.4697 -895.0462 12236.985 65536
-6629.4468 -897.7146 12273.468 65536
-6571.5342 -899.77283 12301.608 0
-6512.397 -901.70795 12328.064 0
-6458.353 -904.40027 12364.874 0
-6400.7373 -906.64862 12395.613 0
-6346.9678 -909.50049 12434.604 0
-6278.8164 -910.33441 12446.005 0
-6202.9663 -910.05872 12442.235 0
-6150.6489 -913.27063 12486.148 0
-6095.3071 -916.10632 12524.918 65536
-6049.9609 -920.53314 12585.44 65536
-5992.9639 -923.27576 12622.938 65536
-5953.564 -928.83337 12698.921 65536
-5931.0684 -937.20477 12813.374 65536
-5884.812 -941.99066 12878.806 0
-5820.104 -943.91003 12905.048 0
-5778.3174 -949.64783 12983.494 0
-5744.6509 -956.89349 13082.557 0
-5709.9165 -964.15765 13181.871 0
-5689.7378 -974.11591 13318.02 0
-5650.6484 -981.07196 13413.122 0
-5602.5894 -986.64734 13489.349 0
-5537.959 -989.42407 13527.312 0
-5494.2676 -996.07867 13618.293 0
-5466.6636 -1005.8925 13752.465 0
-5422.2612 -1012.8662 13847.811 0
-5378.0732 -1020.0956 13946.65 65536
-5344.8452 -1029.6627 14077.45 65536
-5305.3105 -1038.2998 14195.536 65536
-5256.6284 -1045.397 14292.567 65536
-5217.1074 -1054.5791 14418.104 65536
-5175.105 -1063.5579 14540.861 0
-5132.3003 -1072.674 14665.495 0
-5095.4878 -1083.379 14811.854 0
-5049.0156 -1092.3706 14934.787 0
-4991.4282 -1099.2362 15028.652 0
-4929.8633 -1105.46 15113.744 0
-4864.3193 -1111.0061 15189.568 0
-4803.9253 -1117.9602 15284.646 0
-4749.522 -1126.6038 15402.818 256
-4717.3848 -1140.9723 15599.263 256
-4663.0562 -1150.4419 15728.732 256
-4596.5366 -1157.2299 15821.535 256
-4529.9136 -1164.2747 15917.852 256
-4453.4707 -1169.0422 15983.034 256
-4388.3716 -1177.0604 16092.657 256
-4308.894 -1181.4933 16153.264 0
-4231.0708 -1186.592 16222.974 0
-4164.1885 -1195.0687 16338.866 0
-4094.52 -1203.1315 16449.098 0
-4028.031 -1212.5458 16577.809 0
-3897.127 -1202.5552 16441.219 0
-3779.4929 -1196.2509 16355.026 0
-3922.1562 -1274.1754 17420.404 0
-3800.0176 -1267.968 17335.537 0
-3703.4609 -1270.1886 17365.896 0
-3621.9717 -1277.8523 17470.674 0
-3513.2827 -1276.089 17446.566 0
-3429.5205 -1283.5475 17548.539 0
-3332.7893 -1286.4679 17588.467 0
-3255.9121 -1297.4895 17739.152 0
-3169.9524 -1305.5081 17848.781 0
-3095.0308 -1318.785 18030.303 0
-2999.2087 -1323.7897 18098.725 0
-2903.8533 -1329.38 18175.156 0
-2815.9844 -1338.9622 18306.162 0
-2715.2876 -1342.97 18360.957 0
-2616.7124 -1348.4065 18435.285 0
-2520.1023 -1355.3752 18530.561 0
-2418.3943 -1360.1138 18595.346 0
-2316.906 -1365.4357 18668.105 0
-2215.3696 -1371.2631 18747.777 0
-2113 -1377.1646 18828.463 0
-2007.8636 -1381.8223 18892.141 0
-1902.5884 -1386.9303 18961.979 256
-1796.8214 -1392.3007 19035.4 256
-1699.498 -1405.3749 19214.15 256
-1613.9266 -1430.7509 19561.09 256
-1513.4598 -1445.8369 19767.344 256
-1404.9734 -1455.156 19894.754 256
0 0 0 0
0 0 0 0
0 0 0 0
0 0 0 0
0 0 0 0
0 0 0 0
0 0 0 0
-438.78821 -1390.9507 19016.943 256
-326.89481 -1395.7793 19082.961 256
0 0 0 0
-101.76566 -1419.5498 19407.949 789771
13.400882 -1400.5701 19148.461 256
128.62627 -1416.1989 19362.135 0
0 0 0 0
0 0 0 0
0 0 0 0
0 0 0 0
0 0 0 0
0 0 0 0
0 0 0 0
0 0 0 0
0 0 0 0
0 0 0 0
0 0 0 0
0 0 0 0
0 0 0 0
0 0 0 0
0 0 0 0
0 0 0 0
0 0 0 0
2202.6406 -1417.9041 19385.449 1184787
2233.6172 -1366.3732 18680.924 65794
2450.0183 -1427.7812 19520.488 0
2576.5361 -1433.624 19600.371 0
2636.1558 -1403.3484 19186.445 0
2714.2126 -1384.9915 18935.471 460807
2875.5515 -1408.9009 19262.357 328965
3080.8911 -1451.7124 19847.674 395014
3186.0066 -1445.8827 19767.969 0
3258.6401 -1426.2506 19499.562 0
3343.2864 -1413.0443 19319.008 0
3349.0303 -1368.4741 18709.646 0
3562.5305 -1408.9332 19262.801 0
3733.5068 -1430.5791 19558.74 0
3828.0107 -1422.5002 19448.287 65536
3840.2952 -1385.2375 18938.836 657672
4043.7283 -1417.0831 19374.225 65536
4151.0537 -1414.4178 19337.785 65536
4179.981 -1385.9025 18947.926 65536
4302.2783 -1389.0289 18990.67 0
4423.043 -1391.5132 19024.635 0
4542.4746 -1393.4647 19051.316 0
4606.8926 -1378.8556 18851.582 0
4701.2803 -1373.6971 18781.057 0
4908.6196 -1401.0167 19154.566 0
4961.5171 -1384.0161 18922.137 0
5071.0601 -1383.2203 18911.256 0
5124.2026 -1367.4084 18695.076 0
5220.5098 -1363.5417 18642.211 256
5342.0654 -1366.2933 18679.832 197636
5695.0708 -1426.9236 19508.762 1316373
5713.9492 -1403.0879 19182.883 256
5926.875 -1426.9019 19508.465 0
6066.4028 -1432.4702 19584.596 0
6208.1675 -1438.3473 19664.947 0
6366.6665 -1447.8127 19794.357 257
6410.7339 -1431.3845 19569.752 515
6650.1499 -1458.3818 19938.855 1385764
0 0 0 0
0 0 0 0
0 0 0 0
0 0 0 0
0 0 0 0
0 0 0 0
0 0 0 0
0 0 0 0
6810.187 -1287.0626 17596.598 519
6614.7476 -1231.2188 16833.105 724495
6508.6172 -1193.4148 16316.252 2634551
6778.0146 -1224.5663 16742.152 66309
6524.4644 -1161.7035 15882.699 5856864
7527.2544 -1321.1394 18062.492 66309
7889.4502 -1365.2393 18665.42 2
7969.9438 -1360.0446 18594.398 2
8137.5811 -1369.6593 18725.852 2
8379.8848 -1391.4122 19023.256 256
8535.0186 -1398.3052 19117.494 256
8596.7178 -1389.9103 19002.721 256
8768.7041 -1399.3331 19131.549 256
8917.1016 -1404.7986 19206.271 256
9091.4717 -1414.1656 19334.338 256
9102.5312 -1398.2134 19116.24 256
9240.6113 -1401.9253 19166.988 256
9451.835 -1416.5084 19366.367 0
9587.2363 -1419.514 19407.461 256
9681.9277 -1416.4924 19366.148 256
9730.668 -1406.8978 19234.973 256
9771.2256 -1396.3568 19090.857 256
9755.7354 -1378.1403 18841.801 256
9766.7637 -1364.0409 18649.035 256
