# .PCD v0.7 - Point Cloud Data file format
VERSION 0.7
FIELDS x y z rgb
SIZE 4 4 4 4
TYPE F F F U
COUNT 1 1 1 1
WIDTH 1320
HEIGHT 1
VIEWPOINT 0 0 0 1 0 0 0
POINTS 1320
DATA ascii
1235.5284 1225.2704 4066.7744 5
1251.8572 1217.6433 4041.4592 4
1274.4442 1216.2759 4036.9204 4
1297.754 1215.6361 4034.7974 65538
1321.6047 1215.517 4034.4019 262144
1341.0979 1211.4658 4020.9556 262144
1361.4341 1208.3047 4010.4636 196608
1386.028 1208.9661 4012.6589 196608
1408.5325 1207.8135 4008.8335 262144
1427.2603 1203.5146 3994.5649 196608
1451.8257 1204.1985 3996.8347 196608
1482.6298 1209.9514 4015.9292 196608
1505.1686 1208.8839 4012.386 65536
1529.6771 1209.4069 4014.1218 0
1554.5394 1210.1892 4016.7185 0
1576.0027 1208.3419 4010.5872 2
1599.2828 1207.9218 4009.1929 2
1623.5383 1208.24 4010.2488 4
1651.2139 1211.0573 4019.5994 4
1676.9604 1212.3995 4024.0549 4
1700.7118 1212.282 4023.6646 7
1734.4712 1219.2026 4046.6348 1119774
1747.4077 1211.4969 4021.0591 1975340
1764.3394 1206.7319 4005.2437 1185312
1799.3718 1214.3092 4030.3931 8
1850.6869 1232.5312 4090.8735 9
1878.8579 1235.067 4099.29 11
1919.1605 1245.4104 4133.6206 132621
1938.7845 1242.2429 4123.1074 1121833
0 0 0 0
0 0 0 0
2775.5745 1713.4316 5687.022 3163991
2761.5835 1684.2842 5590.2788 3493214
2807.8457 1692.1409 5616.356 3558751
2896.625 1725.135 5725.8662 3492958
2980.2236 1754.3131 5822.7109 3558750
3032.5298 1764.6125 5856.8955 3690079
3105.9714 1786.8372 5930.6611 3689822
3115.8113 1772.3842 5882.6904 3294807
3188.9771 1793.8743 5954.0176 2899791
3262.8049 1815.261 6025.002 3162450
3290.4463 1810.7664 6010.084 3227986
3336.5552 1816.4221 6028.856 2964813
3391.8308 1826.8949 6063.6162 2964042
3403.4033 1813.856 6020.3384 2832199
3435.5405 1811.9342 6013.96 2503232
3442.7966 1797.0647 5964.6069 2107957
3428.7239 1771.4784 5879.6841 593942
3405.8386 1741.9015 5781.5156 263946
3356.7019 1699.6232 5641.1904 1250327
3447.7649 1728.4673 5736.9268 0
3669.9668 1821.8466 6046.8604 65536
3759.6548 1848.2703 6134.5625 0
3821.5281 1860.6436 6175.6309 0
3870.3252 1866.4757 6194.9878 0
3920.512 1872.8615 6216.1831 0
3971.3738 1879.4478 6238.0435 0
4023.623 1886.5625 6261.6577 0
4068.4102 1890.0802 6273.3335 0
4109.8296 1891.984 6279.6519 0
4146.1304 1891.5178 6278.105 0
4186.1567 1892.7448 6282.1772 0
4225.1226 1893.4749 6284.6001 0
4273.2544 1898.2633 6300.4937 0
4305.6851 1896.0546 6293.1631 0
4387.1885 1915.3081 6357.0664 0
4592.0454 1987.6249 6597.0918 0
4713.187 2022.7883 6713.8022 0
4758.4092 2025.0521 6721.3164 0
4811.2954 2030.5129 6739.4409 0
4849.2515 2029.6344 6736.5254 0
4866.3081 2020.0948 6704.8628 0
4848.7158 1996.4432 6626.3613 0
4846.8516 1979.5969 6570.4468 0
4786.9771 1939.5159 6437.4146 0
4803.9111 1930.944 6408.9634 65536
4821.0444 1922.5864 6381.2241 0
4845.4346 1917.2306 6363.4478 0
4873.3345 1913.3358 6350.5205 0
4886.9546 1903.9375 6319.3271 0
4901.894 1895.1926 6290.3018 0
4911.1973 1884.4176 6254.5386 0
4858.3623 1850.1411 6140.7725 0
4668.4043 1764.5466 5856.6768 0
4678.9219 1755.4332 5826.4287 256
4679.3862 1742.7096 5784.1982 256
4599.7896 1700.5728 5644.3423 258
4604.2061 1689.8812 5608.8564 259
4660.1685 1698.1263 5636.2227 2041646
0 0 0 0
5831.2832 2094.7559 6952.6689 1450540
5813.9893 2073.8477 6883.2729 2437439
6036.354 2138.1201 7096.5986 2635587
6216.9219 2186.7991 7258.1675 1582643
6176.0068 2157.4373 7160.7134 1253424
6330.9321 2196.4211 7290.104 2174525
6267.5054 2159.6362 7168.0117 2174268
6382.0464 2184.2571 7249.731 2766663
6461.3335 2196.5632 7290.5762 2371649
6616.6382 2234.376 7416.0796 1845561
6730.3457 2257.7344 7493.6079 1910326
6722.1016 2240.145 7435.2271 1383983
6730.396 2228.2607 7395.7827 1252141
6931.2954 2279.8835 7567.123 2502721
7064.6104 2308.7539 7662.9463 1976890
7161.5508 2325.4431 7718.3389 1911354
7256.5112 2341.2812 7770.9067 1713976
7290.4375 2337.3508 7757.8613 1977149
7284.0781 2320.6353 7702.3813 2174527
7421.6079 2349.6838 7798.7964 2635338
7365.4165 2317.4204 7691.7114 2964817
7437.0049 2325.511 7718.5645 3359317
7524.4863 2338.4417 7761.4824 3096147
0 0 0 0
0 0 0 0
0 0 0 0
0 0 0 0
0 0 0 0
-4631.4731 1586.776 5164.7588 791321
-4654.8301 1605.4186 5225.438 857371
-4584.4722 1591.7728 5181.0229 528662
-4599.4585 1607.7751 5233.1084 462612
-4548.0698 1600.6355 5209.8701 331024
-4606.9482 1632.4709 5313.4907 67594
-4518.6582 1612.2372 5247.6323 1288
-4505.9268 1618.8683 5269.2158 260
-4427.4272 1601.7981 5213.6543 1030
-4476.6479 1631.0206 5308.77 198666
-4450.0581 1632.8416 5314.6968 330767
-4371.5361 1615.4968 5258.2417 857626
-4360.3242 1622.9557 5282.5195 1383972
-4302.5068 1613.05 5250.2773 1911347
-4193.415 1583.636 5154.5386 2108983
-4112.3848 1564.4641 5092.1367 1845810
-4112.6172 1576.1521 5130.1792 1187624
-3945.6887 1523.4719 4958.7119 2043705
-3897.2573 1516.0962 4934.7051 2110013
-3906.1187 1531.0653 4983.4277 1978686
-3859.4421 1524.328 4961.4985 1978430
-3828.6804 1523.8209 4959.8481 1978687
-3803.6074 1525.5878 4965.5991 2044480
-3827.5479 1547.1948 5035.9272 2110273
-3808.6707 1551.698 5050.5845 1912637
-3689.3745 1515.0358 4931.2534 2307395
-3783.958 1566.319 5098.1738 2635846
-3753.5935 1566.2922 5098.0869 2832711
-3695.4731 1554.5889 5059.9937 2766917
-3685.3445 1563.0479 5087.5269 2503743
-3585.2742 1533.1846 4990.3257 1912121
-3597.6704 1551.3191 5049.3511 2240830
-3506.3948 1524.6791 4962.6411 2109500
-3433.1045 1505.474 4900.1309 1188142
-3397.4106 1502.568 4890.6724 397597
-3338.6941 1489.3418 4847.6226 1187882
-3304.9087 1487.1035 4840.3374 1121318
-3233.7681 1467.8696 4777.7334 857634
-3184.1958 1458.1718 4746.1685 791840
-3151.6062 1456.1476 4739.5796 923170
-3113.8577 1451.6816 4725.0435 593947
-3060.4697 1439.7767 4686.2949 67088
-3016.4143 1432.0841 4661.2563 396567
-2940.5483 1409.0065 4586.1411 527897
-2968.7131 1435.811 4673.3867 791070
-2960.437 1445.3311 4704.373 527898
-2995.8857 1476.5831 4806.0947 988708
-2981.9534 1483.864 4829.7935 924202
-2913.5256 1463.9055 4764.8306 1123122
-2845.4897 1443.7537 4699.2393 1912895
-2769.4822 1419.1177 4619.0522 2373705
-2770.6887 1433.9503 4667.3301 2176584
-2703.2976 1413.2213 4599.8599 2439756
-2731.9148 1442.7725 4696.0454 3097687
-2708.0293 1444.9199 4703.0352 3163737
-2674.7825 1442.0652 4693.7432 3295836
-2631.4944 1433.6796 4666.4492 3296350
-2611.9158 1438.1703 4681.0659 3362143
-2581.9644 1436.9847 4677.207 3362142
-2562.3547 1441.5918 4692.2021 3427935
-2529.2639 1438.6321 4682.5688 3427935
-2501.5784 1438.7152 4682.8394 3362142
-2476.9956 1440.6047 4688.9897 3362141
-2449.2976 1440.7048 4689.3154 3362655
-2407.9683 1432.697 4663.251 3361886
-2374.8481 1429.4437 4652.6621 3164506
-2368.4956 1442.4153 4694.8828 2769235
-2341.4187 1442.9247 4696.5405 2571600
-2327.3379 1451.5519 4724.6211 2834514
-2339.645 1477.049 4807.6108 2439499
-2294.9724 1466.7593 4774.1196 3492699
-2301.9673 1489.6475 4848.6177 2703695
-2230.6943 1461.8251 4758.0591 2571852
-2215.1313 1470.265 4785.5303 2768975
-2184.0195 1468.47 4779.6875 2571595
-2161.6765 1472.6011 4793.1338 2440265
-2153.8013 1486.8303 4839.4482 3229525
-2094.0386 1465.1403 4768.8496 2900816
-2054.1694 1456.965 4742.2402 2637388
-2030.4989 1460.2113 4752.8066 2440264
-2014.6661 1469.2654 4782.2764 2571594
-1950.9589 1443.1646 4697.3218 2900303
-1977.2931 1483.8787 4829.8408 2768974
-1950.8567 1485.6064 4835.4648 2835024
-1919.1171 1483.2871 4827.9155 3361882
-1880.9542 1475.8577 4803.7334 3493726
-1868.239 1488.4738 4844.7974 2638673
-1810.558 1465.0986 4768.7144 3098965
-1761.6801 1448.2168 4713.7661 3361882
-1731.1348 1446.1038 4706.8882 2769231
-1691.994 1436.6227 4676.0288 2571853
-1662.3202 1434.9976 4670.7393 2769488
-1643.9773 1443.265 4697.6484 2637645
-1593.7316 1423.3262 4632.75 2308935
-1573.2079 1429.697 4653.4863 2506314
-1552.1808 1435.8301 4673.4487 3295830
-1514.6033 1426.598 4643.3994 3032658
-1510.7434 1449.3712 4717.5234 2703436
-1456.5134 1423.7679 4634.188 1913406
-1408.5436 1403.415 4567.9419 1453110
-1400.2448 1422.5656 4630.2744 2242627
-1374.6226 1424.5315 4636.6733 2439749
-1348.1321 1425.6598 4640.3457 3030603
-1312.2028 1416.6451 4611.0039 2833996
-1291.7463 1424.3065 4635.9409 2307907
-1277.2245 1438.988 4683.7275 2110013
-1248.3368 1437.7778 4679.7886 1254445
-1230.4326 1449.4512 4717.7837 1385003
-1199.2809 1445.6992 4705.5718 1253158
-1192.6495 1472.0328 4791.2842 792346
-1154.382 1459.6522 4750.9868 923419
-1118.7328 1450.0447 4719.7153 594454
-1097.623 1459.2728 4749.752 198922
-1077.5997 1470.4707 4786.1997 726294
-1026.0348 1438.0677 4680.7319 265228
-1017.3677 1465.6589 4770.5381 397071
-989.91266 1466.9896 4774.8691 660498
-963.00647 1469.2363 4782.1816 660499
-930.74371 1463.1984 4762.5293 726293
-898.99377 1457.6135 4744.3511 528913
-878.94263 1471.2491 4788.7334 660500
-842.09473 1456.7408 4741.5107 1515809
-801.83679 1435.1248 4671.1528 989464
-777.67523 1441.8004 4692.8813 397071
-759.61932 1460.7135 4754.4414 330508
-732.16699 1462.3213 4759.6743 528656
-704.80182 1464.2393 4765.917 331022
-686.65247 1486.2655 4837.6099 67593
-657.25372 1484.8035 4832.8511 397587
-638.16315 1507.5593 4906.9185 1253153
-603.26562 1493.365 4860.7178 989724
-573.15387 1490.1858 4850.3696 397587
-546.45166 1496.0038 4869.3066 462866
-516.48132 1493.0251 4859.6118 660246
-487.48941 1492.6897 4858.5195 198666
-459.16705 1494.4911 4864.3833 725782
-430.07617 1493.8654 4862.3467 791576
-404.0206 1504.452 4896.8047 1121055
-373.42307 1498.4564 4877.2896 659989
-342.98318 1492.1376 4856.7227 462608
-317.53531 1508.3704 4909.5586 67594
-285.38348 1492.8209 4858.9468 331280
-257.56406 1498.9839 4879.0068 331280
-228.24843 1496.8984 4872.2188 1253153
-197.94884 1486.8163 4839.4023 2043183
-170.35284 1497.0652 4872.7612 661019
-142.37527 1507.4724 4906.6357 727070
-112.99635 1504.5817 4897.2266 398105
-82.450096 1478.749 4813.1445 1319465
-54.292149 1491.059 4853.2119 1714736
-25.44116 1490.6678 4851.939 2241337
3.4223688 1502.4252 4890.2075 1912374
32.687298 1511.7089 4920.4248 3359819
60.606777 1479.3833 4815.209 858400
92.443413 1532.7419 4988.8848 529691
124.54935 1563.5648 5089.2095 462101
150.26195 1517.7645 4940.1353 1648177
181.34073 1532.2798 4987.3809 3557716
207.52216 1507.1492 4905.5835 3031630
237.87082 1514.7467 4930.3125 2506314
265.96213 1507.8795 4907.9609 3099221
297.63104 1520.6484 4949.522 3164502
326.25012 1516.9398 4937.4507 3493467
353.78256 1509.2076 4912.2837 3559004
381.75082 1504.3717 4896.5435 3361625
412.62317 1510.8546 4917.6445 3690847
441.27234 1508.8779 4911.2104 3230552
468.81955 1503.6122 4894.0713 3296345
496.69458 1499.9519 4882.1572 3888739
531.24115 1515.7306 4933.5151 3559774
550.84418 1489.4521 4847.9819 3559774
589.60724 1515.0187 4931.1978 3493724
613.48102 1501.7169 4887.9023 3822689
644.5437 1506.4198 4903.2095 3954534
672.10864 1502.8945 4891.7354 3757411
705.26862 1511.6538 4920.2456 3888997
724.87939 1491.8309 4855.7246 3757411
762.87634 1509.9166 4914.5913 3757157
797.12317 1519.5199 4945.8486 3822949
819.77319 1507.1196 4905.4873 3954535
857.16388 1521.7407 4953.0771 3954535
881.14954 1512.3827 4922.6182 4086120
918.97235 1526.6125 4968.9346 4086120
948.58643 1526.7446 4969.3643 4086120
980.32373 1530.1827 4980.5547 4020070
1010.9034 1531.6654 4985.3809 3888484
1034.3369 1522.5443 4955.6929 3756898
1058.3867 1514.8105 4930.5205 3822691
1087.7535 1514.8982 4930.8057 3757154
1127.7867 1529.4468 4978.1592 2243402
1138.1151 1503.9968 4895.3232 3428189
1183.4972 1524.984 4963.6338 4020583
1200.076 1508.7388 4910.7573 3954792
1198.85 1471.4119 4789.2632 3889000
1207.3124 1447.4319 4711.2114 3888743
1179.0266 1381.4808 4496.5488 3954277
1226.4894 1405.2415 4573.8867 1911609
1143.7599 1282.0393 4172.8789 525
1164.209 1277.2649 4157.3389 9
1185.28 1273.3572 4144.6196 198159
1189.6523 1252.0342 4075.2161 131593
1251.1431 1290.4762 4200.3398 6
1227.4058 1241.2264 4040.0381 6
1249.6917 1239.515 4034.4678 4
1273.9827 1239.8195 4035.4585 4
1298.6897 1240.51 4037.7061 65537
1320.7936 1238.7341 4031.9258 0
1343.0526 1237.1643 4026.8162 196608
1365.827 1236.116 4023.4041 196608
1389.5386 1235.9373 4022.8223 196608
1413.1194 1235.6503 4021.8884 196608
1431.6167 1231.0017 4006.7578 196608
1453.7108 1229.5475 4002.0244 196608
1482.8933 1234.0388 4016.6431 65536
1505.6946 1233.1615 4013.7878 65536
1531.149 1234.4508 4017.9844 65536
1555.6788 1234.9666 4019.6628 0
1579.3746 1234.8145 4019.1677 2
1601.484 1233.4452 4014.7112 2
1624.3806 1232.7134 4012.3291 3
1650.9403 1234.7426 4018.9336 4
1674.2545 1234.3212 4017.562 4
1698.6641 1234.7075 4018.8198 4
1724.084 1235.8075 4022.4001 263434
1743.3866 1232.5527 4011.8064 197899
1785.506 1245.2991 4053.2942 395535
1811.6956 1246.7439 4057.9968 2173491
1857.6504 1261.5737 4106.2661 4281695
1885.7628 1264.059 4114.355 3821917
1917.4504 1268.8464 4129.9375 3756383
1926.5889 1258.7798 4097.1719 3032662
0 0 0 0
0 0 0 0
2585.4421 1627.5428 5297.4497 3689823
2640.8567 1642.4255 5345.8911 3492701
2724.1177 1674.067 5448.8804 3360856
2808.804 1705.8306 5552.2671 3558236
2865.8826 1720.2848 5599.3135 3229272
2881.2678 1709.6672 5564.7549 2834513
2976.3025 1746.0164 5683.0664 3031635
3020.2971 1751.9434 5702.3584 3360086
3123.2393 1791.5524 5831.2808 2833999
3168.5669 1797.6061 5850.9849 3162452
3209.5681 1801.1002 5862.3579 3359830
3229.5459 1792.8484 5835.4995 3359828
3300.9395 1813.0118 5901.1284 3227983
3300.5059 1793.7155 5838.3213 3425363
3302.1953 1775.9623 5780.5371 3161934
3320.4885 1767.4126 5752.709 3293260
3332.1084 1755.5216 5714.0049 3358022
3362.1826 1753.4948 5707.4077 2435890
3383.0425 1746.7511 5685.458 1251097
3457.1069 1767.3398 5752.4717 0
3625.5874 1835.3198 5973.7383 65536
3707.6448 1858.6572 6049.6987 65536
3776.2668 1874.8759 6102.4883 0
3822.7246 1879.8864 6118.7964 0
3869.5476 1884.9801 6135.3765 0
3914.0864 1888.8766 6148.0591 0
3969.0415 1897.6813 6176.7168 0
4022.1077 1905.4297 6201.937 0
4062.2966 1906.9922 6207.0229 0
4101.8169 1908.2156 6211.0054 0
4138.2563 1907.9968 6210.293 0
4173.0786 1907.0426 6207.187 0
4214.9517 1909.2992 6214.5322 0
4254.8086 1910.6116 6218.8032 0
4320.5737 1923.4347 6260.541 0
4463.5693 1970.127 6412.5186 0
4494.4219 1966.9498 6402.1777 0
4549.6826 1974.4187 6426.4878 0
4575.4033 1969.0502 6409.0142 0
4625.1978 1974.0454 6425.2729 0
4654.082 1970.1072 6412.4546 0
4682.6899 1966.1172 6399.4673 0
4664.2466 1942.595 6322.9053 0
4740.3174 1958.4978 6374.6675 0
4706.2686 1929.0127 6278.6973 0
4742.2388 1928.4653 6276.9155 0
4772.8989 1925.7839 6268.188 0
4800.3525 1921.8602 6255.4165 0
4814.1011 1912.5522 6225.1201 0
4834.4072 1905.9713 6203.7002 0
4834.6133 1891.6257 6157.0068 0
4801.4116 1864.5223 6068.7891 0
4630.397 1784.7054 5808.9951 0
4663.4263 1784.1334 5807.1328 256
4672.792 1774.583 5776.0479 256
4679.5308 1764.1814 5742.1919 2
4709.9438 1762.7911 5737.666 517
4828.0938 1794.0219 5839.3188 725013
4780.4795 1763.6521 5740.4688 2963778
5234.3257 1917.4044 6240.9136 2700609
5468.0161 1988.9144 6473.6694 2569284
5616.4497 2028.6307 6602.9414 2701897
5632.1309 2020.1792 6575.4326 3030863
5679.5605 2023.1534 6585.1133 3227986
5833.5708 2063.793 6717.3896 3096400
5971.4512 2098.2124 6829.4204 2701127
6112.8496 2133.3948 6943.9355 1516854
6229.5762 2159.5527 7029.0757 1648182
6323.6143 2177.5491 7087.6523 1779511
6332.397 2166.1438 7050.5293 1318960
6453.4297 2193.0337 7138.0527 1318958
6453.7891 2178.8325 7091.8296 1187372
6543.957 2194.9387 7144.2534 2436926
6813.0078 2270.4504 7390.0342 2174267
6694.2231 2216.5754 7214.6782 1384753
6753.7393 2222.0491 7232.4941 1318960
6820.1802 2229.7175 7257.4536 1713718
6888.2964 2237.8337 7283.8711 1713974
6992.6558 2257.5496 7348.0439 2305857
7120.5229 2284.563 7435.9688 2371909
7199.396 2295.6206 7471.96 2437701
7242.1641 2295.1006 7470.2681 2700362
0 0 0 0
0 0 0 0
0 0 0 0
0 0 0 0
0 0 0 0
-4519.7168 1578.4426 5040.1343 66827
-4577.5938 1609.3215 5138.7339 1034
-4442.9131 1572.4636 5021.043 777
-4444.2197 1583.5626 5056.4829 519
-4382.5781 1572.2302 5020.2974 1033
-4426.7603 1598.9666 5105.6689 67855
-4462.2861 1622.9232 5182.1655 792095
-4455.791 1631.8242 5210.5874 1581869
-4400.6782 1622.9198 5182.1548 1713456
-4354.1909 1617.0938 5163.5513 1516335
-4323.2173 1616.9871 5163.2109 1649205
-4304.3032 1621.4218 5177.3711 1846585
-4261.0913 1616.7017 5162.2993 2373186
-4064.0632 1553.1302 4959.3091 2570310
-3937.4875 1515.7509 4839.9526 2373445
-3857.6003 1495.9266 4776.6519 2570823
-3730.2007 1457.2471 4653.144 2570824
-3734.2593 1469.7289 4693 2373447
-3695.189 1465.2963 4678.8457 2373446
-3716.9058 1485.0839 4742.0298 2965071
-3740.0901 1505.7645 4808.0654 2833484
-3681.709 1493.6726 4769.4546 3031120
-3670.2693 1500.585 4791.5264 2965327
-3700.8792 1524.9319 4869.2686 2438726
-3575.9426 1485.0651 4741.9697 2044225
-3576.708 1497.1825 4780.6621 1846331
-3620.8276 1527.7875 4878.3867 1714746
-3528.3391 1500.7799 4792.1489 1517109
-3538.4128 1517.3127 4844.9399 661029
-3378.8792 1460.7906 4664.459 396563
-3377.5464 1472.2942 4701.1909 858662
-3391.0393 1490.506 4759.3433 1055527
-3300.5256 1462.9243 4671.272 726561
-3363.4099 1503.4436 4800.6543 67346
-3307.1887 1490.9606 4760.7949 266
-3267.8152 1485.9231 4744.7095 523
-3162.9419 1450.755 4632.4141 265
-3113.498 1440.6163 4600.04 6
-3075.2817 1435.5391 4583.8281 6
-3039.3154 1431.4309 4570.71 6
-2991.3748 1421.558 4539.1851 6
-2949.7288 1414.5239 4516.7246 6
-2927.0637 1416.5466 4523.1831 6
-2902.4614 1417.6605 4526.7397 198153
-2862.3794 1411.1636 4505.9946 1319729
-2912.8145 1449.5908 4628.6968 3426648
-2842.533 1428.1021 4560.0811 3821407
-2939.4956 1491.033 4761.0259 3229528
-2827.5078 1448.1687 4624.1558 3032405
-2814.3647 1455.5852 4647.8374 3361370
-2693.4329 1406.848 4492.2144 3559264
-2674.1619 1410.7665 4504.7266 3493985
-2642.51 1408.1667 4496.4253 3427935
-2645.667 1424.2526 4547.7891 3427935
-2630.5295 1430.7203 4568.4414 3559521
-2592.8098 1424.9126 4549.8965 3559521
-2566.0779 1425.0846 4550.4458 3493729
-2537.283 1424.1023 4547.3091 3559521
-2506.4207 1421.9259 4540.3599 3493985
-2478.3689 1421.3142 4538.4067 3559521
-2456.2319 1424.1183 4547.3604 3691364
-2423.4434 1420.7404 4536.5742 3559778
-2399.9075 1422.7717 4543.0605 3428449
-2369.3191 1420.6207 4536.1924 3493985
-2344.7974 1422.0996 4540.9146 3230813
-2321.2361 1424.2023 4547.6284 3296349
-2293.3374 1423.6619 4545.9028 3098970
-2277.3386 1430.5839 4568.0054 2966614
-2271.1152 1443.8876 4610.4858 2966613
-2250.0823 1447.9861 4623.5728 3164762
-2202.1199 1434.642 4580.9634 3296347
-2194.6074 1447.6459 4622.4863 3362140
-2154.1379 1438.9641 4594.7646 3362140
-2123.7402 1436.874 4588.0908 3427934
-2116.9202 1450.8889 4632.8418 3361884
-2089.0837 1450.6793 4632.1724 3361114
-2052.3928 1444.2334 4611.5898 2505804
-2011.6766 1434.7421 4581.2832 2768462
-1999.7004 1445.769 4616.4937 2966099
-1973.6827 1446.8098 4619.8169 3097685
-1949.1055 1448.9507 4626.6528 3163991
-1921.3976 1448.7922 4626.147 3098711
-1922.379 1470.5759 4695.7046 3098968
-1843.7321 1431.1902 4569.9414 3230552
-1804.1866 1421.433 4538.7856 3098967
-1806.7397 1445.0502 4614.1982 3295832
-1774.3621 1441.027 4601.3516 3427419
-1732.6241 1429.157 4563.4492 3427675
-1709.424 1432.4435 4573.9434 3164504
-1675.4674 1426.6771 4555.5308 3296090
-1650.7678 1428.7328 4562.0952 3033176
-1615.9386 1421.9442 4540.418 3097942
-1593.4819 1425.9968 4553.3584 2901845
-1575.4491 1434.2167 4579.6055 3033432
-1534.4907 1421.4883 4538.9624 3230811
-1507.5592 1421.5308 4539.0981 3362141
-1478.6342 1419.6609 4533.1274 3164761
-1455.0182 1422.9135 4543.5132 3427934
-1412.125 1407.0807 4492.9575 3559776
-1379.5863 1401.1539 4474.0327 3625055
-1366.0048 1414.6261 4517.0508 2046024
-1346.1942 1422.0585 4540.7832 2243402
-1319.5961 1422.4781 4542.123 3625311
-1294.6511 1424.7345 4549.3281 3625569
-1278.6281 1437.1152 4588.8608 3493468
-1250.3973 1436.0156 4585.3496 2966610
-1219.8611 1432.16 4573.0386 1584186
-1193.4918 1433.1324 4576.1436 1254706
-1180.5986 1450.7097 4632.2695 661795
-1154.7711 1452.853 4639.1133 1781044
-1129.7054 1456.0833 4649.4277 1978682
-1103.9109 1458.5125 4657.1846 2834762
-1070.2793 1450.4459 4631.4272 3426386
-1039.605 1446.0668 4617.4443 2242370
-1012.9481 1447.1899 4621.0308 1913150
-982.71564 1443.1251 4608.0513 2505287
-959.12659 1448.8628 4626.3721 2702665
-933.16541 1451.2498 4633.9941 2439235
-906.28448 1452.3083 4637.374 1715511
-886.06757 1464.447 4676.1343 1122859
-853.59155 1456.4547 4650.6138 1451309
-833.00037 1468.8846 4690.3042 530979
-796.5191 1453.1852 4640.1738 2505026
-775.20154 1465.0167 4677.9536 2307905
-746.08282 1462.4373 4669.7168 3163472
-728.72522 1483.6025 4737.2998 3031887
-698.43298 1479.0774 4722.8506 1584184
-672.18048 1483.0864 4735.6519 3295317
-636.61737 1466.0054 4681.1104 3032145
-612.84723 1475.7611 4712.2612 2572107
-582.37225 1469.5325 4692.3726 2900559
-555.13049 1471.2462 4697.8447 2439751
-536.68506 1497.6888 4782.2788 1518906
-508.48737 1498.3519 4784.396 2440008
-479.73453 1497.3608 4781.2314 2966609
-448.15854 1486.8783 4747.7598 2835280
-417.00342 1476.4775 4714.5488 2703438
-394.41833 1497.1077 4780.4233 2966353
-362.84018 1484.1558 4739.0664 1979458
-337.29749 1495.7888 4776.2119 2308421
-310.21039 1502.0813 4796.3047 2834509
-281.47763 1500.8729 4792.4458 2373958
-255.67027 1516.7469 4843.1333 1583673
-224.64668 1501.7778 4795.3354 923682
-192.60895 1474.6941 4708.854 1781305
-169.23279 1515.9921 4840.7231 2307904
-139.58954 1506.5682 4810.6318 3295057
-110.84089 1504.4318 4803.8096 4150369
-81.308372 1486.4821 4746.4946 3229268
-52.519394 1470.2754 4694.7446 2373444
-25.258772 1508.6112 4817.1553 2504773
3.3140056 1482.9977 4735.3682 2241602
32.01725 1509.365 4819.562 3096911
60.309036 1500.5934 4791.5532 2834253
91.187515 1541.1665 4921.1079 3032147
120.51821 1542.2268 4924.4932 2835281
147.6898 1520.6421 4855.5713 2967123
175.90874 1515.1349 4837.9858 3756638
205.33926 1520.1445 4853.9824 3954017
234.44904 1521.8379 4859.3896 3756125
264.44632 1528.2891 4879.9888 2045764
292.69012 1524.3329 4867.356 3361368
324.61505 1538.5352 4912.7056 3558747
351.86127 1530.0483 4885.6064 3558748
375.80789 1509.6012 4820.3164 2045508
405.3418 1512.9048 4830.8647 2966610
429.59439 1497.3633 4781.2393 1517880
463.06946 1513.9008 4834.0454 4085862
488.38721 1503.3956 4800.5015 3888482
514.95831 1497.6956 4782.3003 4020068
542.28943 1494.6863 4772.6914 3954275
570.57251 1494.4698 4772.0005 3954276
598.94275 1494.4913 4772.0688 4020068
629.49255 1499.7034 4788.7114 3954791
659.90631 1504.1544 4802.9243 4086377
689.14331 1505.6654 4807.749 4020583
712.29144 1494.2826 4771.4023 4152171
746.70502 1506.4995 4810.4126 4086379
779.36584 1514.4099 4835.6709 4217708
805.79413 1510.0775 4821.8374 4217709
837.00061 1514.6897 4836.5645 4283502
867.18005 1517.1989 4844.5762 4349294
896.37488 1517.8793 4846.749 4349295
924.51544 1516.7877 4843.2637 4349294
952.22815 1515.0812 4837.8145 4151658
981.65027 1516.1151 4841.1157 4085866
1009.6867 1515.0107 4837.5894 4020329
1034.5736 1509.3726 4819.5864 4020072
1064.071 1510.5834 4823.4526 4086122
1088.3013 1504.4496 4803.8667 4020586
1107.2937 1491.5737 4762.7524 4086122
1134.2987 1489.8639 4757.293 3954793
1156.261 1481.775 4731.4644 3954793
1170.7489 1464.7191 4677.0029 3954793
1187.4519 1451.1613 4633.7114 4086120
1133.6387 1353.995 4323.4492 4873580
1124.8978 1313.7762 4195.0264 14
1150.1459 1314.1368 4196.1777 11
1143.3386 1278.6335 4082.812 12
1168.3237 1279.4214 4085.3279 11
1187.6802 1274.1389 4068.4602 6
1205.9366 1267.9106 4048.573 4
1225.9105 1263.6965 4035.1167 4
1248.6171 1262.407 4030.9988 4
1273.5369 1263.3615 4034.0466 4
1298.2904 1264.1187 4036.4646 1
1318.9086 1260.8951 4026.1714 2
1342.1442 1260.244 4024.0925 0
1366.0431 1260.2279 4024.0408 65536
1389.7994 1260.0829 4023.5779 65536
1412.6318 1259.1191 4020.5007 65536
1429.8594 1253.275 4001.8396 65536
1451.2145 1251.1805 3995.1519 0
1442.2765 1223.4565 3906.626 0
1504.5757 1256.0829 4010.8054 0
1529.2698 1256.7866 4013.0527 65536
1553.2803 1256.9158 4013.4651 0
1577.8816 1257.5118 4015.3684 2
1599.0361 1255.3842 4008.5745 2
1622.5432 1255.1387 4007.7905 2
1648.2747 1256.5962 4012.4446 2
1672.5785 1256.9392 4013.54 3
1699.4445 1259.171 4020.6663 4
1724.7842 1260.2257 4024.0339 5
1746.2439 1258.4554 4018.3813 5
1788.3606 1271.4188 4059.7747 7
1854.3663 1300.7946 4153.5747 6
1881.5753 1302.541 4159.1514 132877
1875.2102 1281.3015 4091.3313 1187116
1917.8685 1293.674 4130.8379 3887199
1940.6104 1292.4691 4126.9907 3888230
1983.8199 1304.7559 4166.2236 4150887
0 0 0 0
2552.5955 1637.9502 5230.1484 3295321
2598.5283 1647.3633 5260.2056 3426652
2594.3723 1625.1761 5189.3589 3492444
2667.8552 1651.5732 5273.6484 3361115
2713.8069 1660.5121 5302.1904 3492443
2858.3088 1728.8536 5520.4126 3295321
2942.4963 1759.577 5618.5156 3820894
2955.8547 1747.7312 5580.6904 2833999
3038.8442 1776.8625 5673.71 2044483
3087.3245 1785.3979 5700.9644 3491930
3124.1743 1787.0951 5706.3838 3820894
3154.3906 1785.0021 5699.7007 3491930
3176.8523 1778.6123 5679.2969 3557720
3217.436 1782.3958 5691.3779 3886172
3230.543 1771.0372 5655.1094 3820890
3249.675 1763.1816 5630.0254 3425620
3312.2886 1778.8378 5680.0171 3227208
3311.6318 1760.5417 5621.5962 3226434
3365.3652 1771.2377 5655.7495 1185305
3383.0793 1762.9523 5629.293 1
3598.4146 1856.8025 5928.9668 65536
3664.918 1872.7792 5979.9819 65536
3730.5967 1888.0316 6028.6851 65536
3776.6936 1893.1781 6045.1177 65536
3829.2781 1901.449 6071.5273 65536
3872.1978 1904.8108 6082.2622 65536
3924.9824 1912.9185 6108.1509 65536
3968.5078 1916.4062 6119.2881 65536
4018.1108 1922.7391 6139.5093 65536
4057.4941 1924.1113 6143.8911 65536
4093.6382 1923.9369 6143.334 65536
4129.0303 1923.4152 6141.668 0
4166.4893 1923.8571 6143.0791 0
4207.1396 1925.7522 6149.1304 0
4387.0054 1990.7893 6356.8008 0
4435.4561 1995.5901 6372.1299 0
4476.3677 1996.946 6376.46 0
4449.9385 1968.4902 6285.5977 0
4494.8535 1971.8055 6296.1836 0
4557.2397 1982.6671 6330.8662 0
4585.3892 1978.578 6317.8086 0
4619.04 1976.9098 6312.4819 0
4624.1763 1963.1624 6268.5854 0
4651.1748 1958.8423 6254.791 0
4663.1426 1948.3108 6221.1621 0
4692.645 1945.2135 6211.2725 0
4729.4678 1945.175 6211.1499 0
4740.6118 1934.658 6177.5674 0
4763.9692 1929.2484 6160.2944 0
4775.2056 1919.0502 6127.73 0
4777.1504 1905.3007 6083.8262 0
4758.1035 1883.4482 6014.0493 0
4623.4014 1816.4819 5800.2192 0
4635.8467 1807.8916 5772.7891 256
4658.7588 1803.4796 5758.7012 256
4589.313 1763.6392 5631.4863 2
4711.9795 1797.6687 5740.1465 260
4644.6318 1759.2377 5617.4321 260
4676.3662 1758.6165 5615.4482 3819344
4996.5088 1865.6957 5957.3633 3425359
5151.5957 1910.0698 6099.0547 3557205
5351.2827 1970.2445 6291.1992 3491670
5412.6714 1979.0189 6319.2168 3162194
5505.8008 1999.1975 6383.6489 3293523
5592.8018 2016.8899 6440.1426 3161938
5747.3257 2058.5266 6573.0933 3095886
5723.1289 2036.0206 6501.229 2964044
5796.7793 2048.3926 6540.7339 1385010
5986.1206 2101.2087 6709.3813 198931
6064.9097 2114.7771 6752.707 331033
6215.5083 2153.042 6874.8911 199961
6250.3535 2150.9722 6868.2817 2042680
6333.0122 2165.2769 6913.958 1055785
6295.6167 2138.6145 6828.8228 1582130
6475.4531 2185.615 6978.8999 1647921
6564.3604 2201.5215 7029.6914 2305853
6675.1128 2224.5066 7103.085 1845560
6750.1025 2235.3601 7137.7417 1845561
6802.271 2238.5676 7147.9834 1845562
6845.7246 2238.885 7148.9966 2503492
6845.5029 2225.0027 7104.6694 2700871
6921.1001 2235.7832 7139.0923 2569288
0 0 0 0
0 0 0 0
0 0 0 0
0 0 0 0
0 0 0 0
-4396.6919 1564.618 4902.9443 2305593
-4389.3184 1572.4155 4927.3789 2701122
-4242.7383 1530.114 4794.8213 2832966
-4355.312 1581.3342 4955.3267 2636358
-4417.5298 1614.8441 5060.3345 2702666
-4220.0005 1553.2112 4867.1992 2505288
-4354.8789 1613.9177 5057.4312 2505545
-4314.3945 1610.0267 5045.2383 2833997
-4163.0859 1564.4351 4902.3711 2965583
-4134.1196 1564.4994 4902.5723 2768205
-4069.175 1550.8527 4859.8086 2637131
-3943.1716 1513.5735 4742.9893 2637388
-4032.6621 1559.0697 4885.5576 2900305
-3821.0979 1487.9907 4662.8223 2900818
-3744.4993 1468.8148 4602.7319 3031891
-3693.863 1459.6157 4573.9053 3229013
-3624.3862 1442.7799 4521.1479 3294036
-3576.2866 1434.2662 4494.4692 134424
-3599.1926 1454.3153 4557.2954 464161
-3503.3726 1426.3314 4469.604 3293778
-3522.6841 1445.1515 4528.5796 2570569
-3523.5225 1456.6249 4564.5327 2570570
-3461.9832 1442.2889 4519.6094 2307655
-3508.3547 1473.0371 4615.9629 2571083
-3483.8 1474.2556 4619.7812 2636876
-3487.4436 1487.5211 4661.3506 2636877
-3415.8777 1468.6626 4602.2549 2834768
-3435.4431 1488.998 4665.9785 2768462
-3365.364 1470.4943 4607.9946 2242375
-3229.7937 1422.8358 4458.6504 1979202
-3246.564 1442.0552 4518.877 2308937
-3222.1562 1443.1522 4522.3145 2768718
-3295.9138 1488.6045 4664.7451 2834510
-3269.3862 1489.1494 4666.4526 2768460
-3208.6946 1474.0094 4619.0098 2834250
-3187.4036 1476.8644 4627.9561 2571591
-3111.4106 1454.2025 4556.9419 2571332
-3111.5703 1467.0471 4597.1924 2374467
-3053.1311 1452.2462 4550.8115 2835020
-3013.9253 1446.411 4532.5264 2177350
-2879.7612 1394.4884 4369.8198 2177863
-2865.4402 1400.1813 4387.6592 2835796
-2680.7683 1321.9731 4142.5835 3559775
-2801.3411 1394.2365 4369.0303 3560032
-2668.8054 1340.7004 4201.2681 3888995
0 0 0 0
-2719.4829 1392.2102 4362.6807 3888484
-2698.1565 1394.589 4370.1348 3954533
-2644.7273 1380.2599 4325.2329 3888484
-2629.2407 1385.646 4342.1108 3822692
-2601.4473 1384.5886 4338.7974 3691364
-2601.405 1398.428 4382.165 3822693
-2585.6079 1403.9924 4399.6021 3888743
-2552.4478 1400.1462 4387.5493 3888743
-2531.251 1402.8506 4396.0239 3888743
-2505.8142 1403.2374 4397.2358 3954793
-2482.6155 1404.8986 4402.4414 3954536
-2462.7039 1408.4751 4413.6489 3822950
-2431.8831 1405.8223 4405.3359 3888743
-2404.4763 1405.1069 4403.0942 3954536
-2365.4595 1397.5164 4379.3081 3954536
-2338.7537 1397.1113 4378.0391 3822950
-2307.8838 1394.1816 4368.8584 3625571
-2273.5054 1389.0416 4352.7515 3428193
-2274.3059 1405.524 4404.4014 3362399
-2259.2939 1412.5044 4426.2754 3296606
-2231.4438 1411.5282 4423.2163 3296606
-2202.72 1409.9695 4418.3315 3296606
-2201.7175 1426.3317 4469.605 3756900
-2168.0842 1421.6962 4455.0791 3625570
-2144.0439 1423.3147 4460.1509 3428190
-2128.9382 1430.979 4484.168 3493983
-2101.1643 1430.2145 4481.7725 3164761
-2059.9277 1420.149 4450.231 3625056
-2037.1647 1422.7235 4458.2983 3559519
-2008.9275 1421.4923 4454.4404 3625312
-2004.9285 1437.608 4504.9409 3691105
-1947.7745 1415.5298 4435.7559 3625570
-1921.3346 1415.4734 4435.5791 3428191
-1897.8691 1417.6371 4442.3594 3493985
-1865.2167 1412.9027 4427.5234 3625571
-1849.8624 1421.3239 4453.9121 3559775
-1807.4795 1408.9207 4415.0449 3362141
-1780.6089 1408.4219 4413.4824 3165018
-1755.6609 1409.4518 4416.7095 3164761
-1723.8259 1404.9001 4402.4463 3164761
-1700.8212 1407.5156 4410.6421 3164761
-1669.9404 1403.5931 4398.3506 3559776
-1644.9154 1404.5459 4401.3364 3362140
-1623.4464 1408.615 4414.0874 3428190
-1588.1187 1400.5955 4388.957 3559519
-1560.1006 1398.8623 4383.5259 3362140
-1536.2013 1400.826 4389.6797 3427677
-1506.451 1397.4299 4379.0376 3756898
-1482.8103 1399.6818 4386.0938 3493983
-1454.3405 1397.3741 4378.8623 3362140
-1430.9421 1399.9438 4386.915 3691106
-1403.3259 1398.4061 4382.0962 3559519
-1374.9491 1396.0377 4374.6748 3559519
-1353.7631 1401.02 4390.2871 3822691
-1329.2402 1402.677 4395.4795 3625312
-1297.2736 1396.3877 4375.7715 3296091
-1267.1393 1391.8539 4361.564 3164248
-1255.7946 1408.2006 4412.7886 3625057
-1228.842 1407.3694 4410.1841 3625312
-1207.6217 1413.21 4428.4863 3625568
-1176.6655 1407.6636 4411.106 3691361
-1151.5437 1409.0033 4415.3042 3559775
-1128.0768 1412.4777 4426.1914 3691361
-1106.8289 1418.9625 4446.5127 3493981
-1077.3555 1414.9618 4433.9756 3625054
-1044.8341 1406.6569 4407.9512 3361624
-1027.2391 1418.537 4445.1792 3361624
-1004.2346 1423.3768 4460.3457 2901073
-976.04858 1420.936 4452.6968 3164245
-950.10254 1421.7109 4455.125 3691103
-923.33844 1421.2711 4453.7471 3625311
-897.1806 1421.766 4455.2979 3691104
-868.43396 1418.0637 4443.6963 3427674
-845.80829 1424.4376 4463.6699 3427673
-816.07318 1418.8635 4446.2026 3097938
-796.39417 1430.9856 4484.189 2505802
-778.23065 1446.7643 4533.6333 2637388
-742.34296 1429.5431 4479.6685 3163989
-712.81036 1423.734 4461.4648 3295575
-687.41022 1426.0491 4468.7192 2966354
-669.6543 1445.0455 4528.2471 3295320
-645.6109 1451.4968 4548.4634 3295833
-613.13184 1438.7179 4508.4189 3295577
-585.7962 1437.3915 4504.2622 2440782
-564.63477 1451.8135 4549.4556 2901588
-528.60553 1427.5348 4473.375 2901587
-515.72766 1466.5173 4595.5322 2901587
-485.94302 1459.0953 4572.2744 3625310
-454.7121 1446.1945 4531.8477 3625567
-427.30649 1444.6012 4526.855 3098710
-407.16803 1469.0127 4603.3521 3296089
-375.99423 1454.2593 4557.1196 3559518
-349.1427 1455.2305 4560.1631 3822691
-322.07724 1455.3984 4560.6895 3691362
-295.29813 1457.01 4565.7397 3559776
-268.21375 1457.2892 4566.6147 3427934
-242.87247 1468.1682 4600.7056 3560287
-219.5089 1495.2799 4685.6636 3560288
-189.06929 1475.0649 4622.3174 3362909
-159.4993 1455.9147 4562.3071 3560032
-132.37273 1455.7913 4561.9209 3955045
-105.98197 1465.7812 4593.2256 3954275
-79.291115 1477.1128 4628.7344 4151398
-51.677647 1474.1659 4619.5 4085348
-24.569616 1495.2996 4685.7251 4085092
3.2577801 1485.5035 4655.0278 4150629
30.882372 1483.4934 4648.729 3361371
58.839302 1491.8076 4674.7827 1979460
87.040161 1498.9895 4697.2881 3295575
114.96635 1499.1014 4697.6392 3426135
142.22505 1492.1666 4675.9077 1452087
170.34293 1495.0396 4684.9106 2636361
198.09151 1494.3195 4682.6538 2044481
227.0399 1501.7128 4705.8218 2373702
253.59901 1493.4141 4679.8169 3228241
281.22385 1492.4114 4676.6748 661285
317.45566 1533.1567 4804.356 1253419
341.07867 1511.3079 4735.8896 3755099
374.48349 1532.8291 4803.3291 4085092
399.60336 1519.7915 4762.4741 3888484
426.86737 1516.0942 4750.8882 3822691
451.3638 1503.636 4711.8486 4020584
475.37482 1491.1107 4672.5991 4085863
505.17746 1497.132 4691.4673 4085863
526.65894 1479.153 4635.1274 2309452
555.99799 1483.9327 4650.1055 3559775
583.17334 1482.7585 4646.4263 3954534
612.76746 1487.5623 4661.4795 4283756
643.35889 1494.2667 4682.4888 4349550
672.07788 1496.2467 4688.6934 4415342
700.80322 1498.0826 4694.4463 4415086
728.3335 1497.321 4692.0601 4349294
758.31714 1501.4734 4705.0718 4415344
786.82172 1502.5059 4708.3071 4415087
809.65454 1493.0088 4678.5469 4415087
843.26019 1503.3479 4710.9458 4480623
869.97186 1501.127 4703.9863 4349037
892.9104 1492.7367 4677.6938 4283501
925.25232 1500.0986 4700.7637 4349037
949.29498 1493.9679 4681.5522 4414830
973.24927 1488.0511 4663.0112 4349037
1004.1055 1492.7224 4677.6494 3559521
1008.1342 1458.3345 4569.8901 3427935
1052.687 1482.8336 4646.6616 3362142
1072.4385 1472.0377 4612.8311 3493985
1099.0208 1470.9224 4609.3359 3954536
1113.9279 1454.6152 4558.2354 4020330
1138.3737 1451.2428 4547.6675 3625571
1128.2528 1404.9822 4402.7031 3558750
1132.335 1378.104 4318.4771 3029577
1096.6464 1305.0874 4089.6694 17
1130.5137 1316.219 4124.5518 11
1153.302 1314.2529 4118.3906 11
1168.3269 1303.7056 4085.3394 6
1181.5309 1291.5972 4047.3958 7
1225.1326 1312.5382 4113.0176 5
1225.3429 1287.0824 4033.2485 4
1275.0109 1313.5562 4116.2075 4
1271.8215 1285.603 4028.6128 4
1294.8922 1284.7373 4025.8997 2
1316.1753 1282.1614 4017.8276 2
1339.2666 1281.4073 4015.4648 0
1361.9973 1280.3409 4012.1228 0
1387.0696 1281.4742 4015.6743 65536
1409.179 1279.8784 4010.6736 65536
1427.8009 1275.2208 3996.0784 65536
1451.3396 1275.035 3995.4963 0
1443.0248 1247.3217 3908.6528 0
1459.6642 1241.715 3891.0833 0
1479.6945 1239.1224 3882.9592 0
1546.3741 1275.0747 3995.6206 0
1528.5021 1241.2761 3889.7083 2
1593.3647 1274.6714 3994.3569 2
1616.2316 1273.9833 3992.2004 2
1591.2991 1236.1827 3873.7471 2
1613.6322 1235.6544 3872.0918 2
1638.8337 1237.3066 3877.269 4
1720.3177 1280.8165 4013.6135 5
1743.317 1280.1886 4011.6458 5
1769.9558 1282.2144 4017.9937 6
1798.6923 1285.6854 4028.8708 6
1824.09 1286.7102 4032.082 9
1858.0068 1293.6399 4053.7971 9
1906.9564 1310.7246 4107.3345 12
1857.0646 1260.2988 3949.3184 198163
1941.1954 1300.9512 4076.7078 2899532
1975.3518 1307.5221 4097.2988 4413547
2120.6982 1386.6353 4345.2109 4414060
2299.208 1485.2683 4654.291 4150890
2408.7581 1537.5385 4818.0864 4085095
2541.6729 1603.3188 5024.2188 4019302
2636.9695 1644.1176 5152.0669 4150888
2673.2043 1647.5779 5162.9102 3953253
2748.8335 1674.964 5248.7285 3689568
2789.8135 1680.8595 5267.2026 3689568
2903.4771 1729.9298 5420.9712 3821154
2958.74 1743.5094 5463.5244 3689569
3003.9546 1750.9369 5486.7998 3491930
3075.3936 1773.3264 5556.9604 3492186
3094.9424 1765.6372 5532.8652 3623769
3144.4194 1775.0039 5562.2173 3688793
3160.3123 1765.4153 5532.1694 4083551
3176.491 1756.1818 5503.2349 3293778
3203.6609 1753.1514 5493.7388 1977404
3237.2249 1753.6458 5495.2886 2569284
3312.7168 1776.6165 5567.27 3096398
3340.4277 1773.761 5558.3223 3885912
3382.761 1778.6501 5573.6431 3161674
3430.1306 1786.0667 5596.8838 2766912
3494.7229 1802.2225 5647.5103 3424581
3523.781 1799.9203 5640.2959 2897722
3583.8406 1813.348 5682.373 1975335
3616.6643 1812.8721 5680.8823 922389
3684.2021 1829.6454 5733.4434 131844
3910.9487 1924.4525 6030.5342 131843
3957.5798 1929.7133 6047.02 328451
4004.8933 1935.2094 6064.2427 196865
4036.3342 1933.0059 6057.3379 131072
4067.5312 1930.7257 6050.1924 131072
4105.7178 1931.7742 6053.478 131072
4140.0703 1931.016 6051.1021 131072
4366.0874 2018.8975 6326.4907 131072
4364.6963 2001.0215 6270.4741 131072
4402.0728 2001.0712 6270.6294 65536
4439.6299 2001.2013 6271.0371 65536
4477.5767 2001.5032 6271.9834 0
4474.3882 1983.5645 6215.77 0
4506.9482 1981.6377 6209.7319 0
4527.1099 1974.3348 6186.8477 0
4531.6553 1960.3943 6143.1631 0
4558.2812 1956.1522 6129.8701 0
4590.9121 1954.5339 6124.7988 0
4619.4648 1951.2185 6114.4097 0
4654.6494 1950.7344 6112.8921 0
4642.6201 1930.6237 6049.873 0
4684.4453 1933.0454 6057.4619 0
4703.9746 1926.3002 6036.3242 0
4697.7051 1909.172 5982.6509 0
4687.1523 1890.5736 5924.3701 0
4557.3525 1824.5123 5717.3584 0
4587.4067 1822.9523 5712.4697 0
4586.9331 1809.3729 5669.917 0
4590.0522 1797.3987 5632.394 0
4627.3838 1798.8978 5637.0918 3
4628.4844 1786.3917 5597.9023 262
4652.3794 1782.7992 5586.6445 791324
4732.6655 1800.7134 5642.7812 1648179
4873.5742 1841.2794 5769.9004 1976892
5117.1499 1919.796 6015.9429 3030352
5108.8433 1903.3801 5964.5015 2898766
5282.0806 1954.3616 6124.2588 2964559
5232.0415 1922.5988 6024.7256 2701388
5328.9043 1944.8822 6094.5537 3096656
5422.085 1965.5299 6159.2563 2569287
5590.5728 2013.0168 6308.063 1713204
5748.1978 2055.9858 6442.7119 2832457
5854.0986 2080.0081 6517.9888 2569285
5913.9326 2087.4539 6541.3218 529443
5939.7847 2082.8867 6527.0093 330775
6013.75 2095.1406 6565.4087 857636
6080.6074 2104.7761 6595.6035 2042680
6135.0913 2110.033 6612.0757 2042681
6379.0938 2179.9883 6831.291 2108476
6499.541 2207.1028 6916.2573 1317670
6583.2446 2221.4771 6961.3018 462100
6516.8901 2185.3521 6848.0986 857895
6501.2979 2166.592 6789.3115 1450290
6638.125 2198.5447 6889.4399 2437441
6573.02 2163.636 6780.0483 1450291
0 0 0 0
0 0 0 0
0 0 0 0
0 0 0 0
0 0 0 0
0 0 0 0
-4035.5066 1472.5917 4530.1953 2965584
-3876.8215 1424.1881 4381.2896 3031376
0 0 0 0
-3883.1003 1445.9185 4448.1392 2900047
-3786.7275 1419.6984 4367.4775 2768204
-3847.9829 1452.6215 4468.7603 2965583
-3809.9092 1448.2445 4455.2949 3163221
-3724.71 1425.7673 4386.1475 3163735
-3773.5481 1454.6427 4474.978 3295064
-3688.4395 1431.9269 4405.0967 3558750
-3523.053 1377.4982 4237.6553 3690336
-3642.5811 1434.488 4412.9756 3558750
-3464.7085 1374.3357 4227.9263 3624798
-3365.2329 1344.629 4136.5386 3624286
-3416.3557 1375.1018 4230.2832 3558749
-3417.5229 1385.7698 4263.1016 3558493
-3132.6372 1279.7395 3936.9163 3690079
-3432.6841 1412.8672 4346.4624 3690336
-3258.6792 1351.4182 4157.4243 3493471
-3330.4805 1391.748 4281.4927 3427678
-3196.0925 1345.8728 4140.3647 3362398
-3194.6206 1355.6908 4170.5684 3362399
-3108.657 1329.5266 4090.0784 3493985
-3069.0867 1322.948 4069.8401 3822693
-3028.9688 1316.0269 4048.5486 3888743
-3007.0081 1316.9471 4051.3796 4085863
-3135.4988 1384.3059 4258.5981 3954790
-2928.7029 1303.5288 4010.1003 4020327
-2916.0789 1308.5588 4025.5745 4020583
-2856.2439 1292.3116 3975.5923 3954790
-2871.5181 1310.0598 4030.1919 3954276
-2825.9258 1300.1044 3999.5654 3954274
-2807.0991 1302.3983 4006.6223 3888225
-2816.0881 1317.7474 4053.8413 3954275
-2719.1719 1283.377 3948.106 4085860
-2705.3904 1287.9871 3962.2883 3954532
-2680.1682 1287.1836 3959.8169 3954533
-2668.054 1292.7169 3976.8391 4020325
-2660.1533 1300.4089 4000.5024 4086118
-2638.9463 1301.6763 4004.4011 4151654
-2611.1562 1299.6901 3998.2908 4020582
-2636.0483 1324.1305 4073.478 3954790
-2646.5505 1341.7286 4127.6157 3954534
-2632.9436 1347.3191 4144.814 3888485
-2624.2834 1355.5703 4170.1978 3888486
-2623.5244 1368.0992 4208.7407 3888487
-2601.3887 1369.6146 4213.4028 3888744
-2573.9878 1368.3605 4209.5444 3888745
-2552.9475 1370.4962 4216.1147 3888744
-2536.4512 1375.1378 4230.394 3889000
-2507.9814 1373.316 4224.7896 3888743
-2454.1206 1357.4131 4175.8667 3954537
-2442.5935 1364.8401 4198.7144 3954536
-2435.6584 1375.0125 4230.0083 3888743
-2417.1702 1378.807 4241.6816 3954537
-2387.0305 1375.9655 4232.9399 3954536
-2366.3345 1378.5646 4240.936 3691364
-2341.498 1378.7819 4241.6045 3559780
-2317.0698 1379.2468 4243.0347 3559780
-2289.8945 1378.0688 4239.4106 3691366
-2266.7798 1379.3353 4243.3071 3625572
-2242.4351 1379.8738 4244.9634 3625827
-2222.209 1382.9874 4254.542 3494242
-2201.3984 1385.8049 4263.2095 3493985
-2184.9048 1391.437 4280.5361 3296606
-2161.2617 1392.5955 4284.0996 3165277
-2141.2158 1396.1268 4294.9634 3428448
-2128.7009 1404.713 4321.3774 3493985
-2103.5449 1405.0654 4322.4614 3427936
-2077.5342 1404.8484 4321.7939 3559519
-2045.5551 1400.5394 4308.5381 3625312
-2033.5028 1409.9379 4337.4507 3493726
-1974.9248 1386.9045 4266.5923 3493726
-1965.7511 1398.4178 4302.0112 3493726
-1944.2295 1401.3345 4310.9839 3493726
-1899.0835 1387.0742 4267.1143 3164764
-1874.5938 1387.719 4269.0981 3427935
-1846.4884 1385.6683 4262.7896 3493728
-1819.9838 1384.7786 4260.0522 3559521
-1794.5248 1384.6707 4259.7202 3493985
-1765.5248 1381.7881 4250.8525 3494238
-1740.2855 1381.8079 4250.9136 3560288
-1706.682 1375.0892 4230.2446 3823204
-1679.46 1373.3882 4225.0112 3823204
-1656.0425 1374.7937 4229.3354 3822948
-1643.2205 1385.1743 4261.2695 3757155
-1608.3386 1376.9932 4236.1016 3691620
-1585.9619 1379.4285 4243.5933 3823205
-1560.3817 1379.1111 4242.6172 3757412
-1536.0414 1379.8971 4245.0352 3822949
-1509.8456 1379.0148 4242.3208 3823207
-1488.9142 1382.9923 4254.5571 3691364
-1463.6929 1383.0538 4254.7461 3559779
-1441.355 1385.8898 4263.4707 3559779
-1422.9052 1392.6326 4284.2139 3757157
-1392.8112 1388.0171 4270.0151 3559778
-1363.1823 1383.7024 4256.7417 3493985
-1340.7405 1386.6578 4265.8335 3493985
-1320.5127 1392.061 4282.4556 3691364
-1288.9327 1385.4742 4262.1924 3889000
-1265.6388 1387.7085 4269.0654 3954536
-1233.3209 1379.9374 4245.1592 4020583
-1213.3359 1385.9292 4263.5918 3888997
-1187.5071 1385.3586 4261.8369 3888998
-1170.3546 1395.1062 4291.8232 3954790
-1140.7686 1390.1364 4276.5347 3757411
-1118.0571 1393.5084 4286.9082 3560032
-1090.4795 1390.8313 4278.6724 3560032
-1071.9628 1399.8586 4306.4438 3493983
-1046.0706 1399.4607 4305.2192 3428189
-1017.5801 1395.4796 4292.9722 3165018
-994.91888 1399.4932 4305.3193 3428447
-970.7934 1401.6046 4311.8149 3691362
-945.76605 1402.4934 4314.5488 3756898
-926.48633 1412.1924 4344.3862 3625312
-901.63245 1413.7074 4349.0474 3362140
-878.37726 1417.8927 4361.9224 3230555
-851.67365 1416.5966 4357.9351 3099225
-825.15002 1415.5281 4354.6479 2770003
-799.45929 1415.8654 4355.6855 3362397
-778.48364 1424.8551 4383.3413 3559517
-755.57202 1430.8014 4401.6343 3493468
-725.99335 1424.0963 4381.0068 3493467
-702.68567 1429.6509 4398.0947 3559260
-672.4668 1421.0303 4371.5747 3690847
-651.96063 1433.0662 4408.6016 3493726
-624.29553 1429.7152 4398.2925 3625312
-598.50989 1430.5634 4400.9019 3822691
-574.7179 1436.4724 4419.0801 3888484
-548.62708 1436.9263 4420.4761 3888484
-522.17297 1436.4263 4418.9385 3888484
-495.84003 1436.2246 4418.3179 3888740
-472.44382 1444.9824 4445.2598 3691362
-444.77954 1440.9504 4432.856 3757155
-417.19434 1436.6829 4419.7275 3822691
-392.5809 1442.7635 4438.4336 4020070
-364.58484 1436.3931 4418.8359 4020327
-339.77151 1442.5464 4437.7656 3954534
-314.00812 1445.3624 4446.4287 3954277
-287.39249 1444.4126 4443.5068 3822691
-260.05441 1439.2725 4427.6938 3756899
-234.0007 1440.8831 4432.6489 4086118
-208.22105 1444.8043 4444.7119 4086631
-181.94823 1445.9457 4448.2231 3954788
-155.64041 1447.1499 4451.9277 3822689
-129.70744 1453.0465 4470.0679 3822947
-103.44651 1457.3606 4483.3394 4020326
-76.275139 1447.392 4452.6724 4020325
-49.768101 1446.1346 4448.8042 4020583
-23.51811 1457.9622 4485.1899 4151656
3.1393178 1458.1466 4485.7573 4085863
29.774914 1456.9327 4482.0229 4019814
56.422779 1457.1823 4482.7905 3690848
84.874023 1488.9075 4580.3882 3887712
112.21903 1490.5304 4585.3809 4282470
140.1727 1498.0236 4608.4326 3887711
167.57953 1498.1785 4608.9092 3624027
193.74232 1488.7306 4579.8442 3558490
221.01089 1489.0605 4580.8594 3821919
247.41931 1484.1586 4565.7788 3887711
279.96661 1513.4102 4655.7671 3887714
304.09708 1495.9935 4602.1875 3624284
331.47418 1496.1051 4602.5308 3954278
357.33722 1489.8868 4583.4014 4217449
384.50427 1489.6016 4582.5234 4152426
409.66251 1482.0863 4559.4038 4086376
435.23978 1476.9255 4543.5278 4020583
466.6969 1491.1544 4587.3008 3954790
492.9115 1487.9869 4577.5562 3954277
517.68719 1481.0342 4556.1675 3822948
540.27039 1468.8119 4518.5674 3756642
568.36755 1472.0281 4528.4614 4349035
595.02167 1471.3848 4526.4824 4415087
620.00555 1466.8457 4512.519 4349294
649.87189 1473.7555 4533.7754 4415087
678.48395 1477.3835 4544.937 4480880
705.88696 1478.2021 4547.4551 4480880
732.56177 1477.4917 4545.2695 4546673
760.14276 1478.5944 4548.6616 4546673
785.91626 1476.2262 4541.3765 4546673
813.58069 1477.4491 4545.1387 4415087
839.10864 1474.8385 4537.1074 4349295
866.91437 1476.2692 4541.5088 4283501
893.30023 1475.2686 4538.4302 4414830
918.22192 1471.9794 4528.3115 4414830
938.24188 1461.2434 4495.2842 4414831
960.22479 1454.0746 4473.2305 4282989
979.10071 1442.7139 4438.2808 4282989
1012.9093 1453.3752 4471.0791 4152174
1034.6256 1446.5845 4450.1885 4152173
1055.3553 1438.7874 4426.2017 4086124
1078.6562 1434.7894 4413.9028 4086125
1092.5013 1418.7023 4364.4131 4020330
1103.0629 1399.1962 4304.4058 4085093
1117.5063 1385.387 4261.9238 1119007
1096.2838 1328.9542 4088.3174 11
1132.5612 1343.1608 4132.0215 10
1158.2062 1344.4226 4135.9033 8
1183.5167 1345.2517 4138.4541 6
1205.4501 1342.2865 4129.332 4
1227.9392 1340.0461 4122.4399 4
1249.8745 1337.3009 4113.9946 4
1247.4952 1309.1449 4027.3772 5
1270.7443 1308.4374 4025.2007 5
1293.8364 1307.5975 4022.6169 3
1315.9869 1305.8538 4017.2527 2
1336.8297 1302.8977 4008.1584 2
1360.7823 1303.0228 4008.5437 1
1384.6826 1303.0945 4008.7642 0
1407.9701 1302.5968 4007.2329 0
1427.0087 1298.25 3993.8608 0
1447.6077 1295.4421 3985.2227 0
1471.6945 1295.7954 3986.3093 0
1495.0909 1295.5392 3985.5215 0
1494.6829 1274.9855 3922.291 0
1517.489 1274.561 3920.9854 0
1540.8683 1274.6235 3921.1775 2
1565.5896 1275.7776 3924.728 2
1585.2618 1272.844 3915.7031 2
1607.3986 1271.9453 3912.9387 2
1662.3174 1296.6429 3988.917 2
1686.7114 1297.171 3990.5415 4
1713.0208 1299.137 3996.5894 5
1735.8715 1298.4619 3994.5127 5
1763.6963 1301.4757 4003.7842 5
1792.469 1305.0992 4014.9316 7
1819.5062 1307.3807 4021.95 9
1845.0973 1308.5774 4025.6311 10
1875.9446 1313.4233 4040.5391 12
1909.0677 1319.7203 4059.9106 13
1937.355 1322.5585 4068.6421 526
1923.4172 1296.8569 3989.5752 4610925
2060.2478 1372.1984 4221.3511 4545901
2196.644 1445.441 4446.6709 4349041
2253.1753 1465.014 4506.8838 4414576
2344.6387 1506.5732 4634.7344 4216941
2405.3501 1527.6367 4699.5327 4348270
2466.1816 1548.292 4763.0757 4282477
2554.9211 1585.8007 4878.4648 4282731
2623.6782 1610.2037 4953.5371 4084839
2644.3083 1604.8566 4937.0874 3689568
