# .PCD v0.7 - Point Cloud Data file format
VERSION 0.7
FIELDS x y z rgb
SIZE 4 4 4 4
TYPE F F F U
COUNT 1 1 1 1
WIDTH 1547
HEIGHT 1
VIEWPOINT 0 0 0 1 0 0 0
POINTS 1547
DATA ascii
0 0 0 0
0 0 0 0
0 0 0 0
0 0 0 0
0 0 0 0
0 0 0 0
0 0 0 0
2108.1069 -1431.9518 19577.508 1119252
2162.4133 -1392.0085 19031.408 2566699
2260.3943 -1382.7537 18904.875 2
2449.0254 -1427.2026 19512.578 2
2574.7454 -1432.6278 19586.75 2
2634.564 -1402.5011 19174.861 66051
2815.6411 -1436.7478 19643.078 4145731
0 0 0 0
3084.8481 -1453.577 19873.166 256
3183.2017 -1444.6097 19750.566 0
0 0 0 0
3359.6233 -1419.9491 19413.408 394758
3452.1406 -1410.6068 19285.682 0
3584.1516 -1417.4841 19379.707 0
3735.1943 -1431.2256 19567.58 0
3812.7007 -1416.8109 19370.504 0
3935.4653 -1419.5665 19408.178 263172
4059.2456 -1422.521 19448.57 0
4153.1309 -1415.1256 19347.461 0
4234.7007 -1404.0452 19195.971 0
4315.5098 -1393.3008 19049.074 197378
4423.4795 -1391.6505 19026.512 0
4543.3813 -1393.7429 19055.119 0
4703.2607 -1407.6989 19245.924 0
4729.937 -1382.0707 18895.537 0
4854.8481 -1385.6693 18944.738 0
4972.5469 -1387.093 18964.203 256
5060.4473 -1380.3256 18871.678 256
5293.2583 -1412.5215 19311.857 592651
5597.9492 -1462.1249 19990.031 257
5556.5991 -1421.1627 19430 2967100
5584.4922 -1399.2175 19129.969 2764332
5764.874 -1415.5927 19353.848 256
5902.5991 -1421.0574 19428.561 256
6050.1753 -1428.6385 19532.209 256
6169.1465 -1429.3068 19541.346 256
6277.3384 -1427.499 19516.631 770
6429.2124 -1435.5105 19626.162 772
0 0 0 0
0 0 0 0
0 0 0 0
0 0 0 0
0 0 0 0
0 0 0 0
0 0 0 0
0 0 0 0
0 0 0 0
6954.7744 -1314.3884 17970.191 67084
7091.8359 -1320.0204 18047.193 5201251
0 0 0 0
7320.8936 -1322.6466 18083.098 3423553
7475.5962 -1331.0558 18198.068 1250584
7616.4888 -1336.8013 18276.619 4
7886.98 -1364.8118 18659.576 4
7925.6318 -1352.4828 18491.016 3
8110.7856 -1365.1492 18664.189 2
8311.7588 -1380.1006 18868.604 256
8448.6592 -1384.1567 18924.059 256
8564.9395 -1384.7725 18932.477 256
8716.5479 -1391.0099 19017.754 256
8848.6973 -1394.0221 19058.936 256
9016.792 -1402.5494 19175.521 256
9052.0684 -1390.462 19010.264 256
9194.7139 -1394.9618 19071.785 256
9417.2832 -1411.3301 19295.57 0
9557.3066 -1415.0825 19346.873 256
9641.3789 -1410.5599 19285.041 256
9655.5283 -1396.0338 19086.441 256
9704.3857 -1386.8051 18960.266 256
9699.1953 -1370.1532 18732.604 256
9748.7881 -1361.5303 18614.711 256
9617.832 -1328.168 18158.586 256
9874.251 -1348.447 18435.838 256
10043.279 -1356.4775 18545.631 256
10172.256 -1358.9829 18579.885 256
10218.116 -1350.4497 18463.219 2
10165.596 -1329.2338 18173.156 1
10083.376 -1304.6212 17836.656 2
10100.423 -1293.2306 17680.926 257
9677.6846 -1226.3457 16766.48 2
9578.6279 -1201.4225 16425.732 5
9286.3779 -1153.015 15763.911 261
9607.1641 -1180.9301 16145.563 264204
10146.573 -1234.9008 16883.445 462353
9802.5254 -1181.3451 16151.237 5073260
10463.157 -1248.7323 17072.549 6588557
11183.722 -1321.9092 18073.016 8956850
10540.202 -1233.9937 16871.043 8562091
9591.8223 -1112.3799 15208.352 9873585
8478.1299 -974.04419 13317.039 65798
8326.9287 -947.8244 12958.564 7
8714.3281 -982.83044 13437.163 518
8673.8984 -969.38666 13253.361 790288
8340.5381 -923.74194 12629.312 3357756
8853.3965 -971.79718 13286.317 8294814
9328.4609 -1014.8907 13875.489 197379
9562.4453 -1031.2306 14098.887 197637
9412.4961 -1006.2423 13757.248 259
9660.3379 -1023.8439 13997.896 1251100
9626.0459 -1011.4985 13829.111 395274
9786.8477 -1019.689 13941.09 66307
9677.4102 -999.82208 13669.472 258
9777.0371 -1001.7056 13695.224 2
9853.6436 -1001.2191 13688.571 2
9949.0107 -1002.631 13707.876 256
9984.9453 -998.07935 13645.646 256
10032.843 -994.78711 13600.635 256
10107.562 -994.18573 13592.412 256
10187.247 -994.07849 13590.946 256
10260.781 -993.37738 13581.36 256
10318.106 -991.13031 13550.639 256
10347.486 -986.25446 13483.977 256
10346.412 -978.57312 13378.958 256
10145.809 -952.28119 13019.497 256
10544.612 -982.22168 13428.841 132100
10395.69 -961.07526 13139.729 66051
11164.11 -1024.4197 14005.768 5402217
10036.927 -914.17297 12498.486 1512468
10500.938 -949.40912 12980.23 65794
10533.158 -945.37695 12925.103 2
10571.805 -941.97571 12878.602 257
10227.36 -904.73431 12369.441 256
10586.223 -929.79645 12712.089 723980
10658.498 -929.51074 12708.182 66050
10589.898 -917.02997 12537.546 2237733
10615.224 -912.80011 12479.716 258
10995.466 -938.93652 12837.05 1
10641.515 -902.44958 12338.204 0
11129.955 -937.41193 12816.206 1777953
11322.488 -947.14581 12949.287 258
11328.947 -941.2879 12869.198 260
11492.225 -948.45087 12967.129 66309
11821.55 -969.1308 13249.864 261
11953.371 -973.453 13308.956 395275
12779.906 -1033.9221 14135.685 5
12861.254 -1033.708 14132.756 261
13991.109 -1117.2222 15274.555 774
14527.151 -1152.548 15757.526 528660
16566.5 -1305.9259 17854.494 6846586
0 0 0 0
0 0 0 0
0 0 0 0
0 0 0 0
0 0 0 0
0 0 0 0
0 0 0 0
0 0 0 0
0 0 0 0
0 0 0 0
-9416.5098 -696.41339 10363.394 0
-9742.3008 -725.25159 10792.538 0
-9737.7188 -729.71497 10858.958 0
-9614.377 -725.27905 10792.946 0
-9521.4609 -723.09424 10760.434 0
-9487.3389 -725.37488 10794.373 0
-9503.7188 -731.57428 10886.626 0
-12243.894 -948.96741 14121.674 0
-12123.63 -946.13184 14079.478 0
-9471.3379 -744.28333 11075.751 0
-9527.207 -753.91351 11219.059 0
-9476.085 -755.15314 11237.506 0
-9547.4697 -766.24243 11402.526 0
-9509.3018 -768.63501 11438.131 0
-9469.1221 -770.89838 11471.812 0
-9412.8711 -771.87671 11486.371 0
-9356.0498 -772.8222 11500.44 0
-9317.1504 -775.27283 11536.908 0
-9283.8066 -778.22546 11580.848 0
-9234.7607 -779.8963 11605.711 0
-9184.4131 -781.48132 11629.298 0
-9133.166 -783.01343 11652.097 0
-9075.4619 -784.01105 11666.942 0
-9017.5508 -785.00598 11681.749 0
-8960.6475 -786.1048 11698.101 65536
-8952.1436 -791.50006 11778.387 65536
-8891.5527 -792.33881 11790.869 65536
-8829.7412 -793.08124 11801.917 65536
-8767.0205 -793.75323 11811.917 65536
-8718.3086 -795.71472 11841.105 65536
-8659.9902 -796.82404 11857.614 0
-8610.1406 -798.73737 11886.086 0
-8574.7637 -802.03589 11935.173 0
-8440.5176 -796.06482 11846.315 0
-8366.54 -795.7251 11841.261 0
-7940.6846 -761.62946 11333.88 0
-7870.2666 -761.33368 11329.479 0
-7833.5854 -764.32458 11373.987 0
-8181.3076 -805.20038 11982.264 0
-8110.1748 -805.20856 11982.385 0
-8024.1528 -803.72552 11960.315 0
-7978.7324 -806.31903 11998.91 0
-7920.7983 -807.68329 12019.212 0
-7835.7295 -806.2804 11998.335 0
-7778.7871 -807.77234 12020.537 0
-7743.5278 -811.56451 12076.969 0
-7664.0986 -810.75507 12064.924 0
-7583.2607 -809.77991 12050.412 0
-7508.0889 -809.39691 12044.713 0
-7436.3696 -809.38257 12044.498 0
-7362.5161 -809.13312 12040.787 0
-7289.5913 -808.98193 12038.537 0
-7205.3354 -807.55786 12017.345 0
-7135.4404 -807.73083 12019.919 0
-7069.3872 -808.34662 12029.083 0
-7005.1489 -809.18457 12041.553 0
-6935.4458 -809.40222 12044.791 0
-6866.2363 -809.6825 12048.962 0
-6792.8911 -809.47589 12045.887 65536
-6724.4238 -809.85217 12051.487 65536
-6670.2837 -811.98077 12083.163 65536
-6606.9697 -813.02692 12098.73 65536
-6557.2344 -815.78522 12139.777 65536
-6516.311 -819.71344 12198.233 0
-6464.1558 -822.30121 12236.743 0
-6395.9277 -822.88007 12245.356 0
-6342.6826 -825.42212 12283.186 0
-6291.1904 -828.25415 12325.328 0
-6230.7251 -829.95758 12350.678 0
-6182.5669 -833.36047 12401.317 0
-6120.3364 -834.9259 12424.612 0
-6068.7324 -837.99689 12470.312 65536
-6018.7695 -841.37323 12520.555 65536
-5973.8096 -845.54224 12582.594 65536
-5931.1831 -850.15131 12651.183 65536
-5897.7222 -856.20941 12741.334 65536
-5853.9541 -860.9093 12811.273 0
-5801.7676 -864.47876 12864.391 0
-5748.7856 -868.02338 12917.139 0
-5704.4702 -872.99023 12991.051 0
-5669.9204 -879.60846 13089.537 0
-5630.6494 -885.66815 13179.712 0
-5605.7944 -894.19836 13306.65 0
-5558.5386 -899.34833 13383.288 0
-5507.5933 -904.0423 13453.139 0
-5460.2197 -909.46942 13533.9 0
-5428.8535 -917.76483 13657.346 0
-5383.7183 -923.94922 13749.376 0
-5339.3281 -930.45404 13846.175 65536
-5299.7554 -938.01508 13958.691 65536
-5274.2607 -948.34796 14112.456 65536
-5237.0635 -956.87659 14239.371 65536
-5187.0596 -963.30701 14335.063 65536
-5140.1592 -970.53827 14442.673 65536
-5092.522 -977.8736 14551.83 65536
-5046.9531 -985.86633 14670.771 65536
-5001.0522 -994.07422 14792.913 65536
-4951.9434 -1001.9268 14909.768 0
-4898.8369 -1009.2418 15018.624 0
-4834.9663 -1014.5698 15097.91 0
-4775.291 -1020.9962 15193.541 0
-4722.3979 -1029.1484 15314.854 256
-4651.7905 -1033.6846 15382.358 256
-4589.5752 -1040.3049 15480.877 256
-4534.8281 -1048.9236 15609.131 256
-4488.3604 -1059.8572 15771.836 256
-4424.4771 -1067.0571 15878.979 256
-4363.9307 -1075.3933 16003.03 256
-4323.71 -1089.2213 16208.806 256
-4265.687 -1099.0928 16355.703 256
-4195.4604 -1106.2067 16461.566 256
-4121.2764 -1112.592 16556.588 256
-4040.2075 -1117.3856 16627.922 256
-3965.467 -1124.2137 16729.531 256
-3767.9421 -1095.6884 16305.042 256
-3897.7246 -1163.3479 17311.891 256
-3759.6292 -1152.5554 17151.287 0
-3692.4153 -1163.4965 17314.102 256
-3605.7949 -1168.7744 17392.645 256
-3516.5015 -1173.472 17462.549 0
-3424.3484 -1177.472 17522.074 0
-3319.4194 -1177.1921 17517.908 0
-3231.8074 -1183.2344 17607.822 0
-3149.4348 -1191.6632 17733.254 256
-3055.9341 -1196.3195 17802.543 0
-2971.0354 -1204.798 17928.713 0
-2889.8318 -1215.4614 18087.396 0
-2798.9922 -1222.7393 18195.699 0
-2703.6689 -1228.5647 18282.389 0
-2604.3943 -1233.0073 18348.5 256
-2512.261 -1241.3672 18472.902 256
-2415.1846 -1247.9368 18570.666 256
-2314.6235 -1253.2488 18649.715 256
-2215.9697 -1260.1798 18752.855 256
-2113.4419 -1265.5251 18832.4 256
-2009.6602 -1270.6757 18909.045 256
-1908.5079 -1278.1973 19020.975 256
-1805.7434 -1285.5183 19129.92 256
-1701.4939 -1292.6948 19236.715 256
-1605.4882 -1307.6199 19458.814 256
-1507.488 -1323.1113 19689.346 256
-1407.8923 -1339.6921 19936.086 256
0 0 0 0
0 0 0 0
0 0 0 0
0 0 0 0
0 0 0 0
0 0 0 0
0 0 0 0
-451.66867 -1315.4395 19575.18 0
0 0 0 0
0 0 0 0
0 0 0 0
0 0 0 0
0 0 0 0
0 0 0 0
0 0 0 0
0 0 0 0
0 0 0 0
0 0 0 0
0 0 0 0
0 0 0 0
0 0 0 0
0 0 0 0
0 0 0 0
0 0 0 0
0 0 0 0
0 0 0 0
0 0 0 0
0 0 0 0
0 0 0 0
1892.5902 -1181.0994 17576.053 5002837
2165.3745 -1280.6498 19057.471 131588
2244.8213 -1261.6429 18774.629 1
2423.6592 -1297.6514 19310.473 2
2580.3467 -1319.0803 19629.359 256
2680.9834 -1311.2417 19512.711 256
0 0 0 0
0 0 0 0
0 0 0 0
0 0 0 0
3321.9846 -1335.83 19878.613 0
3390.4097 -1316.5232 19591.307 0
3545.772 -1331.1361 19808.762 0
3651.8804 -1326.9132 19745.922 0
3755.6907 -1322.1443 19674.955 0
3831.9275 -1308.2495 19468.186 0
4014.3547 -1330.361 19797.229 131586
4085.5261 -1315.3929 19574.486 0
4151.0127 -1299.4738 19337.592 65536
4252.4854 -1295.3746 19276.592 0
4373.8169 -1297.3809 19306.447 0
4454.1089 -1287.4226 19158.258 0
4567.041 -1287.1599 19154.348 0
4705.0625 -1293.8092 19253.297 0
4833.0981 -1297.4619 19307.654 0
4878.7544 -1279.343 19038.025 0
4977.4521 -1275.6393 18982.91 0
5093.2295 -1276.3799 18993.93 0
5204.0337 -1275.8691 18986.33 0
5282.2935 -1267.5706 18862.838 256
5575.0044 -1310.0082 19494.357 257
0 0 0 0
5819.3877 -1312.8645 19536.861 256
5942.8042 -1314.4796 19560.896 256
6089.7349 -1321.134 19659.922 256
6256.1675 -1331.6892 19816.994 256
0 0 0 0
6491.0933 -1331.5593 19815.061 515
0 0 0 0
0 0 0 0
0 0 0 0
0 0 0 0
0 0 0 0
0 0 0 0
0 0 0 0
0 0 0 0
7259.6689 -1280.1849 19050.553 1184535
6359.7588 -1104.2704 16432.752 132104
6805.7139 -1163.8307 17319.074 263430
6517.9653 -1098.0165 16339.687 3949640
7127.2993 -1183.0385 17604.908 395530
7770.8486 -1271.1975 18916.811 2961973
7821.6724 -1261.2634 18768.98 66053
7719.7402 -1227.3229 18263.908 3
7987.8486 -1252.3387 18636.172 3
8114.7466 -1254.834 18673.305 2
8344.6348 -1272.9731 18943.234 256
8540.3057 -1285.479 19129.336 256
8561.2852 -1271.7074 18924.398 256
8733.4648 -1280.4609 19054.662 256
8937.4082 -1293.5881 19250.008 256
9181.6016 -1312.1356 19526.014 256
9099.6709 -1284.1954 19110.234 256
9187.7266 -1280.6379 19057.295 256
9372.6914 -1290.5103 19204.205 0
9562.0107 -1300.7373 19356.396 256
9665.3457 -1299.1637 19332.979 256
9728.9844 -1292.3541 19231.645 256
9785.7822 -1284.8044 19119.297 256
9791.0059 -1270.7346 18909.922 256
9779.5166 -1254.8394 18673.385 256
9806.3838 -1244.1675 18514.574 256
9910.4102 -1243.4131 18503.35 256
10036.854 -1245.457 18533.766 256
10117.515 -1241.8373 18479.898 256
10260.343 -1245.8436 18539.518 256
10245.802 -1230.8597 18316.541 256
10148.952 -1206.4069 17952.656 257
10144.566 -1193.3395 17758.199 2
10239.625 -1192.1189 17740.035 257
10254.227 -1181.6517 17584.271 513
10186.862 -1162.0455 17292.51 3
9539.3223 -1077.3097 16031.549 1251610
9888.1914 -1105.6653 16453.51 330251
9569.6094 -1059.5638 15767.47 775
9498.8086 -1041.5254 15499.038 925473
9814.8408 -1065.8416 15860.889 2835016
9774.5996 -1051.3737 15645.591 8628138
10269.883 -1094.2375 16283.454 9151659
9648.3545 -1018.4177 15155.171 7437187
8717.6963 -911.67261 13566.687 1053983
8470.625 -877.71643 13061.382 9
8724.0781 -895.76971 13330.034 10
8765.4873 -891.92188 13272.773 8
8874.8936 -894.99976 13318.576 131590
8931.8848 -892.7843 13285.607 6
9381.2871 -929.48712 13831.786 6
9050.502 -888.92383 13228.16 3
9701.1201 -944.62067 14056.989 659475
9643.4199 -930.98456 13854.07 66051
9677.3877 -926.35443 13785.168 260
9699.1592 -920.6441 13700.192 3
10257.766 -965.5611 14368.606 922131
10213.242 -953.43262 14188.121 1
9965.2871 -922.66742 13730.302 256
9967.6221 -915.3877 13621.971 256
10020.983 -912.87354 13584.558 256
10099.078 -912.6347 13581.004 256
10175.471 -912.24707 13575.235 256
10255.304 -912.17157 13574.111 256
10306.379 -909.5592 13535.237 256
10310.294 -902.8576 13435.51 256
10238.136 -889.64862 13238.946 256
9997.8047 -862.1391 12829.574 256
10596.857 -906.88062 13495.376 1842975
10363.565 -880.25269 13099.124 258
10382.657 -875.29895 13025.407 258
10184.16 -852.21063 12681.828 1
10503.62 -872.48584 12983.545 1
10522.034 -867.64124 12911.452 256
10565.646 -864.9295 12871.099 256
10549.259 -857.38043 12758.76 256
10640.476 -858.62201 12777.236 256
10600.022 -849.29645 12638.461 256
10571.308 -841.03595 12515.536 256
10582.005 -836.00446 12440.662 0
11032.221 -865.52502 12879.96 0
10888.48 -848.36139 12624.547 1
11362.289 -879.21887 13083.74 1
12028.138 -924.41608 13756.323 2
11735.586 -895.84277 13331.122 65539
11944.798 -905.69843 13477.785 65539
12443.151 -937.20056 13946.57 4
12809.079 -958.37744 14261.706 259
12746.688 -947.43982 14098.942 987668
13436.677 -992.203 14765.066 1120538
13496.339 -990.14203 14734.398 2436914
16125.296 -1175.3856 17491.025 3160895
0 0 0 0
0 0 0 0
0 0 0 0
0 0 0 0
0 0 0 0
0 0 0 0
0 0 0 0
0 0 0 0
0 0 0 0
0 0 0 0
0 0 0 0
-9452.3359 -637.23529 10402.821 0
-9822.0664 -666.52069 10880.902 0
-9781.4824 -668.16595 10907.761 0
-9727.1016 -668.88428 10919.488 0
-9697.7227 -671.3432 10959.63 0
-9535.5439 -664.5799 10849.22 0
-9558.3877 -670.70734 10949.25 0
-12281.785 -867.71454 14165.377 0
-12196.732 -867.65302 14164.374 0
-9512.9697 -681.43854 11124.436 0
-9573.542 -690.57709 11273.621 0
-9516.085 -691.27051 11284.941 0
-9474.1152 -693.10681 11314.919 0
-9553.4199 -703.90497 11491.198 0
-9517.7168 -706.32379 11530.686 0
-9466.2949 -707.60272 11551.563 0
-9409.6494 -708.5069 11566.324 0
-9374.7939 -711.07727 11608.285 0
-9340.4854 -713.72754 11651.551 0
-9290.5752 -715.21625 11675.854 0
-9241.6367 -716.8028 11701.755 0
-9193.3662 -718.46564 11728.9 0
-9134.0352 -719.2829 11742.242 0
-9078.0801 -720.38055 11760.161 0
-9020.6953 -721.38098 11776.493 65536
-8986.7793 -724.28851 11823.958 65536
-8951.2061 -727.1073 11869.975 65536
-8887.4922 -727.66675 11879.107 65536
-8820.4785 -727.96283 11883.941 65536
-8763.3184 -729.08356 11902.237 65536
-8724.0312 -731.72162 11945.303 0
-8666.9414 -732.8974 11964.498 0
-8615.333 -734.56006 11991.641 0
-8546.5537 -734.77423 11995.137 0
-8417.0527 -729.72766 11912.752 0
-8338.7686 -729.07349 11902.072 0
-8256.6416 -728.06921 11885.678 0
-8011.0815 -712.51172 11631.703 0
-8219.6543 -737.42596 12038.426 0
-8148.6787 -737.47784 12039.272 65536
-7672.1831 -700.50476 11435.689 0
-8018.7031 -738.68744 12059.02 0
-7960.7627 -739.96375 12079.855 65536
-7893.0464 -740.34631 12086.101 65536
-7817.5073 -739.99536 12080.371 0
-7466.665 -713.33655 11645.168 0
-7737.4185 -746.11932 12180.345 0
-7644.9668 -744.16675 12148.469 0
-7564.0728 -743.31256 12134.524 0
-7490.8931 -743.2074 12132.808 0
-7415.9424 -742.92273 12128.161 0
-7337.4463 -742.27393 12117.568 0
-7250.7954 -740.77899 12093.164 0
-7180.8525 -740.97827 12096.417 0
-7116.5498 -741.76941 12109.333 0
-7056.0884 -742.9812 12129.115 0
-6985.7124 -743.16339 12132.089 0
-6919.8037 -743.82941 12142.962 0
-6851.0654 -744.20215 12149.047 65536
-6776.3164 -743.92297 12144.489 65536
-6719.7827 -745.65906 12172.831 65536
-6656.0156 -746.62152 12188.543 65536
-6601.5464 -748.65961 12221.814 65536
-6566.769 -753.00104 12292.688 0
-6506.1772 -754.44684 12316.291 0
-6444.4321 -755.79022 12338.222 0
-6393.4097 -758.43665 12381.424 0
-6337.7603 -760.58923 12416.564 0
-6288.0337 -763.51178 12464.275 0
-6230.3149 -765.52203 12497.093 0
-6180.96 -768.62085 12547.681 0
-6124.7407 -770.9314 12585.399 65536
-6066.7363 -773.07153 12620.338 65536
-6015.6714 -776.16064 12670.767 65536
-5968.5396 -779.84186 12730.863 65536
-5930.7681 -784.85651 12812.726 65536
-5889.4712 -789.52887 12889.002 0
-5842.7749 -793.591 12955.316 0
-5779.5146 -795.48187 12986.185 0
-5731.6802 -799.57574 13053.018 0
-5700.5181 -806.13977 13160.174 0
-5655.0527 -810.83551 13236.832 0
-5620.6738 -817.27588 13341.971 0
-5578.6997 -822.78033 13431.83 0
-5534.4438 -828.10321 13518.726 0
-5488.3462 -833.30322 13603.615 0
-5440.9033 -838.45142 13687.66 0
-5395.2793 -844.04053 13778.901 0
-5351.5176 -850.09772 13877.784 65536
-5308.6758 -856.49292 13982.187 65536
-5282.1885 -865.77216 14133.669 65536
-5253.4512 -874.97644 14283.929 65536
-5206.2324 -881.35449 14388.05 65536
-5163.1011 -888.64911 14507.133 65536
-5111.8428 -894.76892 14607.038 65536
-5068.6211 -902.53113 14733.756 65536
-5032.168 -911.79279 14884.952 65536
-4998.6636 -921.92969 15050.437 0
-4950.6152 -929.70471 15177.363 0
-4884.7007 -934.35095 15253.213 0
-4825.5547 -940.492 15353.465 0
-4764.0391 -946.39911 15449.898 0
-4704.8467 -953.00897 15557.804 256
-4644.5508 -959.65564 15666.311 256
-4578.3179 -965.32269 15758.825 256
-4519.2964 -972.77875 15880.544 256
-4454.0498 -979.18427 15985.113 256
-4402.5894 -988.96582 16144.797 256
-4340.1792 -996.66876 16270.546 256
-4268.4634 -1002.5372 16366.348 256
-4203.4175 -1010.2823 16492.787 256
-4125.6675 -1015.2712 16574.229 256
-4037.7874 -1017.95 16617.961 256
-3960.0369 -1023.3811 16706.623 256
-3896.7136 -1032.9158 16862.275 256
-3814.9578 -1037.9388 16944.277 256
-3737.6106 -1044.4663 17050.838 0
-3659.7188 -1051.201 17160.783 0
-3579.3179 -1057.5808 17264.932 0
-3496.7336 -1063.673 17364.385 0
-3408.9968 -1068.5205 17443.521 0
-3314.0881 -1071.3538 17489.773 0
-3225.8708 -1076.6036 17575.477 0
-3142.4221 -1083.8496 17693.768 0
-3052.2554 -1089.2001 17781.113 0
-2963.9653 -1095.6279 17886.049 0
-2924.8875 -1121.402 18306.809 0
-2806.2822 -1117.4989 18243.09 0
-2703.2563 -1119.7354 18279.6 0
-2604.6318 -1124.0585 18350.174 256
-2506.564 -1129.0103 18431.012 256
-2406.9822 -1133.7015 18507.596 256
-2309.4036 -1139.8308 18607.656 256
-2212.5574 -1146.9563 18723.979 256
-2114.6321 -1154.2473 18843.006 256
-2009.4041 -1158.145 18906.635 256
-1908.8607 -1165.3644 19024.49 256
-1814.4376 -1177.4646 19222.025 256
-1708.3047 -1183.0812 19313.717 256
-1603.1709 -1190.2489 19430.729 256
-1506.2327 -1205.0863 19672.949 256
-1399.0858 -1213.5663 19811.383 256
0 0 0 0
-1174.6456 -1225.0925 19999.549 0
0 0 0 0
0 0 0 0
0 0 0 0
0 0 0 0
0 0 0 0
0 0 0 0
0 0 0 0
0 0 0 0
0 0 0 0
0 0 0 0
0 0 0 0
0 0 0 0
0 0 0 0
0 0 0 0
0 0 0 0
0 0 0 0
0 0 0 0
0 0 0 0
0 0 0 0
0 0 0 0
0 0 0 0
0 0 0 0
0 0 0 0
0 0 0 0
0 0 0 0
0 0 0 0
2016.8308 -1214.3406 19824.023 514
2073.5122 -1179.5599 19256.232 3818563
2164.7087 -1167.0258 19051.611 3159862
2239.5403 -1147.3534 18730.463 66050
2440.1313 -1190.922 19441.717 263172
2567.5547 -1196.4554 19532.049 0
2705.4902 -1206.1968 19691.076 0
2842.7805 -1214.8545 19832.414 0
2960.9675 -1214.9843 19834.531 0
0 0 0 0
0 0 0 0
3324.2886 -1218.5291 19892.4 0
3426.1704 -1212.7433 19797.947 0
3556.8108 -1217.1833 19870.43 0
3661.6128 -1212.7799 19798.545 0
3741.8403 -1200.7646 19602.396 0
3856.1521 -1200.0824 19591.26 0
3999.0906 -1208.0883 19721.953 0
4112.7324 -1207.0397 19704.836 0
4157.8203 -1186.4865 19369.307 65536
4252.105 -1180.7014 19274.865 65536
4355.9702 -1177.8105 19227.672 65536
4447.9932 -1171.947 19131.951 0
4562.7061 -1172.2053 19136.168 0
4677.8994 -1172.5714 19142.145 0
4786.5225 -1171.3121 19121.588 0
4877.8252 -1165.9713 19034.398 0
4973.3086 -1161.8494 18967.107 0
5090.5132 -1162.8719 18983.801 0
5217.3315 -1165.9988 19034.846 0
5318.7969 -1163.447 18993.189 65536
5420.1211 -1160.9712 18952.771 0
5652.1216 -1186.0167 19361.637 0
5764.7339 -1185.5106 19353.377 0
5886.2114 -1186.8119 19374.619 0
6032.4409 -1192.958 19474.955 0
6206.542 -1204.2809 19659.799 256
6379.229 -1214.9159 19833.416 515
6409.2852 -1198.494 19565.33 1027
6161.9619 -1131.7135 18475.143 10073524
0 0 0 0
0 0 0 0
0 0 0 0
0 0 0 0
0 0 0 0
0 0 0 0
0 0 0 0
7543.1729 -1212.533 19794.514 9940655
6734.624 -1065.9375 17401.354 3488573
7059.3862 -1100.4407 17964.615 517
7278.6309 -1117.7125 18246.576 259
7340.043 -1110.5959 18130.398 259
7620.917 -1136.411 18551.828 2
7614.3477 -1119.238 18271.482 258
7694.7246 -1115.1488 18204.725 2
7924.4067 -1132.5107 18488.158 1
8121.6528 -1144.8257 18689.197 0
8312.8633 -1155.9689 18871.109 132100
8508.3672 -1167.4047 19057.797 256
8513.8545 -1152.8108 18819.555 256
8784.7148 -1174.0621 19166.48 256
8952.0557 -1181.1113 19281.557 256
9199.4736 -1198.4137 19564.02 256
9239.0859 -1188.5516 19403.02 256
9341.6572 -1186.9319 19376.578 256
9407.1768 -1180.7013 19274.863 0
9601.8701 -1190.6381 19437.082 256
9667.2852 -1184.4989 19336.859 256
9735.0195 -1178.7845 19243.574 256
9821.2363 -1175.415 19188.566 256
9902.2949 -1171.5126 19124.859 256
9861.4717 -1153.4429 18829.873 256
9811.0107 -1134.6642 18523.311 256
9886.0791 -1130.6587 18457.922 256
10023.085 -1133.7471 18508.34 256
10107.476 -1130.8817 18461.562 256
10208.205 -1129.8861 18445.311 256
10120.066 -1108.2291 18091.762 256
10132.668 -1097.9436 17923.85 257
10174.759 -1091.0341 17811.053 257
10241.974 -1086.9331 17744.105 258
10270.702 -1078.8729 17612.523 258
10280.711 -1069.0289 17451.822 4
9456.6582 -973.51886 15892.626 4
9668.207 -985.45392 16087.465 6
9922.5439 -1001.4738 16348.988 518
9655.29 -965.04968 15754.367 6
9721.7812 -962.36273 15710.504 7839391
10704.178 -1049.5304 17133.51 8956334
11386.612 -1105.9214 18054.088 8691879
11276.702 -1085.0217 17712.902 7572113
9096.1064 -867.11426 14155.578 7964558
8499.749 -802.83899 13106.29 5462882
8634.6953 -808.17883 13193.462 1579547
8788.2646 -815.1499 13307.264 395017
8883.415 -816.62628 13331.366 5
9112.8174 -830.3089 13554.733 5
9216.627 -832.40857 13589.011 5
9026.6484 -808.16864 13193.295 260
9626.7803 -854.47675 13949.271 2699314
9635.3945 -847.9389 13842.542 197638
9517.4619 -830.4696 13557.357 258
9384.8896 -812.02704 13256.283 3
9778.917 -839.07605 13697.856 2
9893.9922 -841.94073 13744.622 2
9966.1221 -841.13403 13731.452 256
9969.875 -834.61621 13625.05 256
10030.203 -832.90149 13597.057 0
10113.608 -833.11499 13600.543 256
10188.353 -832.61749 13592.421 256
10269.432 -832.64142 13592.812 256
10311.144 -829.49799 13541.495 256
10296.367 -821.8941 13417.362 256
10331.236 -818.33954 13359.334 256
10382.92 -816.16083 13323.768 256
10404.269 -811.6488 13250.109 256
10361.043 -802.20483 13095.937 256
10418.213 -800.61694 13070.014 256
10459.185 -797.81677 13024.303 0
10455.298 -791.66132 12923.814 256
10515.441 -790.40851 12903.362 256
10568.946 -788.67841 12875.119 256
10637.58 -788.09406 12865.579 256
10726.688 -789.02417 12880.763 0
10814.337 -789.83435 12893.989 0
10873.435 -788.56262 12873.229 0
10948.381 -788.45001 12871.39 256
11085.133 -792.75903 12941.734 256
11211.902 -796.29968 12999.535 1
11391.768 -803.53699 13117.685 2
11528.75 -807.67181 13185.185 2
11584.383 -806.09009 13159.363 1
12099.235 -836.26965 13652.042 724237
13030.2 -894.61621 14604.547 66308
13360.826 -911.24597 14876.025 5
13944.704 -944.81586 15424.051 1844520
0 0 0 0
0 0 0 0
0 0 0 0
0 0 0 0
0 0 0 0
0 0 0 0
0 0 0 0
0 0 0 0
0 0 0 0
19225.48 -1222.2622 19953.344 1120795
15076.698 -952.62683 15551.564 514
0 0 0 0
0 0 0 0
0 0 0 0
-9489.1113 -577.64648 10443.295 0
-9881.1338 -605.47113 10946.338 0
-9794.2617 -604.12561 10922.012 0
-9735.0518 -604.47974 10928.414 0
-9270.3867 -579.49359 10476.688 0
-9634.6533 -606.33649 10961.982 0
-9588.3037 -607.52777 10983.521 0
-12343.507 -787.46228 14236.563 0
-12257.819 -787.39325 14235.316 0
-9548.7432 -617.63605 11166.269 0
-9610.3965 -625.97455 11317.02 0
-9554.1553 -626.69739 11330.089 0
-9514.0449 -628.49609 11362.607 0
-9594.5703 -638.34668 11540.696 0
-9566.8154 -641.08307 11590.168 0
-9520.9941 -642.63977 11618.312 0
-9464.5566 -643.49744 11633.816 0
-9422.2852 -645.33795 11667.092 0
-9395.5566 -648.27814 11720.248 0
-9353.2275 -650.17786 11754.593 0
-9302.9385 -651.54858 11779.374 0
-9254.0869 -653.04163 11806.367 0
-9194.9277 -653.82458 11820.522 0
-9136.8486 -654.69684 11836.292 0
-9079.7363 -655.65265 11853.571 65536
-9038.0684 -657.74719 11891.439 65536
-8995.9863 -659.84448 11929.355 65536
-8939.6318 -660.91986 11948.798 65536
-8867.3076 -660.82239 11947.035 65536
-8821.6055 -662.72333 11981.402 65536
-8771.2275 -664.30103 12009.926 0
-8712.9258 -665.2995 12027.978 0
-8660.124 -666.73798 12053.984 0
-8607.3037 -668.19916 12080.4 0
-8377.1377 -655.80133 11856.26 0
-8362.9902 -660.24756 11936.644 0
-8297.1445 -660.65356 11943.983 0
-8065.9272 -647.78528 11711.337 0
-8240.1035 -667.534 12068.376 0
-8191.376 -669.41345 12102.354 0
-7923.3628 -653.24713 11810.083 0
-8037.3345 -668.56635 12087.039 0
-7998.688 -671.35223 12137.404 0
-7942.3765 -672.6925 12161.636 0
-7847.4673 -670.75836 12126.668 0
-7779.9634 -671.15253 12133.794 0
-7785.3667 -677.9024 12255.825 0
-7708.52 -677.55023 12249.459 0
-7620.562 -676.20544 12225.146 0
-7545.2314 -675.96606 12220.818 0
-7469.3491 -675.67212 12215.504 0
-7395.1377 -675.52496 12212.844 0
-7309.0942 -674.28345 12190.398 0
-7238.1309 -674.42206 12192.905 0
-7176.2412 -675.41754 12210.902 0
-7106.8682 -675.72186 12216.404 0
-7034.8608 -675.77942 12217.444 0
-6963.9917 -675.94867 12220.504 0
-6897.1982 -676.52118 12230.854 65536
-6835.2573 -677.58704 12250.124 65536
-6765.8809 -677.93066 12256.337 65536
-6710.7197 -679.72174 12288.718 65536
-6659.041 -681.90875 12328.257 65536
-6608.5581 -684.26837 12370.916 0
-6550.0586 -685.84155 12399.358 0
-6490.5361 -687.34229 12426.49 0
-6433.8164 -689.1778 12459.674 0
-6380.4087 -691.41492 12500.119 0
-6337.3789 -694.84265 12562.09 0
-6280.8623 -696.85571 12598.483 0
-6227.3979 -699.26007 12641.952 0
-6175.3257 -701.88147 12689.345 65536
-6121.5117 -704.36719 12734.284 65536
-6061.4077 -706.18237 12767.101 65536
-6005.0444 -708.48486 12808.728 0
-5954.271 -711.51453 12863.501 0
-5918.8716 -716.48401 12953.345 0
-5876.4478 -720.72296 13029.98 0
-5815.9419 -722.82782 13068.034 0
-5775.1904 -727.47797 13152.104 0
-5732.7197 -732.03625 13234.515 0
-5685.0269 -736.04529 13306.993 0
-5638.7231 -740.34973 13384.814 0
-5594.3027 -745.02826 13469.397 0
-5546.3218 -749.36151 13547.738 0
-5502.6045 -754.40704 13638.956 0
-5454.8105 -759.03613 13722.646 0
-5406.1177 -763.67883 13806.581 0
-5368.1235 -769.99921 13920.848 65536
-5337.0088 -777.51965 14056.811 65536
-5301.354 -784.60742 14184.95 65536
-5264.1235 -791.68726 14312.946 65536
-5227.9307 -799.1582 14448.016 65536
-5182.5396 -805.44928 14561.751 65536
-5131.979 -811.13684 14664.577 65536
-5084.2812 -817.48126 14779.278 65536
-5033.3169 -823.51434 14888.351 65536
-4997.0308 -832.20789 15045.521 0
-4952.8384 -839.87738 15184.179 0
-4891.1641 -844.81219 15273.396 0
-4828.3203 -849.72772 15362.264 0
-4771.6104 -855.93317 15474.451 0
-4715.4141 -862.47638 15592.747 256
-4654.7876 -868.45538 15700.841 256
-4588.9409 -873.68518 15795.391 256
-4519.1641 -878.36938 15880.077 256
-4452.8452 -883.94006 15980.789 256
-4400.4395 -892.57562 16136.912 256
-4339.5796 -899.84296 16268.299 256
-4265.6694 -904.67377 16355.635 256
-4198.3486 -911.15991 16472.898 256
-4125.3384 -916.69159 16572.906 256
-4045.8958 -921.0296 16651.332 256
-3970.3777 -926.50092 16750.248 256
-3888.9988 -930.85077 16828.891 256
-3807.895 -935.49799 16912.908 256
-3729.5024 -941.08142 17013.85 0
-3648.4414 -946.28375 17107.904 0
-3570.9551 -952.73816 17224.594 0
-3486.7505 -957.72833 17314.811 0
-3401.1594 -962.62946 17403.418 0
-3308.6873 -965.82947 17461.271 0
-3220.6667 -970.57812 17547.123 0
-3127.5815 -974.0675 17610.207 0
-3093.4812 -996.80487 18021.277 0
-2970.7927 -991.60394 17927.248 0
-2875.5222 -995.50806 17997.832 256
-2934.3462 -1055.1228 19075.609 0
-2756.5312 -1031.0198 18639.85 0
-2615.3435 -1019.1713 18425.641 256
-2502.417 -1017.7817 18400.518 256
-2411.3105 -1025.5453 18540.877 256
-2311.1062 -1029.9979 18621.375 256
-2215.0972 -1036.8621 18745.473 256
-2117.2905 -1043.5671 18866.693 256
-2017.0018 -1049.7306 18978.123 256
-1923.9277 -1060.6012 19174.654 256
-1822.1328 -1067.7306 19303.547 256
-1717.6229 -1074.1205 19419.068 256
-1628.036 -1091.4349 19732.098 256
-1516.6305 -1095.6752 19808.756 256
-1406.5377 -1101.6571 19916.904 256
0 0 0 0
0 0 0 0
0 0 0 0
0 0 0 0
0 0 0 0
0 0 0 0
0 0 0 0
0 0 0 0
0 0 0 0
0 0 0 0
0 0 0 0
0 0 0 0
0 0 0 0
0 0 0 0
0 0 0 0
0 0 0 0
0 0 0 0
0 0 0 0
0 0 0 0
0 0 0 0
0 0 0 0
0 0 0 0
0 0 0 0
0 0 0 0
0 0 0 0
0 0 0 0
0 0 0 0
1840.5546 -1062.7666 19213.801 256
0 0 0 0
2075.7588 -1066.2677 19277.098 198149
2164.6125 -1053.7487 19050.766 7831422
2259.2239 -1045.1376 18895.086 257
2410.2266 -1062.194 19203.449 65794
2557.8025 -1076.266 19457.859 257
2702.01 -1087.7648 19665.744 0
2829.853 -1091.9951 19742.225 0
2955.1072 -1094.9294 19795.275 0
3086.863 -1099.9557 19886.146 256
0 0 0 0
3284.134 -1087.011 19652.117 4673098
3415.6362 -1091.7103 19737.076 0
3549.8206 -1096.9264 19831.379 0
3669.9829 -1097.6135 19843.801 0
3761.7424 -1090.0278 19706.658 0
3861.1824 -1085.0583 19616.816 0
3981.0381 -1085.9493 19632.924 0
4082.5122 -1081.9182 19560.045 0
4159.9487 -1071.9164 19379.223 0
4254.1431 -1066.6553 19284.105 0
4366.5132 -1066.1079 19274.209 0
4456.27 -1060.2085 19167.555 0
4577.9165 -1062.001 19199.961 0
4695.9907 -1062.8978 19216.176 0
4801.5664 -1060.9902 19181.688 0
4904.0205 -1058.4976 19136.621 0
5002.4204 -1055.2623 19078.133 0
5107.1069 -1053.4675 19045.684 0
5231.6577 -1055.759 19087.113 0
5337.4663 -1054.2515 19059.857 0
5453.5195 -1054.788 19069.557 256
0 0 0 0
5925.9819 -1100.4299 19894.719 1579544
5921.2808 -1078.0468 19490.051 256
6029.0303 -1076.6025 19463.943 0
6197.9756 -1085.9351 19632.664 512
6255.6943 -1075.7948 19449.338 1025
6475.0962 -1093.3226 19766.227 3624010
0 0 0 0
0 0 0 0
0 0 0 0
0 0 0 0
0 0 0 0
0 0 0 0
6905.0859 -1034.5394 18703.48 262
7053.457 -1040.0259 18802.672 519
6528.6323 -947.62726 17132.193 8032658
7461.1772 -1066.3545 19278.668 5067608
7112.2754 -1001.1154 18099.207 3
7201.6211 -998.58838 18053.521 5
7282.5356 -994.98364 17988.352 259
7364.9775 -991.6889 17928.785 2
7364.6357 -977.50037 17672.27 256
7547.9165 -987.74017 17857.396 256
7650.0278 -987.22125 17848.014 256
8060.3853 -1025.9509 18548.211 1119251
8136.813 -1021.7056 18471.457 66049
8305.8008 -1029.0408 18604.07 0
8470.4785 -1035.6564 18723.674 256
8731.2949 -1053.7024 19049.93 0
8628.127 -1027.9227 18583.857 256
9123.6074 -1073.214 19402.68 0
9257.5742 -1075.3804 19441.848 0
9210.6689 -1056.7418 19104.881 0
9435.79 -1069.387 19333.492 0
9591.29 -1073.9323 19415.666 256
9690.0566 -1072.0927 19382.406 256
9716.7461 -1062.4153 19207.451 256
9788.833 -1057.869 19125.258 256
9922.1729 -1059.9706 19163.252 0
9965.6348 -1052.5317 19028.766 0
9882.1201 -1031.9996 18657.564 256
9915.4648 -1023.9916 18512.787 256
9995.998 -1020.979 18458.322 256
10064.812 -1016.8478 18383.635 256
10110.137 -1010.4578 18268.109 256
10092.497 -997.97748 18042.477 256
9990.2715 -977.48334 17671.963 1447703
9445.2773 -914.54437 16534.086 1
10234.385 -980.74652 17730.957 2
10261.884 -973.35925 17597.402 2
10234.972 -961.01215 17374.178 1
10076.497 -936.68195 16934.312 4
9811.8096 -903.05737 16326.412 4
9932.5039 -905.21375 16365.397 462350
9572.9268 -863.98248 15619.976 774
9951.4463 -889.51868 16081.646 2967368
9736.0488 -861.98627 15583.886 8956843
11609.297 -1018.1494 18407.166 8890792
11162.424 -969.81903 17533.398 9679797
10918.806 -939.8786 16992.105 10139065
9972.1514 -850.52509 15376.678 11124419
9621.8848 -813.19824 14701.846 5003355
8399.8711 -703.53033 12719.154 3621444
8801.4453 -730.58923 13208.354 198667
9130.7227 -751.22156 13581.366 260
9191.5596 -749.60016 13552.053 260
9055.7539 -732.10931 13235.835 2
9728.5479 -779.72784 14096.732 1
9337.4805 -741.99438 13414.548 1
9636.0723 -759.23907 13726.314 2
9544.1094 -745.68011 13481.183 1
9769.9307 -756.96875 13685.27 0
9886.7695 -759.69672 13734.589 0
9988.748 -761.24756 13762.626 0
9974.2744 -753.9704 13631.062 0
10022.07 -751.47961 13586.031 0
10092.491 -750.71155 13572.146 0
10196.401 -752.427 13603.159 0
10273.845 -752.17773 13598.652 0
10321.154 -749.74329 13554.641 0
10052.433 -724.5675 13099.486 0
10078.088 -720.83398 13031.988 0
10416.007 -739.32159 13366.227 0
10422.073 -734.15308 13272.784 256
10423.545 -728.74084 13174.937 256
10456.473 -725.59222 13118.012 0
10507.174 -723.71436 13084.062 256
10557.576 -721.84357 13050.24 256
10617.211 -720.62683 13028.242 256
10686.962 -720.10925 13018.886 256
10751.301 -719.23712 13003.118 256
10814.676 -718.31348 12986.419 256
10894.958 -718.51782 12990.114 256
10960.447 -717.75067 12976.244 256
11036.904 -717.7074 12975.462 0
11183.173 -722.17297 13056.195 0
11305.825 -725.06238 13108.434 1
11401.285 -726.1803 13128.645 2
11327.856 -716.59918 12955.427 1
11736.626 -737.44531 13332.305 66050
13564.283 -846.56671 15305.114 1184789
14067.049 -872.09662 15766.671 921875
14606.789 -899.56586 16263.288 66051
15319.758 -937.27209 16944.98 131844
16707.859 -1015.5211 18359.648 258
0 0 0 0
0 0 0 0
0 0 0 0
0 0 0 0
0 0 0 0
0 0 0 0
0 0 0 0
0 0 0 0
19237.506 -1104.363 19965.826 66052
18812.221 -1073.3281 19404.744 132872
0 0 0 0
0 0 0 0
0 0 0 0
-9977.1963 -542.09784 10980.46 0
-9938.6455 -543.55865 11010.049 0
-9857.5225 -542.69507 10992.557 0
-9776.1963 -541.80865 10974.602 0
-9361.0107 -522.2832 10579.104 0
-9672.5811 -543.31604 11005.135 0
-9701.9521 -548.67609 11113.705 0
-9636.8965 -548.73285 11114.855 0
-12280.288 -704.07605 14261.409 0
-9560.0596 -551.92438 11179.502 0
-9642.9961 -560.60883 11355.409 0
-9602.1084 -562.1662 11386.955 0
-9542.9365 -562.66772 11397.112 0
-9621.9619 -571.38293 11573.644 0
-9583.7539 -573.21179 11610.688 0
-9545.8584 -575.08606 11648.653 0
-9489.8652 -575.88947 11664.926 0
-9443.1826 -577.27386 11692.967 0
-9428.9355 -580.67627 11761.885 0
-9406.9111 -583.64703 11822.059 0
-9359.4697 -585.07361 11850.955 0
-9308.4668 -586.29749 11875.745 0
-9249.5938 -587.04059 11890.797 0
-9190.8037 -587.80042 11906.188 0
-9133.1465 -588.64514 11923.298 65536
-9085.0654 -590.125 11953.273 65536
-9047.1416 -592.29321 11997.191 65536
-8993.6133 -593.46613 12020.949 65536
-8931.7871 -594.1059 12033.909 65536
-8873.1455 -594.96954 12051.402 65536
-8819.5928 -596.19128 12076.149 0
-8758.8994 -596.94641 12091.444 0
-8707.1895 -598.3313 12119.496 0
-8649.2803 -599.30969 12139.313 0
-8519.875 -595.30896 12058.277 0
-8439.1133 -594.66809 12045.297 0
-8321.6104 -591.40503 11979.201 0
-8248.876 -591.29486 11976.97 0
-8180.9253 -591.52856 11981.703 0
-9618.5225 -701.58221 14210.895 0
-8135.8286 -598.69043 12126.771 0
-7979.8716 -592.46259 12000.623 0
-8033.0913 -601.79266 12189.607 0
-7939.062 -600.16119 12156.562 0
-7897.2148 -602.48065 12203.544 0
-7821.2686 -602.21759 12198.215 0
-7853.8145 -610.38141 12363.577 0
-7754.7324 -608.37292 12322.895 0
-7667.3555 -607.25317 12300.214 0
-7592.3262 -607.09924 12297.096 0
-7518.3188 -607.0249 12295.589 0
-7442.4194 -606.79474 12290.928 0
-7356.9849 -605.77502 12270.272 0
-7290.0488 -606.27319 12280.363 0
-7220.1216 -606.53021 12285.568 0
-7150.728 -606.83771 12291.798 0
-7079.8003 -607.02002 12295.49 0
-7009.8306 -607.28918 12300.942 0
-6942.3438 -607.78137 12310.912 65536
-6884.1792 -609.10889 12337.801 65536
-6818.8442 -609.82367 12352.28 65536
-6755.9873 -610.77808 12371.612 65536
-6705.2178 -612.85828 12413.747 65536
-6651.5615 -614.71796 12451.416 0
-6594.4561 -616.29712 12483.403 0
-6533.7041 -617.56763 12509.138 0
-6474.4741 -619.01282 12538.411 0
-6419.0518 -620.86005 12575.827 0
-6372.8252 -623.65057 12632.351 0
-6317.375 -625.59436 12671.723 0
-6263.5005 -627.74292 12715.243 0
-6212.8643 -630.2724 12766.479 65536
-6156.895 -632.31689 12807.891 65536
-6104.2026 -634.75317 12857.239 65536
-6052.9204 -637.39978 12910.848 65536
-6002.3965 -640.19525 12967.471 65536
-5949.0894 -642.7627 13019.476 0
-5907.0635 -646.63275 13097.865 0
-5850.3857 -648.98083 13145.427 0
-5801.3589 -652.25262 13211.699 0
-5756.1528 -656.04974 13288.612 0
-5701.1699 -658.82269 13344.779 0
-5651.4756 -662.29364 13415.085 0
-5612.1602 -667.09766 13512.393 0
-5577.8682 -672.64691 13624.796 0
-5530.9663 -676.81659 13709.255 0
-5482.2251 -680.88257 13791.613 0
-5437.894 -685.62805 13887.734 0
-5400.771 -691.44257 14005.511 65536
-5364.4067 -697.53772 14128.972 65536
-5319.5112 -702.69989 14233.533 65536
-5275.3931 -708.13324 14343.589 65536
-5233.0117 -713.98193 14462.058 65536
-5196.125 -720.78827 14599.923 65536
-5146.0073 -725.95923 14704.663 65536
-5099.5649 -731.8363 14823.706 65536
-5054.1685 -738.07281 14950.029 65536
-5008.603 -744.50732 15080.364 0
-4953.2998 -749.70251 15185.595 0
-4897.1108 -754.95392 15291.965 0
-4839.9507 -760.2514 15399.269 0
-4780.0801 -765.31921 15501.918 256
-4716.7856 -770.02722 15597.282 256
-4653.9614 -775.00226 15698.055 256
-4592.6758 -780.44232 15808.245 256
-4514.9736 -783.26172 15865.353 256
-4453.0811 -789.0025 15981.636 256
-4392.2812 -795.19141 16106.995 256
-4327.2769 -800.87787 16222.178 256
-4262.9766 -806.95685 16345.31 0
-4200.2505 -813.62415 16480.359 0
-4124.3467 -817.9964 16568.922 0
-4053.2844 -823.56616 16681.74 256
-3990.855 -831.21338 16836.639 256
-3901.4749 -833.49628 16882.879 256
-3822.3923 -838.15771 16977.299 256
-3739.7375 -842.26733 17060.541 0
-3659.085 -847.06958 17157.812 0
-3573.7986 -851.0437 17238.311 0
-3494.1382 -856.63159 17351.496 0
-3401.8303 -859.36432 17406.85 0
-3311.3057 -862.73334 17475.09 0
-3218.5444 -865.71887 17535.562 0
-3133.4436 -871.03339 17643.213 0
-3045.1326 -875.79291 17739.619 0
-3054.3103 -909.9375 18431.234 657929
-2842.2065 -878.24622 17789.311 0
-2783.8687 -893.45563 18097.385 0
-2686.8613 -896.97809 18168.734 0
-2620.3564 -911.40497 18460.959 0
-2489.4026 -903.69666 18304.822 0
-2391.9307 -907.99365 18391.861 256
-2299.9407 -914.88312 18531.41 256
-2207.5864 -922.31323 18681.91 256
-2113.4695 -929.75494 18832.646 256
-2036.6971 -946.08588 19163.438 256
-1935.019 -952.09705 19285.195 256
-1836.9186 -960.73615 19460.186 256
-1733.241 -967.42352 19595.641 256
-1624.7916 -972.21893 19692.775 256
-1515.6039 -977.2829 19795.348 0
-1399.7743 -978.55585 19821.133 0
-1282.8115 -979.19781 19834.137 256
-1115.4292 -937.58887 18991.326 0
0 0 0 0
0 0 0 0
0 0 0 0
0 0 0 0
0 0 0 0
0 0 0 0
0 0 0 0
0 0 0 0
0 0 0 0
0 0 0 0
0 0 0 0
0 0 0 0
0 0 0 0
0 0 0 0
0 0 0 0
0 0 0 0
0 0 0 0
0 0 0 0
0 0 0 0
0 0 0 0
0 0 0 0
0 0 0 0
0 0 0 0
1672.3604 -983.98969 19931.197 256
0 0 0 0
1833.74 -945.06018 19142.662 66050
0 0 0 0
0 0 0 0
2224.9822 -966.75385 19582.078 1250578
2372.9795 -979.8075 19846.484 256
2505.124 -985.3891 19959.543 0
2572.0149 -965.95905 19565.979 0
2649.7397 -952.10278 19285.312 0
2772.8311 -955.02069 19344.416 256
2915.7585 -964.26636 19531.691 0
3067.3435 -975.55743 19760.398 2171167
3220.8445 -986.60266 19984.125 0
3283.1245 -969.91339 19646.076 0
3352.5603 -956.41187 19372.596 66049
3430.0959 -946.04095 19162.527 1250580
3669.1677 -979.4574 19839.395 257
3770.6743 -975.21442 19753.449 0
3917.7903 -982.66742 19904.414 0
4016.2188 -977.82959 19806.422 0
4107.7485 -971.6355 19680.957 0
4177.2124 -960.70947 19459.645 0
4268.2705 -955.20471 19348.145 0
4393.6895 -957.47687 19394.168 0
4486.7627 -952.76416 19298.709 0
4610.6934 -954.67566 19337.428 0
4814.5288 -972.63666 19701.236 0
4872.4766 -960.97217 19464.967 0
4949.0469 -953.43622 19312.322 0
5026.7256 -946.45074 19170.828 0
5130.0898 -944.50385 19131.393 0
5248.9819 -945.43823 19150.318 256
5364.5527 -945.7475 19156.582 592393
0 0 0 0
5671.9121 -959.21777 19429.43 329221
5697.7417 -944.35962 19128.471 65793
5884.6562 -956.25903 19369.5 256
6029.8579 -961.05365 19466.617 256
6183.1338 -966.9303 19585.65 66305
6294.1709 -966.10651 19568.965 1184788
6354.0269 -957.59924 19396.646 9284004
0 0 0 0
0 0 0 0
0 0 0 0
0 0 0 0
0 0 0 0
6185.0591 -840.62579 17027.291 4
6914.0464 -924.57629 18727.75 518
7060.6089 -929.21643 18821.738 261
6285.814 -814.3468 16494.998 8556948
0 0 0 0
0 0 0 0
6948.4673 -859.95917 17418.898 259
6907.6963 -842.36279 17062.475 2
7167.4829 -861.39685 17448.02 257
7260.0483 -860.07776 17421.301 256
7482.6064 -873.97919 17702.881 256
7427.9678 -855.56708 17329.934 256
7808.0298 -887.0434 17967.502 1908510
7976.6968 -893.97852 18107.977 131842
7799.1455 -862.44342 17469.219 0
8060.6279 -879.6485 17817.715 258
8316.1543 -895.76562 18144.176 4938844
8649.1562 -919.7085 18629.15 2237988
8875.9414 -931.89447 18875.982 256
9327.1367 -967.04303 19587.936 256
9271.334 -949.40729 19230.713 256
9616.6221 -972.77344 19704.008 0
9720.7598 -971.47723 19677.752 256
9681.751 -956.07617 19365.795 256
9720.3906 -948.6145 19214.656 256
9799.9111 -945.26959 19146.902 256
9845.9131 -938.80536 19015.967 256
9945.7783 -937.56543 18990.852 256
9993.4443 -931.48792 18867.748 256
10026.132 -924.16449 18719.408 256
10000.66 -911.69989 18466.932 256
10080.535 -909.00543 18412.355 256
10069.673 -898.27466 18194.996 256
9952.6924 -878.40588 17792.545 256
9644.4375 -842.25098 17060.211 1
9732.2002 -841.07294 17036.348 1
10196.316 -872.10925 17665.004 2
10169.844 -860.9798 17439.57 2
10181.055 -853.23279 17282.652 2
10045.345 -833.45087 16881.959 131843
9496.6396 -780.13318 15801.984 257
9509.7646 -773.56128 15668.866 132101
9786.8828 -788.38287 15969.085 775
10187.882 -812.8031 16463.729 67595
9500.4746 -750.75018 15206.816 3757914
10343.279 -809.64832 16399.826 5534068
10142.493 -786.51953 15931.342 10007736
9917.8555 -761.98596 15434.403 10072758
9958.6885 -758.11127 15355.918 8753561
9962.0762 -751.48224 15221.645 725011
9017.7393 -674.125 13654.735 395791
9081.9668 -672.87091 13629.333 5
9124.3984 -670.03839 13571.959 260
9204.0049 -669.96155 13570.402 4
9184.25 -662.71625 13423.646 2
9296.1064 -665.01086 13470.123 2
9472.3887 -671.83557 13608.361 2
9574.5879 -673.3349 13638.731 2
9652.4062 -673.10895 13634.154 257
9754.0977 -674.53754 13663.092 256
9904.3564 -679.2735 13759.021 256
10033.271 -682.47998 13823.97 0
10014.152 -675.64685 13685.561 0
10067.761 -673.79095 13647.969 0
10140.009 -673.20233 13636.047 0
10237.188 -674.26514 13657.574 0
10336.303 -675.43768 13681.323 0
10391.182 -673.72375 13646.607 256
9979.5273 -642.02246 13004.482 1
10646.622 -679.67535 13767.16 2105892
10522.08 -666.6015 13502.344 2
10040.66 -631.28766 12787.044 1
10222.605 -637.89886 12920.957 0
10486.794 -649.50525 13156.05 1
10537.44 -647.81189 13121.751 256
10572.934 -645.21869 13069.224 256
10519.85 -637.29724 12908.771 256
10728.314 -645.22058 13069.262 256
10789.902 -644.26001 13049.806 256
10819.911 -641.4411 12992.706 256
10903.32 -641.80536 13000.085 256
10987.957 -642.23627 13008.813 256
11078.963 -643.03082 13024.907 256
11211.812 -646.2262 13089.631 256
11306.268 -647.17981 13108.946 258
10995.35 -625.0752 12661.207 769
11284.342 -637.14362 12905.659 791571
12520.076 -702.14386 14222.271 4742235
13865.926 -772.40619 15645.47 4806486
13752.735 -760.99756 15414.381 4345167
14556.581 -800.14758 16207.386 3752261
14655.271 -800.27667 16210 3291708
16402.422 -889.83331 18024.014 923159
0 0 0 0
0 0 0 0
0 0 0 0
0 0 0 0
0 0 0 0
0 0 0 0
0 0 0 0
0 0 0 0
0 0 0 0
0 0 0 0
0 0 0 0
0 0 0 0
0 0 0 0
-10050.704 -480.35028 11061.358 0
-10033.396 -482.68027 11115.013 0
-9781.1084 -473.66208 10907.344 0
-9588.3457 -467.42523 10763.724 0
-9824.833 -482.17081 11103.28 0
-9824.2881 -485.40439 11177.743 0
-9762.9238 -485.65659 11183.55 0
-12369.113 -619.51923 14266.098 0
-12292.193 -619.91602 14275.235 0
-9608.9551 -487.96381 11236.68 0
-9686.333 -495.33588 11406.441 0
-9640.1992 -496.45123 11432.126 0
-9580.6426 -496.88629 11442.145 0
-9632.7363 -503.15958 11586.604 0
-9597.1621 -504.91089 11626.933 0
-9571.9414 -507.2363 11680.481 0
-9515.4678 -507.92746 11696.396 0
-9462.5566 -508.82025 11716.956 0
-9438.1455 -511.27026 11773.374 0
-9421.4863 -514.17987 11840.376 0
-9406.999 -517.25269 11911.136 0
-9352.6924 -518.16608 11932.169 0
-9291.2188 -518.69324 11944.309 0
-9229.4414 -519.21149 11956.242 0
-9172.0605 -519.98694 11974.1 65536
-9111.0049 -520.56464 11987.402 65536
-9099.8877 -524.02722 12067.138 65536
-9052.7168 -525.45209 12099.949 65536
-8973.1709 -525.00555 12089.666 65536
-8903.9883 -525.16309 12093.293 0
-8856.8271 -526.63257 12127.132 0
-8797.5195 -527.39795 12144.758 0
-8742.8057 -528.45374 12169.069 0
-8676.7236 -528.83417 12177.831 0
-8599.8184 -528.55585 12171.422 0
-8429.3877 -522.47595 12031.415 0
-8358.4082 -522.50891 12032.174 0
-8281.1904 -522.14911 12023.889 0
-8204.8955 -521.84167 12016.81 0
-8241.6553 -528.78247 12176.64 0
-9825.8145 -636.00647 14645.762 0
-8041.7363 -525.17896 12093.659 0
-8065.3677 -531.47253 12238.586 0
-7993.8516 -531.55377 12240.457 0
-7930.333 -532.17316 12254.721 0
-7874.0518 -533.29425 12280.536 0
-7903.4312 -540.29224 12441.684 0
-7802.7603 -538.448 12399.215 0
-7715.8027 -537.52386 12377.935 0
-7634.8232 -537.0025 12365.928 0
-7559.4995 -536.87262 12362.937 0
-7484.0322 -536.72986 12359.65 0
-7399.1211 -535.90033 12340.548 0
-7333 -536.42877 12352.716 0
-7262.7832 -536.66516 12358.16 0
-7193.9517 -537.00989 12366.098 0
-7123.3535 -537.22839 12371.13 0
-7053.5679 -537.51337 12377.692 0
-6992.5049 -538.47614 12399.863 65536
-6927.2344 -539.13196 12414.965 65536
-6865.8101 -540.10443 12437.358 0
-6811.9697 -541.70123 12474.128 0
-6754.2021 -543.01727 12504.435 0
-6694.8022 -544.22998 12532.36 0
-6634.1006 -545.36298 12558.451 0
-6574.6338 -546.62445 12587.499 0
-6519.3726 -548.26862 12625.361 0
-6459.6826 -549.57434 12655.429 0
-6406.4189 -551.46399 12698.942 0
-6357.4023 -553.76849 12752.011 0
-6301.4814 -555.52008 12792.346 0
-6248.8105 -557.60449 12840.345 65536
-6190.999 -559.276 12878.835 65536
-6144.6606 -562.03876 12942.456 65536
-6091.5513 -564.24445 12993.247 65536
-6037.9561 -566.46112 13044.293 65536
-5987.145 -569.00012 13102.76 0
-5932.2363 -571.21143 13153.682 0
-5871.0879 -572.87305 13191.943 0
-5815.7817 -575.15729 13244.546 0
-5766.6665 -578.125 13312.885 0
-5725.4868 -581.98181 13401.698 0
-5676.6646 -585.15967 13474.877 0
-5634.748 -589.15057 13566.778 0
-5594.8975 -593.47644 13666.393 0
-5556.8921 -598.12842 13773.517 0
-5506.1553 -601.52856 13851.813 0
-5456.2632 -605.12567 13934.647 0
-5424.9595 -610.92694 14068.236 65536
-5389.729 -616.46069 14195.667 65536
-5339.6919 -620.45001 14287.532 65536
-5288.9995 -624.49091 14380.584 65536
-5239.7476 -628.8374 14480.673 65536
-5202.2441 -634.76257 14617.117 65536
-5159.9087 -640.28937 14744.387 65536
-5111.0371 -645.18207 14857.054 65536
-5066.8115 -650.84357 14987.426 65536
-5014.0044 -655.58575 15096.627 0
-4956.3408 -659.85419 15194.918 0
-4897.9277 -664.17926 15294.516 0
-4838.5835 -668.53931 15394.918 0
-4781.0972 -673.32916 15505.217 0
-4723.4004 -678.2771 15619.156 256
-4741.0752 -694.46362 15991.895 256
-4598.8989 -687.4187 15829.666 256
-4526.3223 -690.7002 15905.231 256
-4468.2607 -696.38397 16036.115 256
-4409.793 -702.25067 16171.212 256
-4334.0493 -705.56641 16247.566 256
-4343.4766 -723.21478 16653.967 256
-4314.9854 -735.22528 16930.541 256
