# .PCD v0.7 - Point Cloud Data file format
VERSION 0.7
FIELDS x y z rgb
SIZE 4 4 4 4
TYPE F F F U
COUNT 1 1 1 1
WIDTH 1433
HEIGHT 1
VIEWPOINT 0 0 0 1 0 0 0
POINTS 1433
DATA ascii
12523.109 3275.3625 14620.552 0
12989.665 3373.9768 15060.746 0
12751.017 3289.323 14682.869 0
13024.098 3336.9307 14895.381 0
13629.461 3468.4565 15482.484 0
13199.87 3336.6064 14893.933 0
13881.561 3485.5464 15558.771 65536
14281.668 3562.2805 15901.295 0
13151.869 3258.9087 14547.106 131072
13958.598 3436.2195 15338.585 196608
14137.187 3457.6018 15434.031 196608
16056.24 3901.6387 17416.121 196608
17765.852 4289.4185 19147.09 196608
18022.402 4323.6655 19299.965 196608
18420.799 4391.2935 19601.842 196608
18810.906 4456.1089 19891.162 262144
0 0 0 0
0 0 0 0
0 0 0 0
0 0 0 0
0 0 0 0
0 0 0 0
0 0 0 0
-9309.6963 2356.2141 10245.839 0
-9001.0859 2293.1062 9971.4189 0
-9237.1758 2368.8486 10300.78 0
-9139.9521 2359.5544 10260.364 0
-9115.4199 2369.0269 10301.556 0
-9070.0947 2373.1875 10319.647 0
-9050.6904 2384.2329 10367.678 0
-8977.4512 2381.1506 10354.274 0
-8934.668 2386.1599 10376.057 0
-8884.5635 2389.2695 10389.579 0
-8850.5352 2396.7764 10422.222 0
-8903.542 2428.125 10558.539 0
-8841.4961 2428.3191 10559.383 0
-8835.3262 2443.9722 10627.449 0
-8790.2998 2449.0251 10649.422 0
-8744.375 2453.8989 10670.616 0
-8687.5645 2455.7668 10678.738 0
-8606.8867 2450.8665 10657.429 0
-8618.3096 2472.3137 10750.691 0
-8503.8037 2457.6865 10687.086 0
-8593.2412 2502.2246 10880.757 0
-8602.1035 2523.7981 10974.567 0
-8543.2861 2525.6924 10982.805 0
-8483.8486 2527.4314 10990.366 0
-8440.2812 2533.9619 11018.765 0
-8390.4521 2538.7 11039.367 0
-8382.8721 2556.3967 11116.32 0
-8364.1094 2570.9373 11179.549 0
-8310.1875 2574.8171 11196.42 0
-8244.043 2574.9419 11196.963 0
-8186.8604 2577.8906 11209.785 0
-8126.6987 2579.9421 11218.706 0
-8067.8657 2582.4526 11229.623 0
-8017.8804 2587.8613 11253.142 0
-7965.3325 2592.5261 11273.427 0
-7919.4448 2599.4565 11303.563 0
-7860.3291 2602.1267 11315.174 0
-7810.7817 2608.0378 11340.878 0
-7779.3696 2620.1597 11393.589 0
-7743.9937 2631.1475 11441.369 0
-7641.8696 2619.4509 11390.507 0
-7580.5752 2621.6653 11400.137 0
-7521.5264 2624.7036 11413.348 0
-7460.7397 2627.1846 11424.137 0
-7432.8325 2641.3962 11485.935 0
-7368.125 2642.6719 11491.482 0
-7282.668 2636.4602 11464.471 0
-7229.7441 2642.0195 11488.646 0
-7152.5859 2638.7449 11474.405 65536
-7106.3135 2646.9106 11509.914 65536
-7047.7075 2650.5969 11525.943 65536
-6989.2266 2654.4031 11542.494 65536
-6914.9873 2652.2405 11533.091 65536
-6861.0703 2657.9072 11557.732 0
-6818.645 2668.1853 11602.426 0
-6784.5361 2681.9612 11662.329 0
-6726.6138 2686.5105 11682.111 0
-6628.5581 2674.9592 11631.881 0
-6556.335 2673.6985 11626.398 0
-6480.0967 2670.7563 11613.605 0
-6436.9976 2681.5562 11660.567 0
-6350.5586 2674.3398 11629.188 0
-6263.6035 2666.7446 11596.161 0
-6205.7427 2671.5054 11616.863 0
-6155.5005 2679.6902 11652.454 0
-6101.7388 2686.5117 11682.116 0
-6042.2212 2690.9268 11701.314 0
-5986.7725 2697.2776 11728.931 0
-5933.1245 2704.5989 11760.768 0
-5886.1899 2715.1914 11806.829 0
-5823.604 2718.7332 11822.229 0
-5729.4771 2707.4563 11773.193 0
-5642.3433 2699.2466 11737.493 0
-5584.646 2705.0896 11762.901 0
-5513.4224 2704.4456 11760.101 0
-5455.2471 2710.2676 11785.418 0
-5422.0078 2728.7913 11865.967 0
-5387.4307 2747.1211 11945.672 0
-5380.2163 2780.0789 12088.987 0
-5363.1294 2808.7588 12213.7 0
-5326.147 2827.6631 12295.903 0
-5271.2812 2837.467 12338.536 0
-5223.1128 2851.2034 12398.268 0
-5172.2383 2863.8345 12453.193 65536
-5108.1494 2869.4097 12477.436 0
-5056.4146 2882.1907 12533.014 0
-5005.665 2895.9241 12592.732 0
-4955.041 2910.1482 12654.585 0
-4897.0039 2920.3899 12699.12 0
-4829.6172 2925.2891 12720.424 0
-4764.6533 2931.835 12748.889 0
-4707.4844 2943.4666 12799.467 0
-4671.103 2968.6912 12909.155 0
-4648.3462 3003.562 13060.789 0
-4603.1558 3024.876 13153.471 0
-4525.9004 3025.4907 13156.145 0
-4449.3374 3026.5989 13160.963 65536
-4437.7725 3072.7515 13361.654 65536
-4364.2798 3076.9253 13379.805 65536
-4310.0244 3095.0684 13458.698 0
-4305.8311 3150.5281 13699.861 196608
-4246.3286 3166.876 13770.949 196608
-4177.2666 3176.5972 13813.221 196608
-4113.5879 3190.8843 13875.347 131072
-4043.4131 3200.6135 13917.653 0
-4007.7222 3238.6152 14082.901 0
-3940.5732 3252.2749 14142.3 131072
-3859.0845 3254.4368 14151.701 65536
-3724.0583 3210.5403 13960.82 65536
-3637.729 3207.5815 13947.955 65536
-3572.2834 3223.3289 14016.431 65536
-3526.4294 3257.928 14166.883 0
-3478.7019 3292.4463 14316.983 0
-3421.0356 3319.0535 14432.683 0
-3344.0969 3327.8501 14470.934 0
-3264.5227 3334.4192 14499.5 0
-3192.3972 3349.1597 14563.596 0
-3143.157 3389.3989 14738.575 0
-3074.1882 3410.062 14828.427 0
-2971.7258 3393.6948 14757.256 0
-2880.8079 3389.9167 14740.827 0
-2814.3987 3415.6467 14852.712 0
-2732.1501 3423.1973 14885.544 0
-2657.8447 3441.5381 14965.299 0
-2608.4309 3494.4966 15195.585 0
-2516.1042 3491.7014 15183.431 0
-2417.2488 3479.3013 15129.509 0
-2341.6355 3500.6892 15222.514 0
-2255.5645 3507.5342 15252.277 0
-2158.5562 3497.2319 15207.479 0
-2059.156 3481.9844 15141.177 0
-1976.2261 3494.4668 15195.456 0
-1907.9677 3535.3308 15373.149 0
-1811.088 3524.604 15326.506 0
-1731.7828 3548.7546 15431.522 65536
-1643.7776 3556.7822 15466.429 65536
-1552.1606 3557.4817 15469.471 65536
-1467.1345 3574.3264 15542.721 131072
-1375.3663 3575.906 15549.589 65536
-1289.1091 3593.074 15624.242 196608
-1186.2922 3563.1682 15494.198 196608
-1088.6338 3545.0261 15415.31 131072
-994.14319 3534.8145 15370.904 131072
-904.67572 3542.2031 15403.033 131072
-816.70142 3557.7603 15470.683 131072
-733.43939 3600.3975 15656.087 131072
-642.71082 3613.446 15712.828 131072
-553.15833 3638.6672 15822.502 196608
-458.15295 3631.0056 15789.186 196608
-353.52084 3523.4492 15321.483 196608
-263.35849 3535.5112 15373.935 196608
-172.82625 3552.7866 15449.056 196608
-80.890152 3547.6538 15426.736 196608
10.779718 3542.2168 15403.093 196608
100.45985 3477.6294 15122.238 196608
184.71466 3374.9128 14675.582 196608
270.81393 3360.9783 14614.989 196608
351.48605 3302.8145 14362.067 131072
430.52551 3255.0366 14154.31 131072
500.07373 3162.8486 13753.437 65536
585.65747 3183.7361 13844.265 65536
657.22229 3132.656 13622.146 65536
727.37866 3086.8037 13422.76 65536
786.39575 3007.415 13077.543 65536
861.42859 2998.0476 13036.811 65536
901.22943 2877.7268 12513.603 131072
1011.3575 2983.1941 12972.221 131072
1029.204 2820.7991 12266.057 196608
1045.1776 2675.0945 11632.47 196608
1095.4772 2629.8752 11435.836 196608
1194.3297 2699.6892 11739.418 131072
1302.973 2782.7063 12100.413 131072
1435.5984 2905.5771 12634.708 131072
1612.1359 3100.6907 13483.146 328448
1736.2725 3181.3132 13833.729 787968
1860.238 3254.3464 14151.309 524288
1979.8934 3313.8477 14410.044 524288
2074.696 3328.541 14473.938 524288
2168.9534 3341.2249 14529.093 458752
2260.2651 3348.5737 14561.049 393216
2344.0916 3344.6997 14544.203 458752
2411.0588 3317.9016 14427.673 327680
2503.1812 3326.3708 14464.502 327680
2598.9211 3338.9258 14519.097 131072
2671.5483 3321.9346 14445.211 131072
2707.5022 3261.8196 14183.804 0
2751.0811 3214.2434 13976.923 256
2795.8528 3170.8098 13788.054 256
2843.8652 3133.4199 13625.467 65536
2898.2769 3104.9558 13501.693 196608
2958.2715 3083.8457 13409.896 262144
3051.8464 3097.9302 13471.143 393216
3119.885 3086.0359 13419.421 327680
3189.0562 3075.8267 13375.026 393216
3250.4272 3058.7737 13300.873 458752
3309.6213 3040.5308 13221.545 458752
3389.2571 3041.4778 13225.663 458752
3475.481 3048.1602 13254.721 393216
3549.2119 3043.8323 13235.901 393732
3572.1628 2997.0874 13032.634 262147
3695.8311 3035.0356 13197.65 196611
3834.6416 3083.5835 13408.757 393218
3931.2451 3096.9053 13466.686 458754
4067.4812 3140.2932 13655.355 524288
4133.9219 3129.1528 13606.912 458753
4213.9507 3128.5281 13604.195 262145
4284.8408 3121.2695 13572.632 196611
4814.792 3442.501 14969.484 131075
4513.5269 3168.5518 13778.235 131075
4582.7358 3159.8091 13740.218 65540
4431.1587 3001.8049 13053.148 2
5524.0952 3677.8042 15992.686 329480
6059.9658 3966.3271 17247.309 592911
6173.8989 3973.6819 17279.289 329481
5714.1162 3617.5784 15730.798 2039844
5181.5542 3227.6067 14035.031 65795
5176.5435 3173.3984 13799.312 65539
5325.3403 3213.7 13974.56 65536
5224.7007 3104.5474 13499.917 0
5270.8091 3084.5759 13413.072 65793
5202.4009 2999.1812 13041.738 2
5336.3442 3031.2366 13181.129 258
5280.1001 2955.8938 12853.507 329223
5284.6396 2916.2427 12681.086 2
5299.6392 2883.3977 12538.262 2
5409.0225 2902.1033 12619.602 0
5400.4082 2857.8538 12427.187 256
5351.3174 2793.6675 12148.077 0
5287.5571 2723.6338 11843.54 0
5205.3252 2646.0508 11506.175 0
5109.1001 2563.4587 11147.028 0
5069.519 2511.0378 10919.081 0
5018.6973 2454.4451 10672.99 65536
4682.9126 2261.6406 9834.5928 65536
4694.4033 2239.2407 9737.1885 65536
4598.4106 2166.741 9421.9277 65536
4616.4316 2149.0618 9345.0518 65536
3688.1396 1696.5083 7377.1528 65536
3941.2107 1791.6195 7790.7378 196608
3524.4316 1583.5533 6885.9761 65536
3371.0378 1497.2461 6510.6748 985604
3577.5771 1570.9481 6831.1631 196608
4656.8398 2021.9172 8792.1719 196608
4739.9399 2035.1609 8849.7607 131072
4796.5098 2036.8478 8857.0967 65536
4860.3936 2041.5706 8877.6328 65536
4940.0068 2052.7278 8926.1494 65536
4961.8262 2039.8877 8870.3154 65536
5035.7563 2048.5164 8907.8359 65536
5099.4473 2052.8433 8926.6514 65536
5107.9946 2035.1107 8849.543 65536
5233.8511 2064.0015 8975.1729 0
5271.5034 2057.8765 8948.5381 0
5387.9644 2082.3318 9054.8799 0
5440.9663 2082.0198 9053.5244 0
5513.0903 2088.96 9083.7031 0
5592.3223 2098.4326 9124.8936 0
5698.1621 2117.6116 9208.292 65536
5823.4741 2143.593 9321.2715 65536
5872.9048 2141.4167 9311.8076 65536
6028.1099 2177.489 9468.665 65536
6156.1279 2203.1643 9580.3125 65536
6284.4268 2228.4685 9690.3467 65536
6389.6938 2245.2205 9763.1904 65536
6476.2847 2255.1672 9806.4443 65536
6584.2144 2272.3008 9880.9482 65536
6668.4019 2281.0105 9918.8213 0
6771.6592 2296.0332 9984.1465 0
6847.4341 2301.5576 10008.169 196608
6953.2261 2316.9893 10075.272 65536
7049.4053 2328.9814 10127.42 65536
7152.5605 2343.0559 10188.622 65536
7222.4038 2346.0732 10201.742 131072
7305.6211 2353.3484 10233.378 65536
7423.1538 2371.4661 10312.162 0
7545.9805 2390.9648 10396.95 0
7646.6265 2403.1755 10450.048 0
7692.2358 2398.032 10427.682 0
7806.6401 2414.2458 10498.187 0
7975.3911 2446.8765 10640.078 0
8160.9004 2484.0947 10801.92 0
8363.8799 2526.0081 10984.178 0
8478.5029 2540.7939 11048.473 0
9416.0059 2800.0542 12175.849 0
9761.4023 2880.6267 12526.213 0
9940.9482 2911.4067 12660.058 0
10204.527 2966.1506 12898.107 0
10087.591 2910.2979 12655.236 0
10628.955 3043.7883 13235.71 0
11249.669 3197.8733 13905.737 0
10693.48 3017.5999 13121.831 0
11204.315 3138.8611 13649.127 0
11367.07 3161.5659 13747.859 0
11273.558 3113.179 13537.451 0
11667.055 3199.012 13910.689 0
11889.53 3237.074 14076.2 0
12098.946 3271.0732 14224.044 0
11723.372 3147.5405 13686.869 0
12352.039 3293.4749 14321.456 0
12507.114 3312.0007 14402.014 0
12585.897 3310.2087 14394.221 0
12161.55 3177.0061 13814.999 0
12502.279 3244.114 14106.812 0
13360.886 3443.8123 14975.188 65536
13901.2 3559.3696 15477.681 0
12895.834 3280.2412 14263.91 196608
13133.229 3318.8091 14431.619 196608
13988.34 3511.9619 15271.531 196608
15930.723 3973.8389 17279.973 196608
17759.107 4401.5444 19139.822 196608
17933.154 4416.3926 19204.389 196608
18355.107 4491.7188 19531.939 196608
0 0 0 0
0 0 0 0
0 0 0 0
0 0 0 0
0 0 0 0
0 0 0 0
0 0 0 0
-9028.0762 2328.7581 9871.332 0
-9251.3936 2401.9712 10181.674 0
-9202.8486 2405.0989 10194.932 0
-9158.7852 2409.447 10213.363 0
-8910.0205 2359.6423 10002.247 0
-8779.8076 2340.7756 9922.2725 0
-9029.708 2423.6804 10273.696 0
-8973.6377 2425.0291 10279.413 0
-8922.7578 2427.8081 10291.193 0
-8848.5371 2424.231 10276.03 0
-8824.125 2434.345 10318.902 0
-8768.4199 2435.9075 10325.525 0
-8835.9453 2471.9668 10478.377 0
-8820.1816 2485.0718 10533.928 0
-8758.3115 2485.2808 10534.813 0
-8715.627 2490.9763 10558.956 0
-8610.9941 2478.9204 10507.853 0
-8548.1035 2478.7932 10507.313 0
-8535.9453 2493.4841 10569.586 0
-8546.3906 2515.0444 10660.978 0
-8548.7041 2534.5156 10743.514 0
-8492.0654 2536.6704 10752.648 0
-8515.4648 2562.9475 10864.033 0
-8463.6875 2566.8269 10880.478 0
-8416.0801 2572.0403 10902.576 0
-8358.8662 2574.376 10912.478 0
-8306.3027 2578.1917 10928.651 0
-8254.6973 2582.3669 10946.351 0
-8202.877 2586.541 10964.044 0
-8149.9312 2590.4246 10980.505 0
-8095.9658 2594.0435 10995.846 0
-8039.853 2597.0281 11008.497 0
-7979.3262 2598.624 11015.262 0
-7920.7915 2600.9006 11024.912 0
-7892.4175 2613.2012 11077.053 0
-7834.5654 2615.8667 11088.352 0
-7832.7202 2637.4358 11179.78 0
-7774.5684 2640.2522 11191.719 0
-7718.7437 2643.9146 11207.243 0
-7662.1631 2647.3792 11221.93 0
-7612.6353 2653.363 11247.294 0
-7545.5605 2653.2827 11246.954 0
-7488.3213 2656.6907 11261.399 0
-7433.3037 2660.9548 11279.476 0
-7373.1846 2663.4546 11290.07 0
-7311.9819 2665.6045 11299.185 0
-7251.9883 2668.2395 11310.354 0
-7195.5996 2672.2625 11327.406 0
-7140.1846 2676.7263 11346.328 0
-7083.168 2680.6692 11363.042 65536
-7013.2051 2679.7412 11359.108 65536
-6962.2891 2686.144 11386.249 65536
-6905.3608 2690.3298 11403.992 65536
-6854.7695 2697.0923 11432.657 65536
-6799.0415 2701.9485 11453.242 0
-6750.3403 2709.7239 11486.201 0
-6710.2056 2721.1321 11534.559 0
-6657.1909 2727.4985 11561.546 0
-6568.2231 2719.1138 11526.004 0
-6475.729 2709.0774 11483.46 0
-6401.2441 2706.4412 11472.286 0
-6339.7046 2709.2805 11484.321 0
-6275.7837 2711.1531 11492.259 0
-6188.0498 2702.6665 11456.285 0
-6119.6118 2702.5122 11455.631 0
-6039.2324 2697.0215 11432.356 0
-5993.0425 2706.8479 11474.011 0
-5940.6494 2714.0669 11504.61 0
-5882.019 2718.5713 11523.704 0
-5822.1553 2722.6047 11540.802 0
-5759.9849 2725.6431 11553.681 0
-5707.4883 2733.3877 11586.509 0
-5642.7207 2735.3726 11594.923 0
-5581.5771 2739.1853 11611.085 0
-5521.3853 2743.5664 11629.655 0
-5462.9839 2748.9592 11652.516 0
-5402.9316 2753.6497 11672.397 0
-5370.2368 2772.5862 11752.667 0
-5333.0503 2789.6721 11825.093 0
-5290.8257 2804.5439 11888.132 0
-5251.4707 2821.3601 11959.414 0
-5218.251 2841.979 12046.815 0
-5175.6641 2857.999 12114.723 0
-5130.2612 2872.8945 12177.862 0
-5087.375 2889.6455 12248.868 65536
-5038.8877 2903.6553 12308.254 0
-4985.4136 2915.1619 12357.028 0
-4932.5864 2927.3962 12408.889 0
-4881.8389 2941.2554 12467.636 0
-4828.4624 2953.9331 12521.375 0
-4765.6245 2961.1287 12551.877 0
-4705.5547 2970.301 12590.757 0
-4650.9932 2983.3027 12645.869 0
-4607.3818 3003.8706 12733.055 0
-4579.4443 3035.5149 12867.191 0
-4522.5586 3048.7197 12923.165 0
-4442.3433 3046.3823 12913.257 65536
-4362.5234 3044.2388 12904.17 65536
-4337.2446 3080.7593 13058.977 65536
-4266.9424 3086.0474 13081.392 65536
-4216.4482 3106.1238 13166.493 0
-4179.7822 3137.3386 13298.811 196608
-4118.0684 3150.5942 13354.998 196608
-4049.0396 3158.6638 13389.205 196608
-3986.4807 3172.2058 13446.607 196608
-3909.9009 3174.916 13458.096 196608
-3917.9465 3247.8928 13767.436 196608
-3832.6714 3244.9712 13755.052 196608
-3748.6631 3243.0186 13746.773 196608
-3662.479 3239.0542 13729.971 65536
-3499.4976 3165.4429 13417.941 65536
-3460.9595 3203.5881 13579.633 65536
-3418.6814 3240.01 13734.021 65536
-3377.0859 3278.8762 13898.771 0
-3330.5298 3314.7546 14050.855 0
-3252.5925 3320.4424 14074.966 0
-3173.7585 3325.4912 14096.367 0
-3102.4055 3338.865 14153.057 0
-3033.1125 3355.2629 14222.565 0
-2960.377 3368.6838 14279.454 0
-2858.2915 3348.5129 14193.953 0
-2792.7053 3371.1753 14290.015 0
-2722.7781 3389.854 14369.193 0
-2651.7046 3408.2695 14447.253 0
-2572.3611 3416.9324 14483.974 0
-2491.1711 3423.6567 14512.479 0
-2392.9165 3406.5708 14440.054 0
-2304.876 3403.2957 14426.17 0
-2365.8823 3628.3474 15380.138 0
-2154.7483 3437.3569 14570.552 0
-2090.0391 3473.7368 14724.762 0
-1996.5763 3463.4177 14681.021 0
-1968.7 3571.1267 15137.587 65536
-1864.8721 3544.7817 15025.913 0
-1877.7363 3748.7529 15890.523 0
-1643.9327 3455.7954 14648.711 0
-1555.1219 3451.9143 14632.26 0
-1471.3167 3459.3425 14663.746 65536
-1388.6693 3470.5999 14711.466 65536
-1304.7909 3480.0867 14751.679 65536
-1228.3533 3512.2156 14887.869 65536
-1133.2708 3491.8833 14801.684 65536
-1040.5828 3476.1272 14734.896 65536
-948.17572 3458.5007 14660.179 65536
-857.95618 3446.0933 14607.585 65536
-773.75006 3457.7649 14657.06 65536
-693.77649 3493.7129 14809.438 65536
-610.17963 3519.2095 14917.515 65536
-527.638 3560.4951 15092.521 65536
-437.55893 3557.4141 15079.46 65536
-343.4982 3512.0354 14887.105 65536
-255.06451 3512.6624 14889.763 65536
-166.32216 3507.446 14867.651 0
-77.291573 3477.4363 14740.443 0
10.31551 3477.2812 14739.787 0
97.066414 3446.9993 14611.425 0
178.08389 3337.853 14148.767 0
263.33707 3352.6494 14211.486 0
335.96277 3238.5356 13727.771 0
412.57401 3199.9285 13564.121 0
484.20468 3141.6284 13316.993 0
552.14813 3079.147 13052.143 0
627.2558 3067.0903 13001.036 0
676.17065 2943.6504 12477.788 0
736.8147 2890.6265 12253.025 0
801.77527 2862.5518 12134.021 0
880.24603 2883.3657 12222.248 329478
903.10278 2732.7219 11583.688 921359
915.13916 2572.9971 10906.632 1908253
961.39795 2524.2576 10700.031 256
1008.6405 2483.9888 10529.337 460809
1150.3945 2667.5818 11307.565 2041127
1295.8485 2839.0146 12034.249 1910054
1422.5105 2953.4954 12519.521 2040607
1550.3816 3058.9814 12966.663 658183
1700.9369 3197.1143 13552.192 327680
1810.0751 3248.428 13769.705 458752
1950.3673 3348.7944 14195.146 327680
2067.0891 3402.0449 14420.869 131072
2170.0015 3429.2327 14536.114 1842459
2265.0649 3442.4099 14591.971 2369318
2283.8494 3342.9622 14170.424 260
2421.7014 3418.6741 14491.357 2764593
2527.5046 3445.4968 14605.056 2502190
2500.9353 3296.0789 13971.69 2437166
2616.5964 3337.6919 14148.083 2239532
2723.7314 3366.176 14268.824 2634803
2773.3809 3324.0408 14090.219 2240561
2809.3245 3268.4299 13854.49 2241075
2816.2065 3183.1382 13492.949 2107176
2845.2869 3126.9651 13254.838 1184019
2919.363 3121.937 13233.523 65536
3032.2781 3157.6167 13384.767 657415
3048.8337 3093.6956 13113.812 1118222
3121.1499 3088.1309 13090.224 1117451
3188.4426 3077.988 13047.229 393216
3305.8394 3115.5466 13206.436 393216
3349.5068 3083.4893 13070.549 262144
3462.4858 3115.2456 13205.16 458754
3550.7271 3123.8311 13241.553 589825
3590.2715 3090.1309 13098.701 655361
3663.9006 3086.5747 13083.628 655360
3763.5688 3104.647 13160.233 655360
3843.3821 3105.938 13165.706 524288
3915.8286 3101.3428 13146.228 262144
3993.8862 3101.2847 13145.981 2
3896.0557 2967.2708 12577.912 2698287
3961.885 2960.6008 12549.64 2895924
4000.812 2934.4458 12438.771 1974308
4238.0464 3052.0515 12937.288 260
4433.4585 3135.8845 13292.646 3
4442.1597 3087.0291 13085.554 3290939
4690.3936 3203.4514 13579.055 2699315
4626.0176 3106.04 13166.139 2172970
4799.9556 3169.2185 13433.944 263688
5028.0093 3265.4753 13841.966 65795
5014.3394 3204.1709 13582.104 1
5407.9893 3400.9636 14416.285 65537
5391.4224 3337.665 14147.971 196608
5402.1533 3292.9504 13958.43 65536
5243.3887 3147.8328 13343.293 65536
5247.9697 3103.6421 13155.974 0
5468.7627 3186.739 13508.212 0
5149.7251 2957.4141 12536.131 0
5322.646 3013.126 12772.287 0
5269.623 2941.1641 12467.248 0
5300.2905 2917.2605 12365.924 0
5290.8066 2872.2136 12174.977 131072
5253.3408 2813.397 11925.659 262144
5183.8433 2739.2205 11611.233 458752
5115.9268 2667.8171 11308.563 458752
5037.5552 2592.8843 10990.932 393216
5001.376 2541.3088 10772.31 327680
4980.7896 2498.8601 10592.374 262144
4983.0112 2468.771 10464.83 131072
4611.6685 2256.6274 9565.5791 131072
4725.8306 2284.3296 9683.0049 131072
4756.9351 2271.7007 9629.4727 131072
3671.5745 1732.5363 7344.0181 131072
0 0 0 0
0 0 0 0
3446.0576 1570.1227 6655.5654 1314825
3494.5991 1574.1702 6672.7222 196608
4481.1304 1995.9104 8460.4297 196608
4573.2964 2014.3582 8538.6279 0
4723.1973 2057.5518 8721.7207 65536
4776.623 2058.2366 8724.623 65536
4843.7402 2064.7432 8752.2041 65536
4886.9585 2061.0322 8736.4736 65536
4988.9771 2081.9373 8825.0869 65536
5072.1914 2094.6416 8878.9395 65536
5155.2412 2107.0171 8931.3975 0
5189.8784 2099.5552 8899.7676 0
5281.0439 2114.8813 8964.7334 0
5369.6426 2128.8838 9024.0889 0
5435.9717 2133.8674 9045.2139 0
5514.2739 2143.4077 9085.6533 0
5595.3062 2153.8135 9129.7627 0
5667.2017 2160.5364 9158.2598 65536
5816.3145 2196.2893 9309.8115 65536
5874.5273 2197.3667 9314.3799 65536
5977.2485 2214.9177 9388.7754 65536
6078.7969 2231.7129 9459.9688 65536
6177.0674 2247.0081 9524.8027 65536
6266.668 2258.9004 9575.2129 65536
6337.2319 2263.7778 9595.8887 65536
6438.5347 2279.4514 9662.3271 65536
6563.0776 2303.0029 9762.1582 65536
6658.9639 2316.1736 9817.9883 65536
6743.2886 2325.1294 9855.9502 131072
6811.7056 2328.4929 9870.208 65536
6916.4272 2344.1033 9936.3789 65536
6997.0479 2351.3506 9967.0986 65536
7082.3564 2360.0381 10003.924 65536
7174.667 2370.8945 10049.943 65536
7320.9199 2399.2502 10170.14 0
7395.0083 2403.6851 10188.938 0
7579.5078 2443.6443 10358.321 0
7625.0078 2438.5073 10336.546 0
7733.875 2453.5557 10400.334 0
7873.8242 2478.1477 10504.577 0
8094.2183 2527.4722 10713.658 0
8221.3008 2547.1169 10796.93 0
9099.2041 2797.2751 11857.32 0
9463.8477 2887.0137 12237.712 0
9689.4707 2933.2983 12433.907 0
9724.9541 2921.7568 12384.984 0
10315.502 3075.8992 13038.375 0
10133.063 2998.9705 12712.283 0
10119.35 2972.7468 12601.124 0
10217.023 2979.3896 12629.283 0
10333.502 2991.3796 12680.106 0
11263.443 3236.9751 13721.157 0
10686.733 3049.1592 12925.027 0
11128.451 3152.5303 13363.205 0
11610.354 3265.739 13843.084 0
11491.867 3209.6667 13605.4 0
12261.102 3400.5854 14414.682 0
11746.606 3235.2859 13713.996 0
12116.416 3314.1436 14048.265 0
12015.722 3264.1082 13836.171 0
12719.495 3431.8044 14547.015 0
12569.478 3368.4319 14278.388 65536
12510.175 3330.0574 14115.722 65536
13647.735 3608.6624 15296.695 65536
13063.779 3431.3977 14545.291 196608
13177.869 3438.6106 14575.866 196608
13059.735 3385.5288 14350.858 196608
13897.611 3579.3586 15172.48 262144
15565.656 3983.1221 16883.986 196608
0 0 0 0
0 0 0 0
0 0 0 0
0 0 0 0
0 0 0 0
0 0 0 0
0 0 0 0
0 0 0 0
0 0 0 0
0 0 0 0
0 0 0 0
-9112.457 2425.5029 10028.766 0
-9108.7695 2440.4846 10090.711 0
-9057.627 2442.8662 10100.558 0
-8851.6475 2403.2407 9936.7178 0
-8967.5205 2451.0537 10134.411 0
-8896.2695 2448.0215 10121.874 0
-8876.9336 2459.3313 10168.637 0
-8819.8047 2460.2537 10172.45 0
-8777.1953 2465.2668 10193.179 0
-8455.4512 2391.4041 9887.7764 0
-8692.0576 2475.5271 10235.602 0
-8739.0879 2506.4636 10363.516 0
-8734.9551 2523.0613 10432.142 0
-8696.0303 2529.7747 10459.899 0
-8653.5732 2535.5496 10483.777 0
-8606.8896 2540.1611 10502.845 0
-8565.3418 2546.3667 10528.503 0
-8525.793 2553.2622 10557.015 0
-8476.5889 2557.3472 10573.904 0
-8481.5449 2577.9551 10659.112 0
-8408.7393 2575.0596 10647.141 0
-8417.7031 2597.3511 10739.31 0
-8397.1045 2610.7915 10794.882 0
-8339.3779 2612.8062 10803.212 0
-8295.3408 2619.175 10829.545 0
-8241.9551 2622.6682 10843.988 0
-8188.0269 2626.0427 10857.94 0
-8133.2305 2629.1899 10870.954 0
-8084.373 2634.323 10892.178 0
-8028.8916 2637.3628 10904.746 0
-7977.2695 2641.7307 10922.806 0
-7917.5962 2643.4814 10930.045 0
-7859.6733 2645.8508 10939.842 0
-7803.0732 2648.7087 10951.658 0
-7740.9629 2649.7285 10955.875 0
-7682.0591 2651.8723 10964.739 0
-7642.5562 2660.8074 11001.684 0
-7587.0176 2664.2661 11015.983 0
-7561.668 2678.4778 11074.745 0
-7465.6963 2667.7041 11030.199 0
-7407.4023 2670.3225 11041.024 0
-7363.9634 2678.3899 11074.382 0
-7313.2666 2683.9397 11097.328 0
-7281.6646 2696.6621 11149.932 0
-7221.0469 2698.7734 11158.662 0
-7161.8496 2701.4602 11169.771 0
-7105.4663 2705.2688 11185.518 0
-7049.9268 2709.4731 11202.901 0
-6996.1973 2714.4602 11223.521 65536
-6940.7056 2718.8525 11241.684 65536
-6881.8286 2721.9917 11254.663 65536
-6834.0264 2729.616 11286.187 65536
-6781.3477 2735.4238 11310.201 65536
-6728.2949 2741.196 11334.067 0
-6600.251 2716.2234 11230.812 0
-6620.3931 2752.3472 11380.174 0
-6567.7139 2758.6296 11406.15 0
-6497.5981 2757.6431 11402.07 0
-6399.21 2744.5095 11347.768 0
-6285.7158 2724.5488 11265.236 0
-6228.8306 2728.96 11283.475 0
-6171.0908 2733.0886 11300.545 0
-6112.812 2737.0667 11316.993 0
-6051.8662 2739.9255 11328.814 0
-5993.085 2743.8398 11344.999 0
-5950.3545 2755.2759 11392.283 0
-5895.3203 2761.2119 11416.827 0
-5832.9297 2763.8005 11427.53 0
-5777.3091 2769.696 11451.906 0
-5718.2246 2774.0518 11469.916 0
-5645.3584 2771.7456 11460.381 0
-5595.5039 2780.8196 11497.899 0
-5543.1953 2788.8835 11531.241 0
-5482.4434 2792.8477 11547.632 0
-5421.4741 2796.8005 11563.976 0
-5354.0454 2797.4797 11566.784 0
-5315.7446 2813.594 11633.412 0
-5272.1353 2827.2861 11690.025 0
-5224.019 2838.8948 11738.023 0
-5183.5249 2855.0156 11804.679 0
-5136.542 2867.9558 11858.183 0
-5101.2549 2887.8774 11940.553 0
-5053.4829 2901.1936 11995.611 0
-5011.2095 2918.0925 12065.484 0
-4967.1992 2934.4563 12133.144 0
-4909.9077 2943.3401 12169.876 0
-4859.9521 2956.9539 12226.164 0
-4816.6982 2975.1196 12301.274 0
-4774.5566 2994.5427 12381.584 0
-4709.3027 2999.8518 12403.535 0
-4647.5718 3007.6096 12435.611 0
-4605.3945 3028.4761 12521.889 0
-4566.395 3052.1523 12619.783 0
-4525.9019 3075.604 12716.749 0
-4456.4937 3079.8696 12734.386 0
-4374.667 3075.5513 12716.531 65536
-4302.207 3077.7822 12725.756 0
-4265.9097 3106.4272 12844.194 196608
-4197.834 3112.553 12869.522 196608
-4136.4546 3123.9631 12916.701 196608
-4097.3799 3152.969 13036.631 196608
-4027.5437 3158.9653 13061.425 196608
-3964.7458 3170.8262 13110.466 196608
-3900.5627 3182.0327 13156.801 196608
-3830.2859 3188.6245 13184.058 196608
-3815.9053 3242.9961 13408.868 196608
-3754.7861 3259.1187 13475.53 196608
-3638.7371 3227.2258 13343.663 196608
-3545.9141 3214.9702 13292.989 196608
-3442.2312 3192.0859 13198.368 196608
-3383.9155 3211.1851 13277.339 65536
-3348.0354 3252.9956 13450.213 65536
-3309.0229 3293.7329 13618.651 0
-3230.1355 3295.8276 13627.312 0
-3151.8406 3298.6501 13638.981 0
-3080.0769 3308.6375 13680.276 0
-3003.6667 3314.04 13702.614 0
-2929.9026 3322.7444 13738.604 0
-2858.6233 3334.8464 13788.644 0
-2783.2214 3342.7117 13821.164 0
-2692.4121 3331.988 13776.824 0
-2628.8567 3355.3774 13873.532 65536
-2562.4014 3376.4602 13960.704 65536
-2497.7617 3401.4268 14063.934 0
-2428.1511 3421.1187 14145.354 0
-2317.7246 3382.6528 13986.309 0
-2225.1292 3368.3176 13927.037 0
-2154.4417 3387.3191 14005.603 0
-2084.5784 3409.1963 14096.059 0
-2008.42 3422.1792 14149.738 0
-1933.6216 3438.7151 14218.109 0
-1835.3221 3413.0586 14112.028 0
-1799.38 3506.4609 14498.221 0
-1983.1079 4058.8618 16782.24 0
-1856.7717 4001.5498 16545.271 0
-1520.1124 3459.2102 14302.853 0
-1443.3657 3479.1208 14385.176 65536
-1339.6157 3432.3508 14191.795 65536
-1248.5867 3414.0786 14116.246 65536
-1173.9069 3441.0994 14227.969 0
-1086.7688 3432.9614 14194.32 0
-1000.2087 3425.4324 14163.19 0
-908.74786 3398.1941 14050.567 0
-815.53418 3358.2253 13885.308 0
-733.71649 3361.4663 13898.709 0
-656.12683 3387.3582 14005.764 65536
-571.97449 3381.9702 13983.485 65536
-493.14346 3411.5627 14105.843 65536
-411.44843 3429.4065 14179.622 0
-323.93906 3395.4976 14039.418 0
-236.40578 3337.7219 13800.532 0
-144.78284 3130.1392 12942.236 65536
-68.882721 3177.1885 13136.772 197379
9.4824715 3276.9995 13549.462 0
89.149887 3245.6277 13419.748 1711130
167.11977 3211.2646 13277.667 922900
244.21951 3187.5879 13179.771 1646881
317.13968 3134.1067 12958.642 1910569
380.08929 3022.2456 12496.128 1845804
460.41788 3062.5535 12662.789 2240822
533.34479 3049.219 12607.654 2175803
607.3241 3044.4448 12587.915 2175546
691.64178 3086.8594 12763.287 2110009
742.21008 2985.1504 12342.749 1122858
777.44073 2845.5989 11765.743 1649458
817.01221 2743.6572 11344.244 2306874
850.06177 2637.0264 10903.354 2042930
873.29163 2517.1965 10407.893 3093817
923.74402 2486.4961 10280.955 259
987.41693 2492.9839 10307.78 3
1091.7618 2595.4016 10731.248 3751493
1239.3732 2783.6919 11509.775 3424069
1420.1812 3022.9453 12499.021 3423809
1580.9994 3197.9795 13222.736 724496
1754.4521 3380.7827 13978.576 591623
1795.4602 3303.3772 13658.527 196608
1943.1143 3420.3936 14142.356 2171167
2122.3435 3580.9832 14806.348 1776924
2227.3801 3608.585 14920.475 1711389
2255.646 3514.4595 14531.292 921616
2236.1177 3355.5554 13874.268 259
2319.5583 3356.9751 13880.138 2501422
2565.96 3586.0422 14827.267 1514786
2657.2124 3590.27 14844.746 1515554
2687.4055 3514.3774 14530.952 1844779
2745.6143 3478.7063 14383.463 1055261
2881.6497 3540.8186 14640.28 2240819
2873.4956 3427.3113 14170.958 1318431
2870.8677 3326.6711 13754.84 1448989
2892.4614 3258.8943 13474.602 65793
2898.0681 3177.2419 13136.993 262144
2996.6814 3199.165 13227.64 262144
3039.6821 3162.115 13074.447 262144
3111.1233 3155.7605 13048.173 262144
3188.675 3155.7625 13048.182 327680
3208.7224 3100.2048 12818.466 525060
3302.9966 3117.2769 12889.055 327680
3413.9238 3148.936 13019.956 393216
3404.7012 3070.824 12696.985 984843
3538.6411 3122.4231 12910.333 393216
3596.426 3106.061 12842.68 458752
3687.5916 3118.6086 12894.561 524288
3725.3643 3086.4102 12761.43 524288
3797.0979 3083.0715 12747.625 458752
3879.845 3088.6309 12770.611 262144
3775.4341 2947.8447 12188.501 65536
3706.6741 2839.6714 11741.234 1
3640.5369 2737.468 11318.653 395016
4010.2471 2960.7588 12241.896 4
4059.2153 2943.5078 12170.569 4
4284.1729 3052.2439 12620.162 65795
4248.1709 2974.5178 12298.786 65796
4286.7744 2950.7749 12200.616 790547
4453.3589 3014.4514 12463.901 1119769
4494.3223 2992.4041 12372.741 1250841
4558.1572 2986.0493 12346.466 1447706
5063.0664 3264.2656 13496.812 256
4873.5312 3093.0637 12788.939 987408
5336.8149 3335.0791 13789.604 526601
5445.7939 3351.7104 13858.371 395015
5349.96 3243.6689 13411.649 131587
5372.2666 3209.3762 13269.859 0
5463.2788 3216.5264 13299.424 0
5357.8179 3109.4485 12856.687 0
5304.9648 3035.4834 12550.861 0
5294.96 2987.7476 12353.487 65536
5216.6045 2903.2771 12004.226 131072
5157.1929 2831.4866 11707.393 327680
5165.7925 2798.4514 11570.802 786432
5177.9341 2768.1775 11445.628 1179648
5083.2378 2682.313 11090.603 1507328
4948.561 2577.8198 10658.553 1638400
4927.2759 2534.29 10478.569 1572864
4857.9883 2467.4656 10202.27 1376256
4579.334 2297.2581 9498.5098 1114112
4639.1133 2298.9065 9505.3252 851968
4449.9395 2178.6309 9008.0205 655360
0 0 0 0
0 0 0 0
0 0 0 0
3377.1873 1577.5092 6522.5522 525568
3390.4502 1565.7317 6473.856 262400
4390.5298 2004.8232 8289.375 131072
4587.0669 2071.3245 8564.3379 0
4675.334 2088.0122 8633.3379 65536
4750.8418 2098.7012 8677.5332 65536
4817.1372 2105.1348 8704.1348 65536
4884.7612 2112.0063 8732.5459 65536
4961.7925 2122.7576 8777 65536
5018.2886 2124.5916 8784.582 65536
5092.0156 2133.6074 8821.8604 0
5158.7559 2139.5417 8846.3975 0
5226.5166 2145.7754 8872.1719 0
5347.5747 2173.5476 8987.002 0
5362.7158 2158.1458 8923.3193 0
5457.1582 2174.6465 8991.5459 0
5515.459 2176.5649 8999.4775 0
5668.6182 2215.5208 9160.5488 0
5733.9224 2219.7246 9177.9316 0
5878.8989 2254.4019 9321.3115 0
5939.1792 2256.2559 9328.9775 0
6050.2539 2277.1936 9415.5488 65536
6127.2334 2285.0327 9447.9609 0
6215.1011 2296.7527 9496.4199 0
6309.1353 2310.5205 9553.3457 65536
6399.3613 2322.6599 9603.5391 65536
6500.7236 2338.5916 9669.4111 65536
6592.3379 2350.7673 9719.7549 65536
6656.6978 2353.0974 9729.3896 131072
6784.1611 2377.5022 9830.2959 0
6843.7017 2377.8896 9831.8984 65536
6911.1108 2380.9817 9844.6836 65536
7023.8638 2399.5122 9921.3018 65536
7115.9463 2410.7314 9967.6895 65536
7225.6797 2427.696 10037.833 0
7324.6846 2440.8074 10092.045 0
7417.7178 2451.7322 10137.216 0
7529.7988 2468.7258 10207.48 0
7715.0034 2509.2307 10374.956 0
7872.1074 2540.0261 10502.286 0
8117.2637 2598.5247 10744.161 0
8254.7256 2621.9036 10840.827 0
8422.9229 2654.6069 10976.046 0
9353.3818 2925.1997 12094.87 0
9517.5205 2953.8315 12213.254 0
9429.4766 2904.3555 12008.686 0
9641.1631 2947.2488 12186.037 0
10056.314 3051.2371 12615.999 0
10024.77 3019.1545 12483.347 0
10082.622 3014.2698 12463.149 0
9947.5352 2952.196 12206.492 0
10368.872 3054.9592 12631.389 0
10815.515 3163.647 13080.782 0
11003.743 3195.7344 13213.453 0
11322.777 3265.0864 13500.206 0
11452.015 3279.1172 13558.219 0
12192.627 3466.7869 14334.18 0
12254.47 3460.1938 14306.919 0
12314.626 3453.2183 14278.077 0
11841.787 3297.9011 13635.885 65536
12151.27 3361.0886 13897.146 65536
12220.815 3357.5032 13882.322 65536
12386.899 3380.3108 13976.626 262144
13459.024 3648.4204 15085.183 196608
13550.418 3648.8884 15087.117 196608
13422.526 3590.6882 14846.477 196608
13060.365 3470.9885 14351.552 262144
13833.493 3652.604 15102.48 262144
14994.579 3933.6541 16264.543 196608
0 0 0 0
0 0 0 0
0 0 0 0
0 0 0 0
0 0 0 0
0 0 0 0
0 0 0 0
0 0 0 0
0 0 0 0
0 0 0 0
0 0 0 0
-9039.7461 2465.2778 9948.7432 0
-8706.9219 2390.1458 9645.5439 0
-8994.2959 2485.397 10029.935 0
-8950.8252 2489.887 10048.054 0
-8899.7314 2492.3022 10057.802 0
-8832.8711 2490.3052 10049.742 0
-8797.6709 2497.2678 10077.84 0
-8754.2773 2501.9844 10096.874 0
-8671.2686 2495.3655 10070.163 0
-8665.499 2511.0371 10133.406 0
-8647.9932 2523.5029 10183.713 0
-8690.1855 2553.687 10305.522 0
-8652.3516 2560.6169 10333.488 0
-8629.1621 2572.0107 10379.469 0
-8633.4395 2591.8142 10459.386 0
-8574.5967 2592.8184 10463.438 0
-8521.5459 2595.6016 10474.67 0
-8471.1211 2599.231 10489.317 0
-8399.0322 2596.218 10477.158 0
-8401.2881 2616.3125 10558.25 0
-8352.5664 2620.7144 10576.015 0
-8359.8789 2642.8977 10665.536 0
-8342.2373 2657.4709 10724.347 0
-8300.5498 2664.5496 10752.913 0
-8242.7266 2666.5181 10760.857 0
-8189.8423 2670.1277 10775.424 0
-8133.856 2672.7747 10786.106 0
-8083.8237 2677.4358 10804.916 0
-8031.9048 2681.542 10821.486 0
-7976.5542 2684.5593 10833.663 0
-7923.998 2688.5737 10849.863 0
-7864.2427 2690.1917 10856.393 0
-7807.1807 2692.7649 10866.777 0
-7748.124 2694.6875 10874.536 0
-7688.6914 2696.5107 10881.894 0
-7631.1548 2699.0352 10892.082 256
-7582.3931 2704.7334 10915.077 256
-7534.1807 2710.7275 10939.267 0
-7474.4229 2712.6357 10946.967 0
-7417.7393 2715.7029 10959.345 0
-7358.96 2718.0505 10968.818 0
-7300.7632 2720.6572 10979.338 0
-7250.1245 2726.1526 11001.516 0
-7199.8164 2731.8738 11024.603 0
-7145.6338 2736.2161 11042.127 0
-7095.0825 2742.0427 11065.641 0
-7042.2993 2747.1074 11086.079 0
-6990.751 2752.7539 11108.866 0
-6946.9077 2761.5713 11144.449 65536
-6897.876 2768.4761 11172.313 65536
-6848.6567 2775.4387 11200.412 65536
-6782.2993 2775.5254 11200.761 65536
-6718.3696 2776.6162 11205.164 65536
-6647.8364 2774.9729 11198.531 0
-6576.814 2773.0898 11190.933 0
-6541.9956 2786.5901 11245.413 0
-6489.6499 2792.8254 11270.576 0
-6391.0156 2779.0632 11215.038 0
-6337.0059 2784.6199 11237.462 0
-6253.1509 2777.0403 11206.874 0
-6187.0024 2777.2456 11207.703 0
-6130.7505 2781.9463 11226.674 0
-6073.9194 2786.4851 11244.989 0
-6025.1113 2794.8459 11278.73 0
-5965.1006 2798.1401 11292.024 0
-5921.7036 2809.3914 11337.429 0
-5866.2773 2815.1289 11360.583 0
-5796.458 2814.0127 11356.078 0
-5737.1396 2818.0276 11372.281 0
-5683.3975 2824.9106 11400.058 0
-5614.5957 2824.3838 11397.932 0
-5563.8105 2833.0178 11432.774 0
-5508.4023 2839.4822 11458.862 0
-5446.9575 2842.958 11472.889 0
-5386.5371 2847.0632 11489.455 0
-5326.4014 2851.426 11507.062 0
-5284.415 2865.7449 11564.847 0
-5230.4473 2873.8584 11597.589 0
-5172.6831 2880.0747 11622.675 0
-5132.4507 2896.3525 11688.364 0
-5083.645 2908.1726 11736.065 0
-5046.1475 2926.8804 11811.562 0
-4989.5215 2934.8652 11843.784 0
-4948.0215 2952.1025 11913.347 0
-4912.7212 2973.593 12000.072 0
-4855.0923 2982.0027 12034.01 0
-4796.2261 2989.8918 12065.848 0
-4768.52 3017.7407 12178.232 0
-4721.3877 3033.9644 12243.704 0
-4661.4009 3042.3069 12277.37 0
-4605.8989 3053.8879 12324.106 0
-4573.0757 3081.1233 12434.016 0
-4527.5493 3100.5537 12512.428 0
-4487.3457 3124.3391 12608.415 0
-4412.5337 3124.4272 12608.771 0
-4329.3618 3118.4961 12584.835 0
-4251.7588 3116.4385 12576.532 65536
-4213.7515 3143.8496 12687.151 131072
-4144.9268 3148.8484 12707.323 131072
-4083.99 3160.1355 12752.873 196608
-4031.4187 3178.4451 12826.763 196608
-3974.7527 3194.1702 12890.222 196608
-3913.4897 3206.7466 12940.975 196608
-3837.3147 3207.3633 12943.463 196608
-3770.3254 3215.8396 12977.67 196608
-3757.9844 3272.2554 13205.338 196608
-3708.8533 3298.3591 13310.682 196608
-3584.3481 3257.1084 13144.212 196608
-3489.2898 3241.3743 13080.716 196608
-3395.9426 3226.5488 13020.887 196608
-3313.5503 3221.6826 13001.25 65536
-3265.6028 3250.8738 13119.052 65536
-3240.7859 3305.0825 13337.814 65536
-3170.4351 3314.4077 13375.446 65536
-3093.6587 3317.323 13387.211 65536
-3012.6179 3315.6985 13380.655 65536
-2924.7637 3306.2839 13342.661 65536
-2849.2549 3310.689 13360.439 196608
-2775.9951 3318.0349 13390.084 196608
-2717.6545 3344.1731 13495.565 131072
-2612.0552 3311.979 13365.645 65536
-2547.9988 3332.092 13446.812 65536
-2487.0603 3357.7173 13550.224 0
-2423.9348 3382.0061 13648.242 0
-2343.1755 3382.5215 13650.321 0
-2241.7742 3352.2065 13527.985 0
-2164.2959 3356.7402 13546.281 0
-2082.561 3354.7678 13538.321 0
-2014.5928 3375.7041 13622.811 0
-1960.3201 3422.3035 13810.864 0
-1877.6 3421.1421 13806.177 0
-1794.1183 3418.4233 13795.206 0
-1743.3192 3480.6985 14046.52 0
-1668.7684 3499.4304 14122.113 0
-1547.9563 3417.9973 13793.486 0
-1440.0381 3357.52 13549.428 0
-1360.8778 3360.8999 13563.067 0
-1278.7761 3356.9839 13547.265 0
-1194.9904 3347.8242 13510.299 0
-1119.9771 3363.6907 13574.33 0
-1038.0079 3359.5083 13557.451 0
-955.76666 3353.6672 13533.88 0
-868.9433 3329.1978 13435.131 0
-783.40045 3305.1777 13338.197 264459
-697.40778 3273.6379 13210.917 857109
-621.88324 3289.4666 13274.795 1383454
-530.2207 3212.1299 12962.699 1252896
-457.87259 3245.3987 13096.957 2108463
-364.66171 3114.1323 12567.226 2306099
-287.18912 3084.2634 12446.688 2174772
-212.51407 3074.136 12405.818 2635065
-137.57541 3047.4087 12297.959 2239534
-63.398247 2996.0796 12090.817 516
8.7223902 3088.4011 12463.386 330253
85.189453 3177.6572 12823.583 3030339
164.45558 3237.7271 13065.997 3096904
242.29875 3240.2336 13076.112 2965064
324.34869 3284.1174 13253.208 3031114
405.47806 3303.3521 13330.83 3097163
481.42706 3280.9934 13240.601 3163215
558.1485 3269.4421 13193.985 3031886
618.06006 3174.3999 12810.438 3295315
689.24652 3151.7629 12719.085 3295572
744.11707 3066.3657 12374.461 3229777
780.2934 2926.2246 11808.915 2900815
811.44116 2791.9119 11266.89 3097422
852.40472 2709.2754 10933.406 3098191
889.90558 2628.1196 10605.898 3228747
888.92987 2451.5852 9893.4854 1581865
965.31836 2497.0823 10077.091 775
1030.7065 2510.47 10131.118 3292483
1208.004 2779.9104 11218.457 3950929
1373.7794 2996.0352 12090.639 3425097
1628.7051 3375.4348 13621.724 1778214
1717.3334 3390.5771 13682.832 1
1780.104 3355.6074 13541.709 131073
1937.7963 3494.8555 14103.651 196608
2068.7031 3576.2515 14432.129 196608
2176.4885 3612.7871 14579.569 196608
2091.4221 3338.6633 13473.33 65537
2213.6912 3403.5337 13735.118 4
2371.3147 3516.2144 14189.846 1514785
2530.7302 3623.7209 14623.693 1976368
2558.3789 3541.678 14292.604 1450025
2636.9126 3533.0864 14257.934 1780017
2703.0474 3508.9341 14160.467 1385003
2800.6472 3525.8538 14228.746 1911861
2814.2756 3439.1646 13878.907 1648172
2844.7397 3377.4004 13629.656 2304301
2780.5244 3209.7615 12953.141 2
2902.6113 3260.4229 13157.588 1
2955.4644 3232.6982 13045.704 3092785
3045.1211 3245.6179 13097.842 1514009
3135.2749 3258.4102 13149.465 3
3194.8674 3239.5913 13073.521 131587
3226.4321 3193.9204 12889.214 2959401
3309.1736 3199.8538 12913.158 196610
3403.8774 3216.8235 12981.641 327680
3444.3801 3182.9539 12844.958 327680
3562.4592 3220.6868 12997.23 394501
3607.4146 3192.1125 12881.919 327680
3575.4985 3098.1182 12502.6 327680
3557.8281 3020.0435 12187.525 655360
3722.5618 3096.8279 12497.392 524288
3810.6543 3108.0969 12542.869 458752
3770.2007 3016.0984 12171.604 327680
3627.9839 2847.6877 11491.976 262145
3524.3401 2715.2185 10957.39 262145
3919.8816 2965.1604 11966.042 131074
4057.6458 3014.6758 12165.863 4
3707.9692 2706.6479 10922.803 1514270
3820.1707 2740.5688 11059.692 1251870
4087.4265 2882.6958 11633.252 1186333
4323.7207 2998.6213 12101.075 1185563
4410.2314 3008.5742 12141.241 1316890
4435.1533 2976.8687 12013.291 789517
4929.481 3256.2397 13140.707 2
4822.1167 3135.6396 12654.02 527116
5273.7759 3376.6729 13626.72 1712676
5309.2422 3347.9673 13510.877 2174001
5529.2705 3434.7664 13861.158 2239797
5519.5977 3378.4216 13633.776 2569274
5349.6772 3227.0427 13022.88 2569016
5280.4478 3139.8542 12671.027 2501938
5295.9233 3104.7769 12529.471 1251357
5307.7705 3068.5747 12383.375 592653
5154.4214 2939.1638 11861.132 263430
5164.1436 2904.9778 11723.172 262916
5065.4097 2811.5042 11345.955 196865
4956.2764 2714.7903 10955.662 262144
4942.0386 2671.8896 10782.534 458752
4853.7949 2590.5884 10454.439 786432
4747.1846 2501.6636 10095.579 917504
4741.0586 2467.251 9956.7051 1179648
4684.4937 2407.7615 9716.6328 1245184
4597.3257 2334.1831 9419.7041 1245184
4647.7725 2331.4055 9408.4951 1245184
4459.9839 2210.6111 8921.0234 1442560
0 0 0 0
3518.3789 1703.4 6874.1494 851968
3396.7253 1625.6254 6560.2866 393216
3364.6809 1592.0151 6424.6509 787712
3491.7429 1633.5966 6592.4541 196608
4624.458 2139.5244 8634.1494 196608
4683.5718 2143.0925 8648.5488 65536
4745.4438 2147.8315 8667.6738 65536
4799.04 2148.7634 8671.4346 65536
4893.7285 2167.8792 8748.5762 65536
4981.6001 2183.6045 8812.0371 65536
5027.5684 2180.8264 8800.8262 65536
5092.3599 2186.1865 8822.457 0
5190.9097 2205.7822 8901.5361 0
5275.8379 2219.2527 8955.8965 0
5341.7983 2224.5549 8977.2949 0
5426.6313 2237.5339 9029.6719 0
5535.8389 2260.2107 9121.1855 0
5573.896 2253.6797 9094.8281 0
5677.0161 2273.3279 9174.1201 0
5786.1592 2294.9915 9261.5439 0
5855.9863 2300.7993 9284.9824 65536
5914.4165 2302.0627 9290.0811 65536
6039.3164 2328.9358 9398.5283 65536
6144.6494 2347.8396 9474.8154 65536
6229.3882 2358.6028 9518.25 65536
6304.5093 2365.5635 9546.3408 65536
6407.3584 2382.7109 9615.54 65536
6465.9878 2383.2568 9617.7432 65536
6574.9473 2402.1814 9694.1143 65536
6680.269 2419.4597 9763.8418 65536
6756.0269 2425.825 9789.5293 0
6611.8071 2353.7708 9498.751 65536
6938.1353 2449.0312 9883.1787 65536
7036.708 2462.9739 9939.4443 65536
7138.0464 2477.6443 9998.6475 65536
7203.9819 2479.885 10007.69 65536
7287.7139 2488.1653 10041.106 0
7371.2231 2496.2356 10073.675 0
7428.207 2495.2659 10069.761 0
7604.729 2534.1453 10226.661 0
7841.543 2592.3403 10461.51 0
8087.957 2652.7686 10705.37 0
8284.7119 2696.0928 10880.207 0
8563.8555 2765.3501 11159.698 0
9279.377 2973.3704 11999.174 0
9608.3486 3055.3008 12329.809 0
9606.3438 3031.5425 12233.931 0
9869.6982 3091.2537 12474.897 0
9991.0742 3105.9368 12534.152 0
9919.8955 3060.9863 12352.752 0
10052.195 3079.0227 12425.538 0
10186.683 3097.4609 12499.947 0
10344.688 3122.7314 12601.927 0
10612.563 3180.5667 12835.323 0
10594.835 3152.592 12722.431 0
11238.901 3320.542 13400.2 0
11401.306 3344.822 13498.184 0
11423.245 3327.8423 13429.661 0
11198.13 3239.6248 13073.656 0
11421.17 3281.3821 13242.169 0
11356.242 3240.3982 13076.777 0
11991.743 3398.4741 13714.699 65536
11824.426 3328.4316 13432.041 65536
11940.536 3338.5757 13472.977 0
12088.119 3357.3254 13548.642 196608
12451.201 3435.2827 13863.243 196608
12691.609 3478.5923 14038.02 196608
13055.248 3554.8911 14345.928 196608
13787.325 3729.8735 15052.077 196608
14955.996 4019.9497 16222.692 196608
0 0 0 0
0 0 0 0
0 0 0 0
0 0 0 0
0 0 0 0
0 0 0 0
0 0 0 0
0 0 0 0
0 0 0 0
0 0 0 0
0 0 0 0
-8776.4346 2450.8755 9658.9551 0
-8680.8467 2440.1428 9616.6572 0
-8894.0645 2516.647 9918.1621 0
-8851.0566 2521.1873 9936.0547 0
-8801.4375 2523.8926 9946.7168 0
-8752.792 2526.9155 9958.6299 0
-8710.1709 2531.731 9977.6084 0
-8669.0342 2537.0469 9998.5576 0
-8405.7197 2476.9648 9761.7744 0
-8563.3584 2540.9556 10013.963 0
-8577.7822 2563.0488 10101.033 0
-8594.6289 2586.1829 10192.204 0
-8574.3994 2598.4097 10240.391 0
-8542.1289 2607.136 10274.781 0
-8493.918 2611.0879 10290.355 0
-8439.9512 2613.3147 10299.132 0
-8380.2764 2613.7942 10301.021 0
-8329.2549 2616.9993 10313.652 0
-8333.7891 2637.8369 10395.773 0
-8285.4102 2642.1118 10412.622 0
-8290.2871 2663.5618 10497.156 0
-8277.5234 2679.6262 10560.467 0
-8282.002 2701.561 10646.912 0
-8225.8486 2703.9028 10656.142 0
-8169.582 2706.2439 10665.367 0
-8114.3706 2708.9734 10676.125 0
-8061.8413 2712.6489 10690.609 0
-8008.77 2716.1987 10704.6 0
-7955.8433 2719.8545 10719.008 0
-7903.0918 2723.6301 10733.887 0
-7846.3623 2726.085 10743.562 0
-7788.1919 2728.0752 10751.405 0
-7727.9009 2729.3499 10756.429 0
-7670.9741 2731.8435 10766.256 0
-7613.6387 2734.2324 10775.671 0
-7555.3262 2736.3081 10783.852 0
-7501.5205 2740.0654 10798.658 0
-7458.2583 2747.772 10829.03 0
-7398.5601 2749.5046 10835.859 0
-7348.0498 2754.7124 10856.383 0
-7295.6235 2759.2876 10874.414 0
-7241.8135 2763.4163 10890.686 0
-7184.6035 2766.311 10902.093 0
-7122.4316 2767.3298 10906.108 0
-7068.2383 2771.4961 10922.528 0
-7020.1157 2778.1421 10948.72 0
-6974.834 2786.0471 10979.874 0
-6930.1304 2794.3345 11012.535 0
-6876.4746 2799.1362 11031.458 65536
-6822.4712 2803.8872 11050.182 65536
-6768.2046 2808.6213 11068.84 0
-6717.8237 2815.0769 11094.28 0
-6640.3315 2810.1868 11075.009 0
-6582.2881 2813.5117 11088.112 0
-6519.1138 2814.689 11092.752 0
-6483.7891 2828.0371 11145.357 0
-6428.377 2832.8091 11164.164 0
-6332.4126 2819.6238 11112.2 0
-6276.54 2824.2007 11130.237 0
-6204.2051 2821.3882 11119.153 0
-6135.1821 2820.0378 11113.832 0
-6077.3281 2823.8477 11128.847 0
-6012.9346 2824.6694 11132.085 0
-5971.8872 2836.5984 11179.098 0
-5928.6543 2847.7463 11223.031 0
-5864.6895 2849.0762 11228.272 0
-5807.8926 2853.9585 11247.515 0
-5746.8564 2856.8479 11258.901 0
-5674.2041 2853.9622 11247.529 0
-5617.8101 2859.2832 11268.499 0
-5571.0688 2869.7046 11309.569 0
-5514.519 2875.2661 11331.488 0
-5461.5771 2882.8699 11361.455 0
-5399.3335 2885.6924 11372.578 0
-5330.0615 2884.7827 11368.993 0
-5275.0186 2891.6497 11396.056 0
-5240.228 2909.9417 11468.145 0
-5183.4902 2916.3677 11493.47 0
-5116.4668 2917.1011 11496.36 0
-5065.064 2926.8804 11534.901 0
-5019.2773 2940.2185 11587.467 0
-4984.7383 2960.6079 11667.821 0
-4930.228 2969.5437 11703.038 0
-4865.8887 2972.7297 11715.595 0
-4825.686 2990.9692 11787.477 0
-4778.5679 3005.396 11844.333 0
-4730.6274 3019.7297 11900.822 0
-4689.439 3038.8738 11976.27 0
-4650.8896 3060.3445 12060.886 0
-4589.9688 3067.5364 12089.229 0
-4557.1265 3094.0208 12193.604 0
-4522.5229 3120.1458 12296.563 0
-4464.5205 3130.7205 12338.239 0
-4420.6943 3151.7559 12421.141 0
-4343.5312 3149.3342 12411.597 0
-4255.937 3139.1348 12371.4 0
-4170.1445 3129.9292 12335.121 65536
-4124.9819 3151.4353 12419.876 65536
-4064.5767 3161.8669 12460.988 65536
-4006.2275 3174.3152 12510.048 0
-3945.2097 3185.0801 12552.472 131072
-3885.3005 3197.1719 12600.126 196608
-3828.2971 3212.1772 12659.263 196608
-3750.4026 3209.9041 12650.304 196608
-3682.9312 3216.6411 12676.854 196608
-3675.5833 3277.2678 12915.785 196608
-3630.0171 3305.677 13027.747 196608
-3514.2327 3269.9868 12887.091 196608
-3429.8301 3262.5576 12857.812 196608
-3321.9041 3231.9036 12737.004 196608
-3242.0063 3227.7249 12720.535 196608
-3157.0496 3218.1895 12682.956 196608
-3148.2407 3287.7087 12956.933 196608
-3086.8206 3304.3945 13022.693 196608
-3011.2397 3306.3904 13030.559 196608
-2927.3176 3299.0911 13001.791 196608
-2843.5725 3291.6006 12972.271 65536
-2770.7412 3296.6775 12992.28 65536
-2690.4851 3292.959 12977.624 65536
-2614.2959 3294.145 12982.299 65536
-2539.376 3297.0513 12993.752 0
-2447.8035 3277.8406 12918.042 0
-2375.8196 3284.4656 12944.152 0
-2304.0181 3291.7952 12973.038 0
-2222.7893 3285.6965 12949.004 0
-2140.8557 3278.082 12918.994 0
-2077.8052 3299.8896 13004.938 0
-2003.1819 3304.2932 13022.293 0
-1936.1567 3322.0876 13092.421 0
-1871.9387 3346.3904 13188.199 0
